0.825429975986 -0.242611497641 0.145989835262 -0.992533 0.007677 -0.121736
0.826179623604 -0.092840954661 0.150097534060 -0.992533 0.007677 -0.121736
0.815820157528 -0.175107911229 0.221125826240 -0.979093 0.008130 -0.203252
0.815746963024 0.227277189493 0.236573949456 -0.977375 0.008174 -0.211356
0.813490271568 0.895660579205 0.255118906498 -0.943059 0.001246 -0.332624
0.813598155975 1.408386230469 0.263131707907 -0.965365 0.003607 -0.260877
0.816074788570 1.333253622055 0.252715736628 -0.993475 -0.003257 -0.114005
0.805518805981 1.772690773010 0.288976669312 -0.963764 0.066771 -0.258264
0.755591928959 1.817908763885 0.457985520363 -0.940372 -0.091517 -0.327605
0.781819581985 1.753190279007 0.352983504534 -0.919410 0.381152 -0.096996
0.779018580914 1.726135611534 0.337823867798 -0.969675 -0.047931 -0.239653
0.809888660908 1.552490830421 0.273172050714 -0.728973 0.015332 -0.684371
0.812195003033 0.994218468666 0.259179413319 -0.752747 0.015305 -0.658132
0.804447114468 0.718201398849 0.288968205452 -0.974473 -0.077613 -0.210664
0.774344325066 0.724769353867 0.406094819307 -0.964132 -0.077080 -0.253985
0.783674120903 0.743139326572 0.367365658283 -0.967354 -0.027986 -0.251877
0.710720956326 1.626236677170 0.584889352322 -0.945366 0.290778 -0.147418
0.728014051914 1.758928418159 0.540383279324 -0.925133 -0.090487 -0.368703
0.735294699669 1.850488066673 0.501717984676 -0.925245 -0.082154 -0.370367
0.691797852516 1.866989374161 0.561107456684 -0.750214 -0.412043 -0.517106
0.706169307232 2.013805150986 0.365311533213 -0.137738 -0.816058 -0.561318
0.806048750877 0.828928172588 0.266284197569 -0.967165 -0.038000 -0.251291
0.740052700043 0.739129066467 0.512229263783 -0.944338 0.055549 -0.324253
0.725049316883 0.710227012634 0.554563403130 -0.942514 -0.029334 -0.332877
0.814637422562 0.535660028458 0.251010447741 -0.964225 0.008469 -0.264950
0.819719552994 -0.284967720509 0.196285143495 -0.986110 0.062293 -0.153969
0.804214060307 0.235231295228 0.264432549477 -0.140140 0.019059 -0.989948
0.798085570335 0.535549879074 0.271567225456 -0.219778 0.020196 -0.975341
0.519350290298 2.089059114456 -0.351646631956 -0.008295 0.231079 -0.972900
0.619886040688 2.088112354279 -0.352449595928 0.012555 0.172339 -0.984958
0.647146224976 2.136805057526 -0.354093134403 -0.013667 -0.066234 -0.997711
0.723366677761 2.190598249435 -0.455880492926 -0.097920 -0.987455 0.123874
0.569092392921 2.159946680069 -0.488278478384 -0.012746 -0.191195 0.981469
0.412771999836 2.159950733185 -0.489729464054 -0.005765 -0.192564 0.981268
0.443848133087 2.095114707947 -0.513292372227 -0.001014 0.039563 0.999217
0.411579132080 2.043348312378 -0.511314570904 -0.001014 0.039563 0.999217
0.425167351961 1.990642189980 -0.509237468243 -0.001014 0.039563 0.999217
0.462789475918 1.947416305542 -0.507494807243 -0.001014 0.039563 0.999217
0.201572120190 2.079374074936 -0.512870788574 -0.001014 0.039563 0.999217
0.164173528552 2.089473962784 -0.513285040855 -0.001014 0.039563 0.999217
0.238102585077 1.925156712532 -0.506598412991 0.001016 0.041673 0.999131
0.019871722907 1.937000751495 -0.507076323032 0.001016 0.041673 0.999131
0.161698654294 1.903228998184 -0.505701661110 0.001016 0.041673 0.999131
0.041138608009 1.913755178452 -0.506128191948 0.001016 0.041673 0.999131
0.253310382366 1.912512898445 -0.506082773209 0.001016 0.041673 0.999131
0.131236463785 1.992308378220 -0.509336173534 0.001016 0.041673 0.999131
0.304791182280 1.924498438835 -0.506573259830 0.001016 0.041673 0.999131
0.161838188767 1.992625236511 -0.509349822998 0.001016 0.041673 0.999131
-0.130007207394 2.012316465378 -0.510152637959 -0.001016 0.041673 0.999131
-0.500712752342 1.844770312309 -0.503324389458 -0.001016 0.041673 0.999131
-0.174064412713 1.903326272964 -0.505705952644 -0.001016 0.041673 0.999131
-0.193390697241 1.869492411613 -0.504325628281 -0.001016 0.041673 0.999131
-0.184387847781 2.010084629059 -0.510062932968 -0.001016 0.041673 0.999131
-0.076386511326 1.906511783600 -0.505833506584 -0.001016 0.041673 0.999131
-0.276601135731 1.953780651093 -0.507767498493 -0.001016 0.041673 0.999131
-0.050089035183 1.978925228119 -0.508787989616 -0.001016 0.041673 0.999131
-0.463385283947 2.020791292191 -0.510321080685 0.001014 0.039563 0.999217
-0.401260852814 1.994488835335 -0.509333193302 0.001014 0.039563 0.999217
-0.484733819962 1.986088156700 -0.508943378925 0.001014 0.039563 0.999217
-0.182644426823 2.060985803604 -0.512100815773 0.001014 0.039563 0.999217
-0.431470453739 2.085963726044 -0.512902617455 0.001014 0.039563 0.999217
-0.522222995758 1.914336562157 -0.506099581718 0.001014 0.039563 0.999217
-0.028639096767 1.823748111725 -0.496779888868 -0.001228 0.305890 0.952066
-0.426332294941 1.831866145134 -0.499388188124 0.001231 0.306607 0.951836
-0.465894848108 1.723100900650 -0.506368875504 0.001079 -0.111142 0.993804
-0.312753647566 1.817153573036 -0.495821386576 0.001079 -0.111142 0.993804
-0.563908815384 1.797881126404 -0.497972816229 0.001079 -0.111142 0.993804
-0.262212455273 1.757431983948 -0.502539098263 0.001081 -0.113516 0.993536
-0.387312322855 1.709549427032 -0.507946193218 0.001081 -0.113516 0.993536
-0.199397936463 1.725275635719 -0.506232857704 0.001081 -0.113516 0.993536
-0.302942395210 1.680080175400 -0.522828996181 0.001369 -0.606331 0.795211
-0.218422442675 1.658593773842 -0.539242148399 0.001369 -0.606331 0.795211
-0.055946663022 1.670771360397 -0.530029296875 0.001369 -0.606331 0.795211
-0.503639161587 1.641658425331 -0.552289903164 -0.001369 -0.609379 0.792878
-0.135227054358 1.635167956352 -0.557167172432 -0.001369 -0.609379 0.792878
-0.551781237125 1.692450404167 -0.513302683830 -0.001369 -0.609379 0.792878
-0.713712751865 1.689339160919 -0.516689836979 0.001379 -0.663079 0.748548
-0.749334573746 1.645364165306 -0.596728503704 0.143586 -0.980556 -0.133768
-0.773137569427 1.657321929932 -0.706756770611 0.167010 -0.975691 -0.141896
-0.776176631451 1.646533250809 -0.659659087658 0.001100 0.990809 0.135260
-0.692321777344 1.641914129257 -0.625643908978 -0.001100 0.990809 0.135260
-0.700783848763 1.642542362213 -0.630270600319 -0.001100 0.990809 0.135260
-0.766785204411 1.620788931847 -0.552179157734 -0.001178 0.972119 0.234487
-0.592582345009 1.618773460388 -0.543873250484 -0.001178 0.972119 0.234487
-0.789310932159 1.598158597946 -0.458920389414 0.001178 0.972119 0.234487
-0.656037926674 1.575868248940 -0.382853478193 -0.001228 0.952066 0.305890
-0.604603350163 1.550629615784 -0.337315112352 -0.001330 0.871255 0.490829
-0.582627952099 1.559978485107 -0.384106606245 0.999999 0.000978 0.000978
-0.582628011703 1.347626686096 -0.371012091637 0.999999 -0.000978 0.000978
-0.582628130913 1.290177106857 -0.356579273939 0.999999 -0.000978 0.000978
-0.582625865936 1.134236335754 -0.537799596786 0.999999 0.000978 0.000978
-0.582627892494 1.268485069275 -0.380021512508 0.999999 0.000978 0.000978
-0.582625687122 1.104345321655 -0.550852656364 0.999999 0.000978 0.000978
-0.582626700401 1.111032128334 -0.454477876425 0.999999 0.000978 0.000978
-0.582626461983 1.112146735191 -0.476868122816 0.999999 0.000978 0.000978
-0.582625627518 1.096338272095 -0.554282486439 0.999999 0.000978 0.000978
-0.582627356052 1.277312517166 -0.426937609911 0.999999 0.000978 0.000978
-0.582626819611 1.561432838440 -0.539243459702 0.999999 0.000978 0.000978
-0.582626819611 0.950814485550 -0.492983937263 0.999999 -0.000978 0.000978
-0.582627832890 1.009974956512 -0.418293327093 0.999999 -0.000978 0.000978
-0.582627594471 0.966074228287 -0.451427280903 0.999999 -0.000978 0.000978
-0.582628428936 1.058511257172 -0.336535245180 0.999999 -0.000978 0.000978
-0.582628250122 1.173483252525 -0.341473370790 0.999999 -0.000978 0.000978
-0.667215466499 0.890940606594 -0.394644618034 -0.001213 -0.959249 0.282560
-0.759212195873 0.869392216206 -0.490058213472 -0.001141 -0.982547 0.186011
-0.797726035118 0.862455129623 -0.492663800716 0.956918 -0.026064 0.289185
-0.808769285679 0.806894063950 -0.426697999239 0.967563 0.210004 0.140432
-0.802195191383 0.507272124290 -0.426387071609 0.947936 0.001239 0.318457
-0.802123308182 0.364550411701 -0.425795942545 0.947936 0.001239 0.318457
-0.801317095757 0.752651929855 -0.430382698774 0.947936 0.001239 0.318457
-0.826832890511 0.634449481964 -0.354268878698 0.938422 -0.003769 0.345470
-0.823394954205 0.263692021370 -0.368295609951 0.938422 -0.003769 0.345470
-0.821751117706 0.526102304459 -0.369465887547 0.938422 -0.003769 0.345470
-0.834555447102 0.324246823788 -0.339799642563 0.692971 -0.012549 0.720857
-0.846418738365 0.670326709747 -0.324033588171 0.611615 -0.009664 0.791096
-0.848521292210 0.281015902758 -0.297397941351 0.999395 0.009150 0.033550
-0.847315311432 0.214810356498 -0.317101925611 0.999395 0.009150 0.033550
-0.847785651684 -0.021803606302 -0.270149856806 0.999429 0.005063 0.033416
-0.847453653812 0.046073593199 -0.289622485638 0.999429 0.005063 0.033416
-0.837056100368 -0.647367537022 -0.255938500166 0.816570 0.017901 -0.576969
-0.823545575142 -0.450764298439 -0.232614025474 0.577665 0.023550 -0.815934
-0.818216204643 -0.418801665306 -0.211586087942 0.981453 0.001148 0.191699
-0.819900631905 -0.624199867249 -0.197422206402 0.989078 0.021477 0.145818
-0.829552531242 -0.692639589310 -0.118952453136 0.991189 0.021232 0.130743
-0.825760304928 -1.009981393814 -0.102553725243 0.994809 0.022882 0.099154
-0.821128070354 -1.071755528450 -0.135057806969 0.994809 0.022882 0.099154
-0.821422874928 -1.238240242004 -0.051387071609 0.997545 0.026559 -0.064803
-0.823623180389 -1.206682443619 -0.072782456875 0.997545 0.026559 -0.064803
-0.830848038197 -0.916919589043 -0.068351283669 0.997545 0.026559 -0.064803
-0.814197003841 -1.365389227867 0.014144077897 0.997668 0.022217 -0.064536
-0.813633203506 -1.381774663925 0.017253469676 0.997668 0.022217 -0.064536
-0.817569971085 -1.312212467194 -0.019918173552 0.997668 0.022217 -0.064536
-0.806198894978 -1.483441352844 0.086903966963 0.991465 0.023420 -0.128255
-0.787893533707 -1.745550513268 0.118840999901 0.934818 0.170345 -0.311606
-0.775641202927 -1.736062765121 0.160644561052 0.803096 0.386320 -0.453645
-0.707065999508 -1.618423700333 0.320565164089 0.359040 0.624631 -0.693488
-0.724094033241 -1.588306307793 0.341390222311 0.251197 0.661959 -0.706195
-0.678659856319 -1.370271921158 0.545103490353 0.540588 0.493726 -0.681175
-0.631206691265 -1.197459816933 0.693223416805 0.460879 0.497221 -0.735093
-0.604598760605 -1.128233194351 0.749577522278 0.586978 0.343081 -0.733316
-0.465900033712 -0.930149137974 0.823700308800 0.091954 0.144499 -0.985223
-0.477314263582 -1.037897109985 0.806494057178 0.087153 0.149235 -0.984953
-0.346032738686 -0.977533459663 0.825966298580 0.057230 0.150667 -0.986927
-0.269981771708 -0.794405937195 0.853633344173 0.057589 0.107273 -0.992560
-0.232582896948 -0.839443564415 0.849724769592 0.020820 0.108483 -0.993880
-0.252162843943 -0.737558126450 0.860333263874 0.020820 0.108483 -0.993880
-0.144874826074 -0.737690567970 0.862534284592 0.020820 0.108483 -0.993880
-0.055585853755 -0.793794631958 0.858120143414 0.016466 0.113067 -0.993451
-0.000093747898 -0.852372169495 0.852449893951 0.016466 0.113067 -0.993451
0.026771949604 -0.751747906208 0.863369286060 -0.016466 0.113067 -0.993451
0.160588055849 -0.847836375237 0.850206136703 -0.016466 0.113067 -0.993451
0.249712958932 -0.843849182129 0.848894894123 -0.020820 0.108483 -0.993880
0.259993046522 -0.875638902187 0.845246434212 -0.020820 0.108483 -0.993880
0.236895501614 -0.812724113464 0.852523863316 -0.020820 0.108483 -0.993880
0.277839094400 -0.837695300579 0.848496675491 -0.057589 0.107273 -0.992560
0.381476461887 -0.789286017418 0.847543478012 -0.059988 0.105262 -0.992634
0.394161432981 -0.735701322556 0.852303981781 -0.091493 0.105391 -0.990213
0.417938292027 -0.811212956905 0.842173159122 -0.091493 0.105391 -0.990213
0.471852868795 -0.819238364697 0.836380302906 -0.093834 0.100785 -0.990473
0.517459273338 -0.772470831871 0.836690664291 -0.169323 0.098670 -0.980609
0.581383347511 -0.793022751808 0.818548798561 -0.571964 0.069891 -0.817296
0.690580844879 -1.360663771629 0.533477604389 -0.966879 -0.023108 -0.254186
0.737297534943 -1.506658673286 0.367859870195 -0.904787 0.116070 -0.409741
0.794811308384 -1.763878226280 0.033279214054 -0.992721 0.012093 -0.119830
0.791451334953 -1.758606195450 0.071171477437 -0.986603 0.131784 -0.096167
0.810433328152 -1.694222211838 -0.067917712033 -0.997522 0.041697 -0.056665
0.811782658100 -1.532221794128 -0.009814731777 -0.998091 0.026349 -0.055859
0.805786967278 -1.649993896484 0.043471083045 -0.998091 0.026349 -0.055859
0.818611323833 -1.387508392334 -0.065612658858 -0.998091 0.026349 -0.055859
0.814166545868 -1.394623398781 -0.128194376826 -0.993805 0.023061 0.108715
0.810506999493 -1.589148163795 -0.122242689133 -0.993805 0.023061 0.108715
0.816458106041 -1.444867968559 -0.097023330629 -0.993805 0.023061 0.108715
0.810587167740 -1.387517213821 -0.162406533957 -0.993805 0.023061 0.108715
0.818385481834 -1.289092659950 -0.114793226123 -0.994414 0.038629 0.098227
0.816944837570 -1.185619473457 -0.154228001833 -0.996338 0.013883 0.084363
0.820771396160 -1.217523336411 -0.106057457626 -0.994809 0.022882 0.099154
0.825263082981 -1.049860715866 -0.098621197045 -0.994809 0.022882 0.099154
0.820631265640 -0.988933146000 -0.166696056724 -0.996016 0.031430 0.083453
0.834515929222 -0.700388014317 -0.079789221287 -0.991189 0.021232 0.130743
0.831016004086 -0.901452898979 -0.073355741799 -0.991189 0.021232 0.130743
0.824901044369 -0.708449125290 -0.151028111577 -0.991189 0.021232 0.130743
0.837464570999 -0.453190088272 -0.069731071591 -0.990368 -0.025855 0.136021
0.832370817661 -0.446184843779 -0.105873525143 -0.992221 -0.018847 0.123058
0.822806715965 0.067881800234 -0.174904108047 -0.992361 0.001092 0.123363
0.823310673237 -0.058415990323 -0.168869614601 -0.992361 0.001092 0.123363
0.823167324066 -0.073955841362 -0.169778227806 -0.992361 0.001092 0.123363
0.818593800068 -0.144929051399 -0.205438792706 -0.992361 0.001092 0.123363
0.819884300232 -0.333610832691 -0.192100957036 -0.992361 0.001092 0.123363
0.823556780815 0.158863276243 -0.171177163720 -0.991741 0.003288 0.128214
0.836743235588 -0.114804133773 -0.062150586396 -0.991741 0.003288 0.128214
0.835348963737 -0.300166666508 -0.068377345800 -0.991741 0.003288 0.128214
0.821063280106 0.214006960392 -0.191877350211 -0.991741 0.003288 0.128214
0.826415777206 0.024701699615 -0.145687460899 -0.991741 0.003288 0.128214
0.831631243229 0.448143005371 -0.113265112042 -0.991746 0.001096 0.128215
0.825646162033 0.384254664183 -0.158766806126 -0.991746 0.001096 0.128215
0.834401845932 0.241545110941 -0.088837146759 -0.991746 0.001096 0.128215
0.830925107002 0.417822271585 -0.118308998644 -0.991746 0.001096 0.128215
0.824666202068 0.728216886520 -0.171799078584 -0.991097 0.003300 0.133100
0.835966050625 0.346490442753 -0.078302785754 -0.991097 0.003300 0.133100
0.837083160877 0.717355132103 -0.078532651067 -0.991097 0.003300 0.133100
0.842580437660 0.682787895203 -0.036551557481 -0.991097 0.003300 0.133100
0.822408735752 0.787684261799 -0.186711490154 -0.991134 -0.014429 0.132077
0.833410322666 0.813686549664 -0.101200513542 -0.991134 -0.014429 0.132077
0.822923421860 0.856025993824 -0.175721853971 -0.991134 -0.014429 0.132077
0.835271477699 0.842881679535 -0.084152594209 -0.991134 -0.014429 0.132077
0.834644496441 1.039571881294 -0.071894511580 -0.990489 -0.012256 0.137042
0.834522604942 1.003902435303 -0.075666949153 -0.990489 -0.012256 0.137042
0.824230015278 1.144593477249 -0.138116508722 -0.990489 -0.012256 0.137042
0.819789409637 1.295358300209 -0.154886573553 -0.990417 -0.014516 0.137341
0.816027283669 1.386583566666 -0.172720015049 -0.990417 -0.014516 0.137341
0.817346811295 1.284654378891 -0.173494577408 -0.990417 -0.014516 0.137341
0.816324293613 1.621062636375 -0.148938670754 -0.989468 -0.012298 0.144228
0.832167744637 1.289162278175 -0.066944196820 -0.989468 -0.012298 0.144228
0.823818325996 1.588672161102 -0.100398302078 -0.989468 -0.012298 0.144228
0.830007672310 1.490675091743 -0.065887510777 -0.989468 -0.012298 0.144228
0.830429136753 1.540944337845 -0.059078790247 -0.989468 -0.012298 0.144228
0.831674695015 1.448990345001 -0.057789321989 -0.989468 -0.012298 0.144228
0.815043509007 1.646623611450 -0.155113801360 -0.988640 -0.014622 0.149589
0.816139578819 1.762958526611 -0.136815577745 -0.988640 -0.014622 0.149589
0.819443881512 1.925415515900 -0.048652779311 -0.988357 -0.127492 0.083045
0.811076581478 1.983519315720 0.015495561063 -0.986362 -0.163441 -0.019430
0.783501386642 2.051226854324 0.122664190829 -0.911622 -0.410558 -0.019675
0.799114763737 2.020299911499 -0.127852439880 -0.848634 -0.527454 0.040147
0.754041492939 2.190272331238 -0.423673897982 -0.201014 -0.972198 0.120102
0.743818342686 2.112688302994 -0.496153026819 -0.020087 -0.211504 0.977171
0.667940139771 2.135145664215 -0.492277652025 -0.008134 -0.201023 0.979553
0.726044356823 2.071798563004 -0.511891305447 -0.082254 -0.792239 0.604641
0.626557826996 2.050968170166 -0.511546254158 0.001014 0.039563 0.999217
0.572526395321 1.964564323425 -0.508075356483 0.001014 0.039563 0.999217
0.561871886253 1.979171037674 -0.508647561073 0.001014 0.039563 0.999217
0.636012375355 1.906597614288 -0.505815744400 0.001014 0.039563 0.999217
0.764205694199 1.971096754074 -0.508414804935 0.001014 0.039563 0.999217
0.695415675640 1.964161515236 -0.508134067059 0.001014 0.039563 0.999217
0.559605717659 1.827477574348 -0.497965097427 -0.001231 0.306607 0.951836
0.102378636599 1.831676363945 -0.499328911304 0.001228 0.305890 0.952066
0.090915516019 1.813944339752 -0.496191471815 -0.001079 -0.111142 0.993804
0.387015998363 1.769216418266 -0.501197338104 -0.001079 -0.111142 0.993804
0.324643731117 1.756603240967 -0.502615571022 -0.001079 -0.111142 0.993804
0.087869837880 1.726580381393 -0.506131649017 -0.001081 -0.113516 0.993536
0.134280815721 1.715453267097 -0.507380664349 -0.001081 -0.113516 0.993536
0.243440240622 1.729911684990 -0.505685329437 -0.001081 -0.113516 0.993536
0.344236433506 1.718828797340 -0.506906211376 -0.001081 -0.113516 0.993536
0.103103861213 1.675970673561 -0.526045978069 -0.001369 -0.606331 0.795211
0.060987412930 1.634622454643 -0.557580292225 -0.001369 -0.606331 0.795211
0.177213817835 1.655898213387 -0.541313946247 -0.001369 -0.606331 0.795211
0.350485950708 1.637955427170 -0.555088281631 0.001369 -0.609379 0.792878
0.465452194214 1.661472797394 -0.537063181400 0.001369 -0.609379 0.792878
0.513345420361 1.237421274185 -0.558103740215 0.000997 0.018940 0.999820
0.504422128201 1.143233418465 -0.556231439114 0.000997 0.018940 0.999820
0.257974714041 1.329197645187 -0.559851884842 0.000997 0.018940 0.999820
0.458258658648 1.338147640228 -0.560087323189 0.000997 0.018940 0.999820
0.469065219164 1.617510437965 -0.565636157990 0.000997 0.018940 0.999820
0.417420655489 1.099373936653 -0.555335640907 0.000997 0.018940 0.999820
0.560727655888 1.534563660622 -0.564015984535 0.000997 0.018940 0.999820
0.392058700323 1.448359131813 -0.562256038189 0.000997 0.018940 0.999820
0.312664538622 1.467112302780 -0.562605440617 0.000997 0.018940 0.999820
0.355340003967 1.400137782097 -0.561288237572 0.000997 0.018940 0.999820
0.505497097969 1.351948261261 -0.560374915600 0.000997 0.018940 0.999820
0.504850983620 1.579922914505 -0.564900279045 0.000997 0.018940 0.999820
0.386128634214 1.377534627914 -0.560848414898 0.000997 0.018940 0.999820
0.517644643784 1.379760622978 -0.560930550098 0.000997 0.018940 0.999820
0.522634863853 1.276301980019 -0.558878242970 0.000997 0.018940 0.999820
0.467104792595 1.116593122482 -0.555691778660 0.000997 0.018940 0.999820
0.275077521801 1.396736860275 -0.561197578907 0.000997 0.018940 0.999820
0.323563605547 1.201180934906 -0.557329595089 0.000997 0.018940 0.999820
0.372217476368 1.553836941719 -0.564344167709 0.000997 0.018940 0.999820
0.252074807882 1.520080924034 -0.563639461994 0.000997 0.018940 0.999820
0.190518081188 1.623805284500 -0.565680742264 0.000997 0.018940 0.999820
0.328764826059 1.285480260849 -0.559004485607 0.000997 0.018940 0.999820
0.062515795231 1.506529808044 -0.563321828842 0.000995 0.018902 0.999821
0.080499731004 1.398324966431 -0.561193525791 0.000995 0.018902 0.999821
0.147527918220 1.191977739334 -0.557136893272 0.000995 0.018902 0.999821
0.225578457117 1.006740808487 -0.553496479988 0.000995 0.018902 0.999821
0.054568819702 0.956568777561 -0.552498042583 0.000995 0.018902 0.999821
0.283190310001 1.240252971649 -0.558095693588 0.000995 0.018902 0.999821
0.338818579912 0.865210533142 -0.550718426704 0.000995 0.018902 0.999821
0.021459534764 1.285029649734 -0.558960080147 0.000995 0.018902 0.999821
0.128117352724 1.327529191971 -0.559803307056 0.000995 0.018902 0.999821
0.196679368615 1.110128402710 -0.555529236794 0.000995 0.018902 0.999821
0.399495661259 0.917009055614 -0.551741719246 0.000995 0.018902 0.999821
0.109906643629 1.059582233429 -0.554528951645 0.000995 0.018902 0.999821
0.064056247473 1.132192134857 -0.555954992771 0.000995 0.018902 0.999821
0.064413540065 1.206889629364 -0.557425022125 0.000995 0.018902 0.999821
0.356433898211 1.030755877495 -0.553977429867 0.000995 0.018902 0.999821
0.204034522176 1.105583190918 -0.555440306664 0.000995 0.018902 0.999821
0.130131185055 1.304158687592 -0.559343516827 0.000995 0.018902 0.999821
0.330709695816 1.075535178185 -0.554857134819 0.000995 0.018902 0.999821
0.146393567324 1.026522994041 -0.553880691528 0.000995 0.018902 0.999821
0.144010975957 1.396266460419 -0.561157107353 0.000995 0.018902 0.999821
0.211439400911 0.949230790138 -0.552363753319 0.000995 0.018902 0.999821
0.098178006709 1.321819424629 -0.559689044952 0.000995 0.018902 0.999821
-0.006662696600 1.424614191055 -0.561706125736 -0.000995 0.018902 0.999821
-0.242041662335 1.043020248413 -0.554211497307 -0.000995 0.018902 0.999821
-0.063323870301 1.003764152527 -0.553427457809 -0.000995 0.018902 0.999821
-0.045430652797 1.017425537109 -0.553695142269 -0.000995 0.018902 0.999821
-0.204614832997 1.297601103783 -0.559219300747 -0.000995 0.018902 0.999821
-0.332120627165 1.077503681183 -0.554895877838 -0.000995 0.018902 0.999821
-0.526201963425 0.932017683983 -0.552045226097 -0.000995 0.018902 0.999821
-0.106485605240 1.430298924446 -0.561824440956 -0.000995 0.018902 0.999821
-0.313541680574 1.186816215515 -0.557045996189 -0.000995 0.018902 0.999821
-0.144757553935 1.265501499176 -0.558583736420 -0.000995 0.018902 0.999821
-0.494135439396 0.922559857368 -0.551856994629 -0.000995 0.018902 0.999821
-0.379871696234 0.975917458534 -0.552899718285 -0.000995 0.018902 0.999821
-0.092671222985 1.219915151596 -0.557683229446 -0.000995 0.018902 0.999821
-0.038057886064 1.516768455505 -0.563521802425 -0.000995 0.018902 0.999821
-0.047534584999 1.491603851318 -0.563027143478 -0.000995 0.018902 0.999821
-0.287836909294 0.992842435837 -0.553226947784 -0.000995 0.018902 0.999821
-0.200173571706 1.309500932693 -0.559453189373 -0.000995 0.018902 0.999821
-0.012170338072 0.914949536324 -0.551676273346 -0.000995 0.018902 0.999821
-0.057332832366 1.086398124695 -0.555053293705 -0.000995 0.018902 0.999821
-0.130469188094 1.244942665100 -0.558178186417 -0.000995 0.018902 0.999821
-0.035416897386 1.217309951782 -0.557628214359 -0.000995 0.018902 0.999821
-0.160267636180 0.875594794750 -0.550911307335 -0.000995 0.018902 0.999821
-0.408897250891 1.165364861488 -0.556643128395 -0.000997 0.018940 0.999820
-0.578806281090 1.333579421043 -0.560031414032 -0.000997 0.018940 0.999820
-0.225733116269 1.583446145058 -0.564889669418 -0.000997 0.018940 0.999820
-0.498061716557 1.246556878090 -0.558280587196 -0.000997 0.018940 0.999820
-0.475488483906 1.269984126091 -0.558739125729 -0.000997 0.018940 0.999820
-0.363574326038 1.447277784348 -0.562226355076 -0.000997 0.018940 0.999820
-0.057965397835 1.571090698242 -0.564596056938 -0.000997 0.018940 0.999820
-0.393312215805 1.216056108475 -0.557644963264 -0.000997 0.018940 0.999820
-0.479378938675 1.282538414001 -0.558989524841 -0.000997 0.018940 0.999820
-0.537997305393 1.536976456642 -0.564057230949 -0.000997 0.018940 0.999820
-0.534387171268 1.070223689079 -0.554790675640 -0.000997 0.018940 0.999820
-0.341286957264 1.465132236481 -0.562574386597 -0.000997 0.018940 0.999820
-0.355630099773 1.608057141304 -0.565415740013 -0.000997 0.018940 0.999820
-0.534652948380 1.347763657570 -0.560300230980 -0.000997 0.018940 0.999820
-0.486920952797 1.288036346436 -0.559100806713 -0.000997 0.018940 0.999820
-0.459662020206 1.193425059319 -0.557214796543 -0.000997 0.018940 0.999820
-0.449767589569 1.266127109528 -0.558655202389 -0.000997 0.018940 0.999820
-0.480244815350 1.151060700417 -0.556379735470 -0.000997 0.018940 0.999820
-0.420665532351 1.214108228683 -0.557614147663 -0.000997 0.018940 0.999820
-0.096431285143 1.603040099144 -0.565241396427 -0.000997 0.018940 0.999820
-0.311888128519 1.361963748932 -0.560517847538 -0.000997 0.018940 0.999820
-0.501205503941 1.399721026421 -0.561322033405 -0.000997 0.018940 0.999820
-0.261416077614 0.854600012302 -0.550689458847 -0.000989 -0.012857 0.999917
-0.286827594042 0.828222930431 -0.550865590572 0.000979 -0.002938 0.999995
-0.716740667820 0.860429048538 -0.550416588783 0.000995 -0.999821 0.018902
-0.802446663380 0.822881102562 -0.463312923908 0.939169 0.197793 0.280783
-0.767215192318 0.752975702286 -0.514070212841 0.915283 0.234947 0.327196
-0.772067070007 0.636195898056 -0.487094938755 0.878249 -0.001325 0.478202
-0.795359075069 0.623219430447 -0.444387942553 0.878249 -0.001325 0.478202
-0.769983410835 0.628193557262 -0.490947276354 0.878249 -0.001325 0.478202
-0.760399162769 0.408095955849 -0.509083509445 0.875906 -0.001329 0.482479
-0.743766784668 0.399195969105 -0.539277315140 0.875906 -0.001329 0.482479
-0.752761542797 0.226571053267 -0.523123025894 0.875906 -0.001329 0.482479
-0.760609269142 0.174985930324 -0.509036302567 0.875906 -0.001329 0.482479
-0.741942048073 0.136751890182 -0.543053746223 0.875906 -0.001329 0.482479
-0.765742003918 -0.034907165915 -0.500487565994 0.875906 -0.001329 0.482479
-0.780646920204 -0.003949382808 -0.473324656487 0.875906 -0.001329 0.482479
-0.806227564812 -0.177815392613 -0.417512565851 0.928213 0.001270 0.372047
-0.812030553818 -0.099132061005 -0.403159230947 0.928213 0.001270 0.372047
-0.809424042702 -0.139293730259 -0.409597396851 0.928213 0.001270 0.372047
-0.805680036545 0.018050730228 -0.419237971306 0.928213 0.001270 0.372047
-0.794813513756 -0.393182516098 -0.449033230543 0.928044 -0.027181 0.371477
-0.820665895939 -0.590120434761 -0.397070169449 0.929702 -0.024500 0.367497
-0.815727353096 -0.502887189388 -0.403961300850 0.929702 -0.024500 0.367497
-0.833844363689 -0.540663659573 -0.362107902765 0.791951 -0.032239 0.609733
-0.843404352665 -0.576539933681 -0.293911665678 0.998936 0.003067 0.046010
-0.652639925480 -0.718634366989 -0.271129578352 0.001373 0.624527 0.781002
-0.582630753517 -0.826719760895 -0.255359500647 0.999999 -0.000978 0.000978
-0.582630872726 -0.991653800011 -0.239822223783 0.999999 0.000978 0.000978
-0.582630932331 -1.063765048981 -0.235692620277 0.999999 -0.000978 0.000978
-0.651595830917 -1.051996707916 -0.232863515615 0.001026 -0.052343 0.998629
-0.642760396004 -1.062828779221 -0.233434960246 0.001026 -0.052343 0.998629
-0.796437859535 -1.028468370438 -0.231622323394 -0.001026 -0.052343 0.998629
-0.727952003479 -1.024422287941 -0.231408864260 -0.001026 -0.052343 0.998629
-0.690842270851 -0.942474305630 -0.229917421937 0.000978 0.000978 0.999999
-0.643354773521 -0.959087848663 -0.229901000857 0.000978 0.000978 0.999999
-0.728040754795 -0.882776975632 -0.229976400733 0.000978 0.000978 0.999999
-0.663374006748 -0.888306915760 -0.229970932007 0.000978 0.000978 0.999999
-0.776395142078 -0.839700341225 -0.232937350869 0.001052 0.081042 0.996710
-0.829205632210 -1.167720079422 -0.200650125742 0.870015 0.048105 -0.490672
-0.819783508778 -1.062710523605 -0.180117890239 0.659653 0.041140 -0.750444
-0.832249641418 -0.839478075504 -0.188253834844 0.898432 -0.033474 -0.437835
-0.837337315083 -0.877858877182 -0.195168092847 0.888284 0.030909 -0.458253
-0.618282794952 -0.811998248100 -0.235179454088 0.001052 0.081042 0.996710
-0.842581927776 -0.715757250786 -0.243410483003 0.997373 0.072365 0.003146
-0.816624999046 -1.185920000076 -0.157975941896 0.996338 0.013883 0.084363
-0.810181081295 -1.361932396889 -0.171312510967 0.993805 0.023061 0.108715
-0.808318436146 -1.462845325470 -0.167900502682 0.993805 0.023061 0.108715
-0.807481348515 -1.472692966461 -0.173567205667 0.993805 0.023061 0.108715
-0.813847184181 -1.490831613541 -0.027773309499 0.998091 0.026349 -0.055859
-0.814285099506 -1.575876593590 -0.074955180287 0.998091 0.026349 -0.055859
-0.814984619617 -1.457123994827 -0.032629467547 0.998091 0.026349 -0.055859
-0.805867195129 -1.742068052292 -0.033566370606 0.995632 0.064909 -0.067109
-0.739341259003 -1.730789661407 0.206187486649 0.182456 0.725226 -0.663896
-0.693478167057 -1.701537728310 0.247682452202 0.189100 0.656470 -0.730266
-0.317825853825 -1.155236840248 0.783676207066 0.068897 0.398520 -0.914568
-0.165616050363 -1.151484727859 0.792026042938 0.022202 0.395713 -0.918106
-0.067397192121 -1.101129770279 0.811631023884 0.017716 0.213769 -0.976724
0.014970986173 -1.067114710808 0.820013999939 -0.017716 0.213769 -0.976724
0.281593292952 -1.091322779655 0.809299707413 -0.052029 0.209328 -0.976460
0.367238730192 -1.080537676811 0.807027578354 -0.054341 0.206497 -0.976937
0.496302187443 -1.052193284035 0.801969349384 -0.090584 0.207227 -0.974090
0.586771070957 -1.048122882843 0.787099659443 -0.460432 0.142893 -0.876119
0.578376233578 -1.117107629776 0.768468439579 -0.245498 0.517245 -0.819871
0.698375582695 -1.540338754654 0.395814716816 -0.248233 0.662481 -0.706752
0.797872900963 -1.836900591850 -0.008961940184 -0.995700 0.073715 -0.056111
0.797166645527 -1.911069273949 -0.093816071749 -0.995718 0.073554 -0.055989
0.811257004738 -1.699767231941 -0.090912371874 -0.999032 0.043880 -0.003061
0.807444870472 -1.700034260750 -0.121133342385 -0.991465 0.023420 0.128255
0.800274431705 -1.464965343475 -0.231015875936 -0.991130 0.030375 0.129376
0.803574681282 -1.416337847710 -0.217393994331 -0.991130 0.030375 0.129376
0.795305073261 -1.639040827751 -0.227153703570 -0.991130 0.030375 0.129376
0.835269153118 -1.260241627693 -0.240268096328 -0.924019 0.122560 -0.362171
0.817271053791 -0.661252975464 -0.209707126021 -0.989078 0.021477 0.145818
0.817798554897 -0.503596782684 -0.213143780828 -0.981453 0.001148 0.191699
0.817650973797 -0.490453183651 -0.229577332735 -0.583960 0.023580 -0.811440
0.819213986397 -0.328020274639 -0.225865602493 -0.585783 0.023542 -0.810126
0.848460316658 0.630486726761 -0.227550551295 -0.758047 0.018148 -0.651948
0.842945933342 0.587734282017 -0.222360715270 -0.763113 0.020926 -0.645926
0.848714172840 0.830530166626 -0.222843915224 -0.764191 0.009708 -0.644917
0.836765408516 0.965325117111 -0.207608312368 -0.753843 0.006916 -0.657019
0.843023180962 1.310973525047 -0.210128590465 -0.739591 0.009713 -0.672986
0.828561484814 1.572390794754 -0.192092865705 -0.718114 0.006945 -0.695890
0.839949250221 1.917142152786 -0.198975473642 -0.695890 0.006945 -0.718114
0.821287512779 1.715453267097 -0.182791024446 -0.755214 0.006929 -0.655442
0.808932840824 1.978299260139 -0.142803370953 -0.999941 -0.010858 -0.000987
0.778276562691 2.047243118286 -0.239767700434 -0.725997 -0.644106 0.240949
0.795108079910 2.021968364716 -0.350254267454 -0.039557 -0.058801 -0.997486
0.780056357384 1.980100750923 -0.497343152761 -0.684157 -0.055937 0.727186
0.760751485825 2.034318923950 -0.508559346199 -0.555648 -0.048987 0.829973
0.793753027916 1.859048247337 -0.488649994135 -0.838605 -0.046047 0.542791
0.820757627487 1.919212937355 -0.406884431839 -0.947691 -0.039434 0.316745
0.806571662426 2.048450231552 -0.430191963911 -0.982710 -0.080393 0.166785
0.810922205448 1.866240859032 -0.429696559906 -0.765689 0.642955 -0.018131
0.805265903473 1.733904480934 -0.414458334446 -0.927338 -0.051446 0.370671
0.790775835514 1.720605611801 -0.452501595020 -0.922209 -0.046176 0.383924
0.735509157181 1.768493652344 -0.501246333122 -0.001079 -0.111142 0.993804
0.710466444492 1.784479498863 -0.499469876289 -0.001079 -0.111142 0.993804
0.704693675041 1.686408281326 -0.519286692142 -0.001379 -0.663079 0.748548
0.651285827160 1.612795352936 -0.519243776798 -0.001178 0.972119 0.234487
0.687741935253 1.609908103943 -0.507345914841 -0.001178 0.972119 0.234487
0.582633614540 1.560463190079 -0.485547930002 -0.999999 0.000978 0.000978
0.582633852959 1.326511502266 -0.365057110786 -0.999999 0.000978 0.000978
0.582634210587 1.422050237656 -0.343864232302 -0.999999 0.000978 0.000978
0.588482379913 1.546076297760 -0.329203993082 0.001330 0.871255 0.490829
0.718039393425 1.560191035271 -0.354355633259 0.001330 0.871255 0.490829
0.756876230240 1.540932059288 -0.314166098833 0.001104 0.990125 0.140185
0.582634687424 1.505603313446 -0.305461198092 -0.999999 -0.000978 0.000978
0.595383167267 1.537773251534 -0.296004623175 0.001377 0.761293 0.648407
0.594593644142 1.491917967796 -0.255207151175 0.001346 0.531813 0.846861
0.582634329796 1.410790681839 -0.275662273169 -0.999999 -0.000978 0.000978
0.605728745461 1.471029520035 -0.249064832926 0.001135 0.178186 0.983996
0.782163977623 1.501134157181 -0.261007457972 0.001346 0.531813 0.846861
0.838481307030 1.777634143829 -0.286871552467 -0.997680 -0.026562 0.062687
0.842931628227 1.748579978943 -0.240214258432 -0.990658 -0.007748 0.136146
0.842039406300 1.770254969597 -0.245420530438 -0.990658 -0.007748 0.136146
0.818686842918 2.004188537598 -0.179598256946 -0.784345 -0.198005 -0.587875
0.781265974045 2.022052526474 -0.348664939404 -0.210271 -0.123614 -0.969797
0.817458331585 1.796506881714 -0.364884257317 -0.967914 -0.037933 0.248403
0.819707810879 1.859215021133 -0.343297690153 -0.997049 -0.059412 0.048610
0.824462115765 1.915358662605 -0.309707343578 -0.962786 -0.033370 0.268196
0.820050656796 1.920297861099 -0.324468672276 -0.928398 -0.207093 0.308527
0.835095584393 1.853115558624 -0.295159399509 -0.866475 -0.034113 0.498053
0.813748598099 1.618576884270 -0.432003170252 -0.931403 -0.303931 0.200287
0.782296359539 1.667983651161 -0.498341709375 -0.913804 -0.360675 0.186752
0.604641675949 1.662937760353 -0.691551446915 0.021395 -0.989813 -0.140758
0.617081522942 1.647589683533 -0.667447209358 0.001100 0.990809 0.135260
0.628970682621 1.654714465141 -0.719914972782 0.001100 0.990809 0.135260
0.698457181454 1.647583603859 -0.667402625084 0.001100 0.990809 0.135260
0.790213465691 1.650952816010 -0.681616485119 -0.143586 -0.980556 -0.133768
0.712374329567 1.609014034271 -0.503661334515 0.001178 0.972119 0.234487
0.623317956924 1.580484986305 -0.397162109613 0.001228 0.952066 0.305890
0.803401768208 1.576505422592 -0.384833216667 0.001228 0.952066 0.305890
0.597027480602 1.648925185204 -0.582471668720 -0.050273 -0.944874 0.323552
0.582634508610 1.354056239128 -0.265699505806 -0.999999 -0.000978 0.000978
0.582634568214 1.258728384972 -0.248179644346 -0.999999 0.000978 0.000978
0.582633972168 1.214075446129 -0.323345303535 -0.999999 0.000978 0.000978
0.582634389400 1.038324475288 -0.285285204649 -0.999999 -0.000978 0.000978
0.582634031773 1.150275468826 -0.324919998646 -0.999999 0.000978 0.000978
0.582633852959 0.977213919163 -0.326589941978 -0.999999 0.000978 0.000978
0.582633376122 0.968008279800 -0.387826442719 -0.999999 0.000978 0.000978
0.582633733749 1.130508661270 -0.351195514202 -0.999999 0.000978 0.000978
0.582632541656 0.896783173084 -0.470440983772 -0.999999 -0.000978 0.000978
0.582633435726 1.132533431053 -0.383516639471 -0.999999 -0.000978 0.000978
0.582631468773 0.877313017845 -0.530577600002 -0.999999 -0.000978 0.000978
0.582633137703 1.451048970222 -0.511215806007 -0.999999 0.000978 0.000978
0.582632243633 1.338602066040 -0.541444957256 -0.999999 0.000978 0.000978
0.582630693913 0.978021442890 -0.514687478542 -0.999999 0.000978 0.000978
0.582631647587 1.082123398781 -0.472589850426 -0.999999 0.000978 0.000978
0.582631051540 1.080707788467 -0.528115510941 -0.999999 0.000978 0.000978
0.582630395889 0.940693140030 -0.530429482460 -0.999999 0.000978 0.000978
0.582633614540 1.233803749084 -0.365732461214 -0.999999 0.000978 0.000978
0.582632243633 1.368954181671 -0.559874653816 -0.999999 0.000978 0.000978
0.606100201607 0.841141164303 -0.550674617290 -0.000979 -0.002938 0.999995
0.208022296429 0.844649016857 -0.550805985928 0.000989 -0.012857 0.999917
0.130975842476 0.473962962627 -0.556969046593 -0.000993 -0.016879 0.999857
0.316734850407 0.596978545189 -0.554773986340 -0.000993 -0.016879 0.999857
0.027802646160 0.251151561737 -0.560828030109 -0.000993 -0.016879 0.999857
0.644735634327 0.821732103825 -0.550769329071 -0.000993 -0.016879 0.999857
0.276684045792 0.523735165596 -0.556045651436 -0.000993 -0.016879 0.999857
0.118298411369 0.397231459618 -0.558286607265 -0.000993 -0.016879 0.999857
0.086921870708 0.294831275940 -0.560052037239 -0.000993 -0.016879 0.999857
0.166844531894 0.747326374054 -0.552279889584 -0.000993 -0.016879 0.999857
0.513064980507 0.734087765217 -0.552332878113 -0.000993 -0.016879 0.999857
0.211953490973 0.412604331970 -0.557977020741 -0.000993 -0.016879 0.999857
0.198458135128 0.400063693523 -0.558198034763 -0.000993 -0.016879 0.999857
0.535450875759 0.784895062447 -0.551453471184 -0.000993 -0.016879 0.999857
0.032420635223 0.619543313980 -0.554530680180 -0.000993 -0.016879 0.999857
0.257004499435 0.664971947670 -0.553642034531 -0.000993 -0.016879 0.999857
0.082507401705 0.461555093527 -0.557205319405 -0.000993 -0.016879 0.999857
0.165456950665 0.430345118046 -0.557697117329 -0.000993 -0.016879 0.999857
0.610899746418 0.785263836384 -0.551409423351 -0.000993 -0.016879 0.999857
0.694777667522 0.818718254566 -0.550795793533 -0.000993 -0.016879 0.999857
0.102148115635 0.358123034239 -0.558962941170 -0.000993 -0.016879 0.999857
0.441142112017 0.743628382683 -0.552205801010 -0.000993 -0.016879 0.999857
0.107579380274 0.713020324707 -0.552895784378 -0.000993 -0.016879 0.999857
0.222288727760 0.490031510592 -0.556648731232 -0.000993 -0.016879 0.999857
0.297136187553 0.531106114388 -0.555909395218 -0.000993 -0.016879 0.999857
-0.569446146488 0.711115658283 -0.552697181702 0.000993 -0.016879 0.999857
-0.303890526295 0.765375614166 -0.551902949810 0.000993 -0.016879 0.999857
-0.346786558628 0.737101316452 -0.552364587784 0.000993 -0.016879 0.999857
-0.339381158352 0.697330594063 -0.553047895432 0.000993 -0.016879 0.999857
-0.170911803842 0.538498163223 -0.555846273899 0.000993 -0.016879 0.999857
-0.675789475441 0.825816333294 -0.550683975220 0.000993 -0.016879 0.999857
-0.090998061001 0.634584069252 -0.554244399071 0.000993 -0.016879 0.999857
-0.209350973368 0.546189188957 -0.555695593357 0.000993 -0.016879 0.999857
-0.617301881313 0.804762363434 -0.551073014736 0.000993 -0.016879 0.999857
-0.255329400301 0.818860948086 -0.551013231277 0.000993 -0.016879 0.999857
-0.171342983842 0.821714401245 -0.551006495953 0.000993 -0.016879 0.999857
-0.564136207104 0.690366268158 -0.553054451942 0.000993 -0.016879 0.999857
-0.047774538398 0.559834957123 -0.555543303490 0.000993 -0.016879 0.999857
-0.671239793301 0.822370946407 -0.550745129585 0.000993 -0.016879 0.999857
-0.419866174459 0.661406815052 -0.553621470928 0.000993 -0.016879 0.999857
-0.278153985739 0.594358682632 -0.554838120937 0.000993 -0.016879 0.999857
-0.397585570812 0.719185829163 -0.552645325661 0.000993 -0.016879 0.999857
-0.082774341106 0.749225914478 -0.552289545536 0.000993 -0.016879 0.999857
-0.326194822788 0.683269679546 -0.553294718266 0.000993 -0.016879 0.999857
-0.036282714456 0.621808528900 -0.554490029812 0.000993 -0.016879 0.999857
-0.244647592306 0.435746222734 -0.557565212250 0.000993 -0.016879 0.999857
-0.311366468668 0.482531905174 -0.556732356548 0.000993 -0.016879 0.999857
-0.095380194485 0.552768230438 -0.555640220642 0.000993 -0.016879 0.999857
-0.443059056997 0.553606033325 -0.554970681667 0.014865 -0.000991 0.999889
-0.571560978889 0.642152607441 -0.553086400032 0.014865 -0.000991 0.999889
-0.732202172279 0.805134415627 -0.550723373890 0.014865 -0.000991 0.999889
-0.695348560810 0.712442159653 -0.551273286343 0.014865 -0.000991 0.999889
-0.705944895744 0.701301991940 -0.551120519638 0.014865 -0.000991 0.999889
-0.750577509403 0.776954591274 -0.546670615673 0.288352 -0.001217 0.957524
-0.710243701935 0.541919827461 -0.553590893745 0.002990 -0.018940 0.999816
-0.374086022377 0.306222200394 -0.558911263943 0.002990 -0.018940 0.999816
-0.274269461632 0.332091152668 -0.558600425720 0.002990 -0.018940 0.999816
-0.675349771976 0.517071485519 -0.554150640965 0.002990 -0.018940 0.999816
-0.381558746099 0.327515393496 -0.558476328850 0.002990 -0.018940 0.999816
-0.542598605156 0.220483034849 -0.560265898705 0.002990 -0.018940 0.999816
-0.557478725910 0.432472288609 -0.556054770947 0.002990 -0.018940 0.999816
-0.622619152069 0.393616437912 -0.556691050529 0.002990 -0.018940 0.999816
-0.241292476654 0.344140619040 -0.558428585529 0.002990 -0.018940 0.999816
-0.549545407295 0.288869768381 -0.558903157711 0.002990 -0.018940 0.999816
-0.562243342400 0.299029022455 -0.558677375317 0.002990 -0.018940 0.999816
-0.700452625751 0.294819891453 -0.558484315872 0.002990 -0.018940 0.999816
-0.405443698168 0.430493116379 -0.556397497654 0.002990 -0.018940 0.999816
-0.621272265911 0.316572427750 -0.558213472366 0.002990 -0.018940 0.999816
-0.184637725353 0.310296177864 -0.559209287167 0.002990 -0.018940 0.999816
-0.548852503300 0.275999128819 -0.559158325195 0.002990 -0.018940 0.999816
-0.693016290665 0.570492029190 -0.553061723709 0.002990 -0.018940 0.999816
-0.094329863787 0.158852234483 -0.562376797199 0.002990 -0.018940 0.999816
-0.451373487711 0.146701991558 -0.561903357506 0.002990 -0.018940 0.999816
-0.631857573986 -0.114539578557 -0.566695749760 0.002990 -0.018940 0.999816
-0.536380350590 0.140299439430 -0.561859846115 0.002990 -0.018940 0.999816
-0.559462666512 -0.059579417109 -0.565756261349 0.002990 -0.018940 0.999816
-0.603218972683 0.003197565675 -0.564430654049 0.002990 -0.018940 0.999816
-0.640904724598 0.058183997869 -0.563270807266 0.002990 -0.018940 0.999816
-0.208071768284 0.181427866220 -0.561704337597 0.002990 -0.018940 0.999816
-0.446646124125 0.118664696813 -0.562465846539 0.002990 -0.018940 0.999816
-0.300233960152 0.197929427028 -0.561194777489 0.002990 -0.018940 0.999816
-0.337984204292 0.015507787466 -0.564717590809 0.002990 -0.018940 0.999816
-0.233218044043 0.052320733666 -0.564200699329 0.002990 -0.018940 0.999816
-0.338897585869 0.140602558851 -0.562248289585 0.002990 -0.018940 0.999816
-0.200249269605 0.187713786960 -0.561595976353 0.002990 -0.018940 0.999816
-0.716055870056 -0.130754634738 -0.566847383976 0.002990 -0.018940 0.999816
-0.344637006521 0.064285129309 -0.563742160797 0.002990 -0.018940 0.999816
-0.659720718861 0.171978980303 -0.560988664627 0.002990 -0.018940 0.999816
-0.116401091218 0.136320799589 -0.562777161598 0.002990 -0.018940 0.999816
-0.416539460421 -0.058510258794 -0.566020607948 0.002990 -0.018940 0.999816
-0.493579864502 -0.141689971089 -0.567507445812 0.002990 -0.018940 0.999816
-0.759010851383 -0.126885294914 -0.512837111950 0.873026 -0.001329 0.487672
-0.733547151089 0.162530004978 -0.558095514774 0.873026 -0.001329 0.487672
-0.772881090641 -0.263226151466 -0.488158285618 0.873026 -0.001329 0.487672
-0.745023429394 -0.290401488543 -0.538093566895 0.873026 -0.001329 0.487672
-0.736834347248 -0.378066182137 -0.553429901600 0.872855 -0.009357 0.487890
-0.784475505352 -0.399260610342 -0.470196813345 0.866127 -0.028554 0.499009
-0.754689097404 -0.470769107342 -0.526056647301 0.866127 -0.028554 0.499009
-0.771542847157 -0.502620279789 -0.503132879734 0.904386 -0.374777 0.204029
-0.796163380146 -0.542584419250 -0.461375653744 0.953629 -0.255460 0.159161
-0.730198264122 -0.674710214138 -0.360403984785 -0.001205 0.962562 0.271059
-0.781665921211 -0.681108832359 -0.342701256275 -0.001284 0.917945 0.396706
-0.724933683872 -0.691216528416 -0.319278270006 0.001284 0.917945 0.396706
-0.582630634308 -0.797869563103 -0.319229841232 0.999999 -0.000978 0.000978
-0.582630276680 -0.700016736984 -0.401322424412 0.999999 -0.000978 -0.000978
-0.582629978657 -0.657349407673 -0.476480275393 0.999999 0.000978 0.000978
-0.582630276680 -0.837924599648 -0.411569356918 0.999999 0.000978 0.000978
-0.582629621029 -0.975619733334 -0.486629664898 0.999999 0.000978 0.000978
-0.582629263401 -1.064996123314 -0.507277965546 0.999999 0.000978 0.000978
-0.582628905773 -1.082243919373 -0.561649382114 0.999999 0.000978 0.000978
-0.582630157471 -1.042018413544 -0.400207459927 0.999999 0.000978 0.000978
-0.582628905773 -0.778501629829 -0.602713227272 0.999999 0.000978 0.000978
-0.582628965378 -0.764695227146 -0.600388109684 0.999999 0.000978 0.000978
-0.582629680634 -1.031016707420 -0.464087426662 0.999999 0.000978 0.000978
-0.582628965378 -1.256633996964 -0.524584472179 0.999999 0.000978 0.000978
-0.582629323006 -1.247333168983 -0.474144756794 0.999999 0.000978 0.000978
-0.582629621029 -1.300907850266 -0.447024226189 0.999999 0.000978 0.000978
-0.582630932331 -1.272206664085 -0.349478870630 0.999999 -0.000978 0.000978
-0.766167700291 -1.296416759491 -0.354485154152 0.001292 -0.911072 0.412244
-0.827329158783 -1.377111077309 -0.354633927345 0.997977 0.039324 0.049952
-0.822012066841 -1.533399820328 -0.340529859066 0.997977 0.039324 0.049952
-0.819852650166 -1.610490083694 -0.333444207907 0.997009 0.033269 0.069758
-0.815484642982 -1.615617275238 -0.279356420040 0.738383 0.044104 -0.672938
-0.791723430157 -1.910486340523 -0.259360402822 0.922009 0.009001 -0.387064
-0.785351753235 -1.947660446167 -0.103103339672 0.596203 0.784318 -0.171427
-0.789687037468 -1.937804937363 -0.191109299660 0.965344 0.259947 0.023188
-0.795905888081 -1.911298871040 -0.187187090516 0.995448 0.062836 0.071655
-0.802383482456 -1.869262576103 -0.137613669038 0.993325 0.073287 0.089072
-0.809615194798 -1.784477949142 -0.117100782692 0.977671 0.074454 -0.196511
-0.805040299892 -1.792672038078 -0.076941430569 0.995700 0.073715 -0.056111
-0.792593896389 -1.853479146957 0.016516402364 0.795483 0.500978 -0.340921
-0.771471798420 -1.885055899620 0.013254925609 0.439792 0.705327 -0.555964
-0.721369564533 -1.848723888397 0.079551793635 0.205575 0.749655 -0.629092
-0.677283287048 -1.818350791931 0.129440873861 0.199263 0.727543 -0.656487
-0.666556715965 -1.744937300682 0.214055344462 0.219921 0.712794 -0.666002
-0.634939968586 -1.698736429214 0.252212464809 0.074433 0.251054 -0.965107
0.039531365037 -1.191930651665 0.774560987949 -0.034280 0.514193 -0.856989
0.246546447277 -1.212135791779 0.754805862904 -0.026148 0.549100 -0.835348
0.376698702574 -1.191378712654 0.755946218967 -0.084416 0.553710 -0.828419
0.719840586185 -1.684228897095 0.254651486874 -0.359040 0.624631 -0.693488
0.728784322739 -1.780644297600 0.155315726995 -0.219921 0.712794 -0.666002
0.590344667435 -1.772487878799 0.206603109837 -0.196294 0.727987 -0.656889
0.662584781647 -1.804121732712 0.149691209197 -0.199263 0.727543 -0.656487
0.799319386482 -1.704035758972 -0.272557109594 -0.803159 0.073014 -0.591274
0.820165991783 -1.608509063721 -0.329904973507 -0.997009 0.033269 0.069758
0.827110111713 -1.463043451309 -0.300235569477 -0.997009 0.033269 0.069758
0.829762935638 -1.307127237320 -0.359916359186 -0.997977 0.039324 0.049952
0.824446558952 -1.463281512260 -0.345893085003 -0.997977 0.039324 0.049952
0.834500133991 -1.269138455391 -0.295255988836 -0.996276 -0.029207 0.081130
0.789217650890 -1.271232366562 -0.300368487835 -0.001367 -0.799835 0.600218
0.582631170750 -1.133825302124 -0.307649016380 -0.999999 0.000978 -0.000978
0.582631409168 -1.141959428787 -0.278107851744 -0.999999 0.000978 0.000978
0.582631587982 -0.961561501026 -0.286812067032 -0.999999 0.000978 0.000978
0.655934035778 -0.917272567749 -0.229942321777 0.000978 0.000978 0.999999
0.828655660152 -1.083017349243 -0.234499871731 -0.001026 -0.052343 0.998629
