-0.080147229135 -2.343264341354 -0.163244575262 -0.058601 -0.764670 0.641751
-0.073102727532 -2.326132774353 -0.171928301454 0.079281 0.007400 0.996825
-0.111528702080 -2.265946149826 -0.134516671300 -0.067607 -0.772443 0.631476
0.096570082009 -2.292619943619 -0.134194418788 0.050812 -0.013481 -0.998617
0.082314975560 -2.321700096130 -0.137228742242 0.067607 -0.772443 0.631476
0.328263282776 -2.251741409302 -0.142291933298 -0.145493 0.021429 0.989127
0.274620383978 -2.252377033234 -0.138282567263 0.076832 -0.755270 0.650895
0.230346485972 -2.264792203903 -0.128880470991 0.062558 -0.024387 -0.997743
0.312943875790 -2.295809268951 -0.139266058803 -0.225932 0.150186 0.962496
-0.817439258099 -1.979570627213 -0.101941473782 -0.644911 -0.467351 0.604709
-0.744332432747 -2.066586732864 -0.124185435474 -0.524468 -0.598670 0.605415
-0.761476814747 -1.999978542328 -0.061309512705 -0.591959 -0.648975 0.477928
-0.810456156731 -1.941684603691 -0.057276133448 -0.636502 -0.538579 0.552085
-0.855248391628 -1.909910917282 -0.086967647076 -0.726826 -0.508282 0.461924
-0.673916935921 -2.063120603561 -0.068319514394 -0.405930 -0.654459 0.637890
-0.619608938694 -2.130579471588 -0.107026241720 -0.433948 -0.778506 0.453451
-0.579758405685 -2.169754266739 -0.134599208832 -0.385358 -0.726441 0.569018
-0.730236411095 -2.105748176575 -0.164458915591 -0.479871 -0.725618 0.493155
-0.606647610664 -2.183986186981 -0.171548455954 -0.409531 -0.848647 0.334787
-0.455490112305 -2.230820178986 -0.122070737183 -0.232040 -0.780216 0.580879
0.001063625328 1.595193266869 0.445966243744 0.001286 0.399807 0.916599
0.024418609217 1.648850560188 0.422396540642 0.001304 0.434129 0.900850
-0.007911738008 1.786036729813 0.356027573347 0.001304 0.434129 0.900850
-0.145063072443 1.866607546806 0.310781240463 -0.058270 0.429571 0.901151
-0.175106763840 1.888272166252 0.299023449421 -0.021479 0.329768 0.943818
-0.533276736736 1.802424430847 0.303760290146 -0.117013 0.429988 0.895220
-0.413232088089 1.827603578568 0.307502537966 -0.117013 0.429988 0.895220
-0.406380772591 1.881575584412 0.281876623631 -0.137370 0.469950 0.871938
-0.593343853951 1.818737745285 0.284846603870 -0.207238 0.563380 0.799785
-0.664078474045 1.656630039215 0.355857461691 -0.116564 0.425530 0.897406
-0.443813592196 1.782664060593 0.324888199568 -0.116564 0.425530 0.897406
-0.554028630257 1.750144243240 0.325915008783 -0.116564 0.425530 0.897406
-0.498922109604 1.764976024628 0.326077967882 -0.116564 0.425530 0.897406
-0.336493104696 1.667402982712 0.392916619778 -0.113641 0.422295 0.899307
-0.513106584549 1.641577839851 0.382557332516 -0.113641 0.422295 0.899307
-0.382011145353 1.698821067810 0.372341364622 -0.113641 0.422295 0.899307
-0.383008360863 1.739054679871 0.353293240070 -0.113641 0.422295 0.899307
-0.262540340424 1.737284541130 0.365309476852 -0.058344 0.432832 0.899585
-0.239007875323 1.712744593620 0.378618299961 -0.058344 0.432832 0.899585
-0.146877914667 1.769167065620 0.357405900955 -0.058344 0.432832 0.899585
-0.163296654820 1.686480879784 0.395954132080 -0.055503 0.431844 0.900239
-0.164799898863 1.691932082176 0.393252551556 -0.055503 0.431844 0.900239
-0.198499396443 1.670094966888 0.401608526707 -0.055503 0.431844 0.900239
-0.041328828782 1.752824068069 0.371784359217 -0.055503 0.431844 0.900239
-0.250673443079 1.613326311111 0.425157159567 -0.054924 0.405898 0.912266
-0.203505784273 1.566890001297 0.448670864105 -0.054924 0.405898 0.912266
-0.295515060425 1.590391635895 0.432743996382 -0.054924 0.405898 0.912266
-0.382239639759 1.416916251183 0.497408211231 -0.121208 0.397060 0.909754
-0.333556234837 1.479281067848 0.476709336042 -0.121208 0.397060 0.909754
-0.513113260269 1.430158138275 0.474344462156 -0.121208 0.397060 0.909754
-0.576370120049 1.374008417130 0.490412443876 -0.121208 0.397060 0.909754
-0.559713602066 1.412424445152 0.475905716419 -0.105635 0.382756 0.917790
-0.385135203600 1.598310828209 0.418890655041 -0.105635 0.382756 0.917790
-0.488349556923 1.475294709206 0.458058297634 -0.105635 0.382756 0.917790
-0.647121071815 1.487600207329 0.434426337481 -0.105635 0.382756 0.917790
-0.553754627705 1.264613866806 0.537477254868 -0.116776 0.369560 0.921840
-0.423289388418 1.340698719025 0.523460090160 -0.116776 0.369560 0.921840
-0.573280513287 1.247277140617 0.541963636875 -0.116776 0.369560 0.921840
-0.441885203123 1.289836645126 0.541366100311 -0.104467 0.354104 0.929353
-0.273216784000 1.254703044891 0.573745608330 -0.104467 0.354104 0.929353
-0.337231755257 1.331916093826 0.537085711956 -0.104467 0.354104 0.929353
-0.398076474667 1.313250422478 0.537361860275 -0.104467 0.354104 0.929353
-0.023121710867 1.424870252609 0.519522905350 -0.040456 0.364101 0.930480
-0.170585393906 1.379613161087 0.530670940876 -0.040456 0.364101 0.930480
-0.142423525453 1.399296879768 0.524228930473 -0.040456 0.364101 0.930480
-0.193544894457 1.484699130058 0.485845327377 -0.043788 0.396742 0.916885
-0.040939554572 1.546875238419 0.466062158346 -0.043788 0.396742 0.916885
-0.197053328156 1.439365863800 0.505311548710 -0.043788 0.396742 0.916885
-0.212468832731 1.265559077263 0.573289394379 -0.024210 0.342768 0.939108
-0.087670020759 1.305263996124 0.561841905117 -0.024210 0.342768 0.939108
0.083224177361 1.918507337570 0.291196197271 0.025232 0.431600 0.901712
0.273280620575 1.887019038200 0.292846202850 0.089126 0.224698 0.970344
0.223575010896 1.861030936241 0.308150589466 0.058491 0.439361 0.896405
0.272964298725 1.841963171959 0.314291656017 0.058491 0.439361 0.896405
0.303645908833 1.807262063026 0.329020112753 0.058413 0.430623 0.900640
0.234203100204 1.765700578690 0.353350818157 0.058413 0.430623 0.900640
0.138917535543 1.809154152870 0.338637769222 0.058413 0.430623 0.900640
0.077047854662 1.752625226974 0.369649171829 0.058413 0.430623 0.900640
0.184001356363 1.710634708405 0.382979005575 0.055639 0.432899 0.899724
0.213921323419 1.724253773689 0.374557822943 0.055639 0.432899 0.899724
0.104598231614 1.684481263161 0.400521218777 0.055639 0.432899 0.899724
0.132583275437 1.616528749466 0.430515378714 0.052037 0.396282 0.916653
0.070906579494 1.479565739632 0.493315219879 0.052037 0.396282 0.916653
0.128037661314 1.540164470673 0.463802486658 0.052037 0.396282 0.916653
0.269756406546 1.594075560570 0.432290732861 0.043920 0.408585 0.911663
0.279212176800 1.521669149399 0.464283585548 0.043920 0.408585 0.911663
0.280729681253 1.468588352203 0.487996608019 0.043920 0.408585 0.911663
0.005624830723 1.289044857025 0.569877266884 0.040030 0.342195 0.938776
0.147660925984 1.417363643646 0.516900539398 0.040030 0.342195 0.938776
0.226048916578 1.397468924522 0.520799756050 0.040030 0.342195 0.938776
0.249023959041 1.355405211449 0.536317527294 0.024523 0.365263 0.930581
0.177327439189 1.327270388603 0.549214124680 0.024523 0.365263 0.930581
0.158340498805 1.239441871643 0.584217190742 0.024523 0.365263 0.930581
0.518500506878 1.354823350906 0.505333185196 0.115878 0.353087 0.928387
0.499816238880 1.371590971947 0.501268029213 0.115878 0.353087 0.928387
0.469081699848 1.359089374542 0.509816110134 0.115878 0.353087 0.928387
0.502763688564 1.450491786003 0.468444854021 0.117601 0.380472 0.917284
0.505060434341 1.461938858032 0.463408917189 0.117601 0.380472 0.917284
0.407743781805 1.444708704948 0.483107328415 0.117601 0.380472 0.917284
0.433192849159 1.586809039116 0.418291717768 0.109526 0.397898 0.910868
0.403701126575 1.481253743172 0.467988878489 0.109526 0.397898 0.910868
0.318229228258 1.456433892250 0.489177048206 0.109526 0.397898 0.910868
0.327694177628 1.525545001030 0.457829505205 0.109526 0.397898 0.910868
0.630865037441 1.641635894775 0.367209225893 0.116564 0.425530 0.897406
0.504271149635 1.659741759300 0.374884337187 0.116564 0.425530 0.897406
0.616645932198 1.711800813675 0.335776597261 0.116564 0.425530 0.897406
0.548806428909 1.678297638893 0.360369414091 0.116564 0.425530 0.897406
0.491681575775 1.700268983841 0.357357442379 0.116409 0.422159 0.899016
0.476197630167 1.764306545258 0.329259455204 0.116409 0.422159 0.899016
0.542199075222 1.745196819305 0.329679369926 0.116409 0.422159 0.899016
0.477831721306 1.707757949829 0.355633646250 0.116409 0.422159 0.899016
0.664974570274 1.785181641579 0.288231790066 0.147611 0.568081 0.809627
0.536354362965 1.817559719086 0.289534032345 0.149185 0.358323 0.921601
0.440306335688 1.858601570129 0.287918239832 0.129076 0.426943 0.895019
0.500895440578 1.270782351494 0.540529847145 0.108138 0.373693 0.921227
0.456499963999 1.267916321754 0.546828746796 0.108138 0.373693 0.921227
0.440018385649 1.252112746239 0.555116415024 0.108138 0.373693 0.921227
0.486889630556 1.210991501808 0.566285014153 0.108138 0.373693 0.921227
-0.616576433182 2.282047510147 -0.403581976891 -0.497538 0.842337 -0.207182
-0.463386058807 2.306691884995 -0.528645813465 0.986557 0.079161 0.142962
-0.398384004831 2.360466718674 -0.506089329720 -0.986557 -0.079161 -0.142962
-0.407302349806 2.326361894608 -0.545751810074 -0.599161 -0.236223 0.764987
-0.461043953896 2.296345472336 -0.510797858238 0.914753 0.183520 -0.359926
-0.429916143417 2.388832330704 -0.541659355164 0.122202 0.227681 -0.966037
-0.430157572031 2.318134546280 -0.558031439781 -0.136755 0.200660 -0.970069
-0.455418974161 2.339682579041 -0.482571572065 -0.599161 -0.236223 0.764987
-0.530689895153 2.341181039810 -0.544016599655 0.611227 -0.107001 0.784189
-0.472943603992 2.304606914520 -0.505418062210 0.921675 0.016852 0.387596
-0.539079248905 2.272304534912 -0.543636858463 -0.921675 -0.016852 -0.387596
-0.549665272236 2.342635393143 -0.519536733627 -0.986557 -0.079161 -0.142962
-0.547398507595 2.355051755905 -0.490474790335 -0.914753 -0.183520 0.359926
-0.467421472073 2.022888422012 -0.515509665012 -0.052942 -0.165885 0.984723
-0.436421096325 2.013062953949 -0.515520572662 -0.052942 -0.165885 0.984723
-0.425861746073 2.041062116623 -0.511660099030 0.054989 -0.155606 0.986287
-0.392954081297 2.070838928223 -0.510469853878 0.169450 -0.141836 0.975279
-0.529827356339 2.022336244583 -0.592796802521 -0.948384 -0.047355 -0.313568
-0.551394701004 2.262876033783 -0.558099746704 0.020792 0.962552 0.270297
-0.439066410065 2.272914171219 -0.561940312386 -0.108914 0.980227 0.165207
-0.381145298481 2.139090538025 -0.599940121174 0.165377 0.175633 -0.970466
-0.415901958942 2.110690832138 -0.610338509083 0.052942 0.165885 -0.984723
-0.520800113678 2.102739095688 -0.600279211998 -0.499488 0.089144 -0.861722
-0.522936820984 2.059881210327 -0.603185653687 -0.775646 0.020888 -0.630822
-0.498363286257 2.080049276352 -0.509840250015 -0.165377 -0.175633 0.970466
-0.522263646126 2.068046092987 -0.521429717541 -0.496237 -0.190399 0.847052
-0.532244861126 2.089424848557 -0.526136815548 -0.774232 -0.181723 0.606252
-0.540449678898 2.112471103668 -0.533804893494 -0.946670 -0.146781 0.286829
-0.538174092770 2.070071458817 -0.549072444439 -0.989398 -0.117702 0.085072
0.409774690866 2.267282247543 -0.499712377787 0.118169 0.969497 0.214738
0.464683204889 2.331199407578 -0.532806038857 -0.920278 0.027413 0.390303
0.434376090765 2.356420516968 -0.547831118107 0.122130 -0.230118 0.965469
0.449434608221 2.304954767227 -0.555363118649 0.610803 0.097670 -0.785735
0.456754893064 2.310117959976 -0.492132544518 0.597685 -0.243153 0.763970
0.428082257509 2.274768114090 -0.568044364452 0.136486 0.197714 -0.970711
0.537240087986 2.325046062469 -0.542944252491 -0.793149 -0.037903 0.607847
0.542417287827 2.300196170807 -0.535028934479 -0.920278 0.027413 0.390303
0.475765109062 2.307843923569 -0.509327054024 0.920278 -0.027413 -0.390303
0.495996385813 2.401718378067 -0.527193188667 0.597685 -0.243153 0.763970
0.497332394123 2.329730749130 -0.483254790306 0.387130 0.154569 -0.908977
0.483730465174 2.306791305542 -0.496124327183 0.793149 0.037903 -0.607847
0.547236144543 2.392164468765 -0.476920485497 -0.714537 0.491348 -0.498010
0.477841794491 2.286274433136 -0.501082420349 -0.793149 -0.037903 0.607847
0.550964176655 2.378888130188 -0.525705456734 0.793149 0.037903 -0.607847
0.481204181910 2.337581872940 -0.536818623543 -0.783743 0.225035 -0.578883
0.430874735117 2.273145914078 -0.584488749504 -0.052921 0.168172 -0.984336
0.416887789965 2.038663148880 -0.623654603958 -0.052921 0.168172 -0.984336
0.380631387234 2.111012935638 -0.606109917164 -0.165714 0.178560 -0.969874
0.478696137667 2.143218040466 -0.605743944645 0.054989 0.155606 -0.986287
0.430215150118 2.270180940628 -0.573287308216 0.122200 0.978834 0.164168
0.546364009380 2.249359846115 -0.536607325077 0.125184 0.977922 0.167325
0.422318011522 2.256875276566 -0.479419022799 -0.169096 -0.139034 0.975744
0.416244179010 2.086008548737 -0.505976080894 -0.054989 -0.155606 0.986287
0.443083196878 2.130660295486 -0.497451066971 -0.054862 -0.155248 0.986351
0.524575054646 2.105825424194 -0.515674054623 0.496921 -0.196667 0.845217
0.532604634762 2.026336431503 -0.568260729313 0.987948 -0.130395 0.083406
0.553671658039 2.205935001373 -0.543801784515 0.988406 -0.097548 -0.116352
0.919248580933 1.009302496910 -0.575696229935 0.001108 -0.989410 -0.145143
0.588586211205 1.011731266975 -0.592179656029 0.001108 -0.989410 -0.145143
0.560621976852 1.286627769470 -0.598564982414 -0.999976 -0.000983 -0.006883
0.560413181782 1.192568778992 -0.569158256054 -0.999976 -0.000983 -0.006883
0.560433626175 1.290422558784 -0.572242558002 -0.999976 -0.000983 -0.006883
0.560712516308 1.290848135948 -0.610755026340 -0.999960 0.000985 -0.008867
0.560758292675 1.625339627266 -0.616279780865 -0.999960 0.000985 -0.008867
0.634625375271 1.769942164421 -0.587744891644 0.001057 0.996331 0.085581
0.614563584328 1.767684221268 -0.561428189278 0.001057 0.996331 0.085581
0.772463858128 1.761512875557 -0.489503204823 0.001057 0.996331 0.085581
0.844999074936 1.764623522758 -0.525757491589 0.001057 0.996331 0.085581
0.628335952759 1.756903290749 -0.461446046829 0.001176 0.972780 0.231726
0.672157108784 1.751625657082 -0.439226925373 0.001176 0.972780 0.231726
0.740129828453 1.742751479149 -0.401865839958 0.001176 0.972780 0.231726
0.788894534111 1.746623754501 -0.418168246746 0.001176 0.972780 0.231726
0.650552809238 1.713077783585 -0.333094686270 0.001302 0.902354 0.430994
0.877431869507 1.720434427261 -0.348437368870 0.001302 0.902354 0.430994
0.591056227684 1.700650215149 -0.307176768780 0.001302 0.902354 0.430994
0.604902505875 1.694010376930 -0.296657562256 0.001352 0.836802 0.547504
0.895673871040 1.673377513885 -0.265029400587 0.001352 0.836802 0.547504
0.938344717026 1.659173607826 -0.243256017566 0.001352 0.836802 0.547504
0.560412526131 1.647648334503 -0.231697916985 0.001380 0.677534 0.735490
0.557891786098 1.391700387001 -0.232728183270 -0.999976 -0.000983 -0.006883
0.558344900608 1.223832607269 -0.292657643557 -0.999976 -0.000983 -0.006883
0.558534026146 1.064633607864 -0.317343026400 -0.999976 -0.000983 -0.006883
0.558232605457 1.673298478127 -0.279359668493 -0.999976 -0.000983 -0.006883
0.558753490448 1.161195158958 -0.346846014261 -0.999976 -0.000983 -0.006883
0.558953106403 1.190757751465 -0.373276144266 -0.999976 -0.000983 -0.006883
0.558954238892 1.288984417915 -0.373732894659 -0.999976 -0.000983 -0.006883
0.558775842190 1.584370374680 -0.350759387016 -0.999976 -0.000983 -0.006883
0.559319555759 1.121955871582 -0.421106100082 -0.999976 -0.000983 -0.006883
0.559005379677 1.419122457504 -0.380455225706 -0.999976 -0.000983 -0.006883
0.559374868870 1.044061422348 -0.428364425898 -0.999976 -0.000983 -0.006883
0.559514641762 1.165229797363 -0.447612762451 -0.999976 -0.000983 -0.006883
0.559311747551 1.466201305389 -0.420948296785 -0.999976 -0.000983 -0.006883
0.559673786163 1.212912917137 -0.469410628080 -0.999976 -0.000983 -0.006883
0.559646189213 1.727975606918 -0.468356579542 -0.999976 -0.000983 -0.006883
0.559642255306 1.485184788704 -0.466519683599 -0.999976 -0.000983 -0.006883
0.559767544270 1.638077616692 -0.484373211861 -0.999976 -0.000983 -0.006883
0.559838950634 1.503247380257 -0.493265032768 -0.999976 -0.000983 -0.006883
0.560361623764 1.723075270653 -0.564273655415 -0.999976 -0.000983 -0.006883
0.560154855251 1.725570082664 -0.536622166634 -0.999976 -0.000983 -0.006883
0.559750556946 1.707480192184 -0.482449889183 -0.999976 -0.000983 -0.006883
0.560283660889 1.338426351547 -0.551863729954 -0.999976 -0.000983 -0.006883
0.579759180546 1.003556609154 -0.523980319500 0.001007 -0.999513 -0.031203
0.738911390305 1.003839492798 -0.533136129379 0.001007 -0.999513 -0.031203
0.815869152546 1.004858851433 -0.468969881535 0.001065 -0.995500 0.094759
0.587232410908 1.005872607231 -0.458226114511 0.001065 -0.995500 0.094759
0.568392693996 1.003825068474 -0.479926228523 0.001065 -0.995500 0.094759
0.709731817245 1.015362501144 -0.405366539955 0.001215 -0.958392 0.285453
0.711964130402 1.023797273636 -0.376978605986 0.001215 -0.958392 0.285453
0.919955790043 1.059245228767 -0.305132061243 0.001326 -0.876523 0.481358
0.875892579556 1.028948426247 -0.360129594803 0.001326 -0.876523 0.481358
0.595717608929 1.056001067162 -0.311021268368 0.001326 -0.876523 0.481358
0.585392236710 1.041064023972 -0.338136285543 0.001326 -0.876523 0.481358
0.723511934280 1.092115402222 -0.259370982647 0.001378 -0.753685 0.657235
0.730948030949 1.072067975998 -0.282359033823 0.001378 -0.753685 0.657235
0.702102065086 1.114108085632 -0.234152376652 0.001378 -0.753685 0.657235
0.558067858219 1.113626003265 -0.254663288593 -0.999976 -0.000983 -0.006883
0.557516992092 1.537567257881 -0.182819262147 -0.999976 -0.000983 -0.006883
0.594590902328 1.161214947701 -0.193084612489 0.001360 -0.572458 0.819933
0.778984785080 1.232765913010 -0.150840535760 0.001282 -0.393609 0.919277
0.674585342407 1.217694759369 -0.157316565514 0.001282 -0.393609 0.919277
0.586514651775 1.279379367828 -0.130810946226 0.001282 -0.393609 0.919277
0.561120808125 1.278650283813 -0.131124258041 0.001282 -0.393609 0.919277
0.857655227184 1.288101911545 -0.128942698240 0.001112 -0.150135 0.988665
0.709386527538 1.281512498856 -0.129938006401 0.001112 -0.150135 0.988665
0.781566023827 1.365778923035 -0.117209672928 0.001112 -0.150135 0.988665
0.921351015568 1.441379070282 -0.122133314610 0.001052 0.081042 0.996710
0.709973692894 1.440291047096 -0.122044682503 0.001052 0.081042 0.996710
0.870278060436 1.439237952232 -0.121958911419 0.001052 0.081042 0.996710
0.845342338085 1.501259803772 -0.140056937933 0.001228 0.305890 0.952066
0.616000533104 1.473285317421 -0.131040588021 0.001228 0.305890 0.952066
0.801351010799 1.565580606461 -0.169538885355 0.001327 0.484515 0.874782
0.697521805763 1.556685566902 -0.164620012045 0.001327 0.484515 0.874782
0.873682558537 1.595388889313 -0.186022415757 0.001327 0.484515 0.874782
0.868766009808 1.639842867851 -0.224508136511 0.001380 0.677534 0.735490
0.903294324875 1.621440529823 -0.207557469606 0.001380 0.677534 0.735490
0.557329058647 1.235213518143 -0.155589908361 -0.999976 0.000983 -0.006883
0.758111059666 1.148689627647 -0.201851233840 0.001360 -0.572458 0.819933
0.785217940807 1.173704028130 -0.184343233705 0.001360 -0.572458 0.819933
0.675009906292 1.769781827927 -0.622564196587 0.001009 0.999445 -0.033281
0.753716945648 1.793466329575 -0.627440333366 0.001170 -0.223492 0.974705
0.468440294266 1.798702955246 -0.626243114471 0.001170 -0.223492 0.974705
0.137073516846 1.777684211731 -0.631048262119 0.001170 -0.223492 0.974705
0.248366057873 1.785882115364 -0.629174113274 0.001170 -0.223492 0.974705
0.352572292089 1.809649705887 -0.623740673065 0.001170 -0.223492 0.974705
0.303480982780 1.810124039650 -0.623632252216 0.001170 -0.223492 0.974705
-0.564282417297 1.818617939949 -0.621690452099 0.001170 -0.223492 0.974705
-0.491471588612 1.780223846436 -0.630467653275 0.001170 -0.223492 0.974705
0.679569363594 1.856264829636 -0.616400539875 0.001091 -0.125512 0.992091
0.557863175869 1.843565702438 -0.618007183075 0.001091 -0.125512 0.992091
0.228403687477 1.861381888390 -0.615753173828 0.001091 -0.125512 0.992091
-0.385118305683 1.837112784386 -0.618823528290 0.001091 -0.125512 0.992091
0.466651886702 1.917538642883 -0.608648538589 0.001091 -0.125512 0.992091
0.185049891472 1.891514182091 -0.611941039562 0.001091 -0.125512 0.992091
-0.158489525318 1.831224679947 -0.619568467140 0.001091 -0.125512 0.992091
0.513771772385 1.870476484299 -0.614602565765 0.001091 -0.125512 0.992091
-0.517386615276 1.835786938667 -0.618991255760 0.001091 -0.125512 0.992091
-0.424444913864 1.878970384598 -0.613528013229 0.001091 -0.125512 0.992091
-0.614026308060 1.923706769943 -0.607868194580 0.001091 -0.125512 0.992091
-0.477523356676 1.921157956123 -0.608190655708 0.001091 -0.125512 0.992091
-0.505162596703 1.882716059685 -0.613054096699 0.001091 -0.125512 0.992091
0.398613691330 1.941106081009 -0.605666995049 0.001091 -0.125512 0.992091
-0.655807495117 1.885123014450 -0.612749576569 0.001091 -0.125512 0.992091
-0.495840609074 1.894924044609 -0.611509621143 0.001091 -0.125512 0.992091
-0.296501696110 1.865470767021 -0.615235865116 0.001091 -0.125512 0.992091
-0.264839112759 1.882077932358 -0.613134860992 0.001091 -0.125512 0.992091
0.170450389385 1.992775797844 -0.596918046474 0.001127 -0.167869 0.985809
0.237411916256 2.023979902267 -0.591573774815 0.001127 -0.167869 0.985809
0.665255844593 1.989531040192 -0.597473740578 0.001127 -0.167869 0.985809
0.082219064236 1.961725234985 -0.602236032486 0.001127 -0.167869 0.985809
0.662448287010 2.035486221313 -0.589603066444 0.001127 -0.167869 0.985809
0.735526621342 2.001298427582 -0.595458388329 0.001127 -0.167869 0.985809
0.567261219025 1.993401050568 -0.596810936928 0.001127 -0.167869 0.985809
0.133743822575 2.001384973526 -0.595443546772 0.001127 -0.167869 0.985809
-0.560650646687 1.945317029953 -0.605046272278 0.001127 -0.167869 0.985809
-0.142626225948 1.948665618896 -0.604472756386 0.001127 -0.167869 0.985809
-0.623523592949 2.034665822983 -0.589743614197 0.001127 -0.167869 0.985809
-0.505735993385 1.999208807945 -0.595816254616 0.001127 -0.167869 0.985809
-0.344871938229 2.022348642349 -0.591853141785 0.001127 -0.167869 0.985809
-0.208122730255 2.018618583679 -0.592491984367 0.001127 -0.167869 0.985809
-0.221084326506 2.016439676285 -0.592865169048 0.001127 -0.167869 0.985809
-0.603775918484 2.045548200607 -0.587879776955 0.001127 -0.167869 0.985809
0.224189981818 2.057872772217 -0.585768938065 0.001127 -0.167869 0.985809
0.489478141069 2.077605247498 -0.582389354706 0.001127 -0.167869 0.985809
-0.356390267611 2.002546787262 -0.595244586468 0.001127 -0.167869 0.985809
-0.582673609257 1.968422055244 -0.601089060307 0.001127 -0.167869 0.985809
0.308912128210 2.082310199738 -0.581504225731 0.001143 -0.188635 0.982047
-0.448505401611 2.100431442261 -0.578029513359 -0.001143 -0.188635 0.982047
0.072099357843 2.101586103439 -0.577808141708 0.001143 -0.188635 0.982047
0.555766463280 2.152453660965 -0.568054378033 -0.001143 -0.188635 0.982047
0.078996308148 2.321162462234 -0.533903777599 0.001122 -0.162760 0.986665
0.263594299555 2.331521749496 -0.532185196877 0.001122 -0.162760 0.986665
0.186387985945 2.342158079147 -0.530420720577 0.001122 -0.162760 0.986665
0.159538000822 2.355740070343 -0.527002155781 0.001217 -0.288352 0.957524
-0.554330050945 2.130796194077 -0.572207152843 0.001143 -0.188635 0.982047
-0.565629780293 2.096533298492 -0.578777015209 0.001143 -0.188635 0.982047
0.087843634188 2.179753541946 -0.562819600105 0.001143 -0.188635 0.982047
-0.083032883704 2.169189453125 -0.564845263958 0.001143 -0.188635 0.982047
-0.251133859158 2.132830381393 -0.571817040443 0.001143 -0.188635 0.982047
0.286363273859 2.125030279160 -0.573312759399 0.001143 -0.188635 0.982047
0.358540862799 2.177615404129 -0.563229560852 0.001143 -0.188635 0.982047
0.326553612947 2.119458198547 -0.574381113052 0.001143 -0.188635 0.982047
0.116358220577 2.109534263611 -0.576284050941 0.001143 -0.188635 0.982047
-0.630689442158 1.769595980644 -0.627990067005 0.001009 0.999445 -0.033281
-0.560959160328 1.219740867615 -0.641699254513 0.999960 0.000985 -0.008867
-0.560890793800 1.393979787827 -0.633033871651 0.999960 0.000985 -0.008867
-0.560757577419 1.269717216492 -0.616479694843 0.999960 0.000985 -0.008867
-0.560492873192 1.486182451248 -0.580971956253 0.999976 -0.000983 -0.006883
-0.560588717461 1.203715682030 -0.593721568584 0.999976 -0.000983 -0.006883
-0.560374736786 1.134778499603 -0.563631117344 0.999976 -0.000983 -0.006883
-0.560171782970 1.354623794556 -0.536972999573 0.999976 -0.000983 -0.006883
-0.559950113297 1.706644058228 -0.509135901928 0.999976 -0.000983 -0.006883
-0.560245096684 1.130822539330 -0.545626342297 0.999976 -0.000983 -0.006883
-0.559834539890 1.649525642395 -0.493376255035 0.999976 -0.000983 -0.006883
-0.560420274734 1.519805908203 -0.571072816849 0.999976 -0.000983 -0.006883
-0.712217330933 1.765946984291 -0.541181862354 0.001057 0.996331 0.085581
-0.579109251499 1.762572765350 -0.501856088638 0.001057 0.996331 0.085581
-0.709868788719 1.769941926003 -0.614340901375 0.000991 0.999889 -0.014865
-0.896467745304 1.764632940292 -0.525865972042 0.001057 0.996331 0.085581
-0.902114748955 1.762843847275 -0.505015134811 0.001057 0.996331 0.085581
-0.655548751354 1.751055955887 -0.436828672886 0.001176 0.972780 0.231726
-0.580724596977 1.748416304588 -0.425715178251 0.001176 0.972780 0.231726
-0.559323787689 1.692909836769 -0.423713266850 0.999976 -0.000983 -0.006883
-0.559605121613 1.664890766144 -0.462356060743 0.999976 -0.000983 -0.006883
-0.559559524059 1.606665015221 -0.455761313438 0.999976 -0.000983 -0.006883
-0.559112846851 1.667436122894 -0.394557774067 0.999976 -0.000983 -0.006883
-0.559387266636 1.205370664597 -0.430478990078 0.999976 -0.000983 -0.006883
-0.558988630772 1.317244052887 -0.378272265196 0.999976 -0.000983 -0.006883
-0.558801889420 1.629888057709 -0.354141831398 0.999976 -0.000983 -0.006883
-0.558890163898 1.679379820824 -0.365598320961 0.999976 -0.000983 -0.006883
-0.571917116642 1.712852835655 -0.332625538111 0.001302 0.902354 0.430994
-0.694642364979 1.744021177292 -0.407211363316 0.001176 0.972780 0.231726
-0.685472488403 1.743968248367 -0.406988263130 0.001176 0.972780 0.231726
-0.886899173260 1.701074838638 -0.308062195778 0.001302 0.902354 0.430994
-0.755450904369 1.716986060143 -0.341245591640 0.001302 0.902354 0.430994
-0.707675933838 1.677783608437 -0.271783381701 0.001352 0.836802 0.547504
-0.558158814907 1.574211716652 -0.268996953964 0.999976 -0.000983 -0.006883
-0.558025598526 1.615978479385 -0.251313418150 0.999976 -0.000983 -0.006883
-0.558545589447 1.309986591339 -0.319645762444 0.999976 -0.000983 -0.006883
-0.558559894562 1.204436302185 -0.321134984493 0.999976 -0.000983 -0.006883
-0.558601737022 1.051201105118 -0.326297223568 0.999976 -0.000983 -0.006883
-0.557973921299 1.339769601822 -0.243554890156 0.999976 -0.000983 -0.006883
-0.557700395584 1.571509599686 -0.207704037428 0.999976 -0.000983 -0.006883
-0.560389578342 1.609236359596 -0.196315973997 0.001380 0.677534 0.735490
-0.696571290493 1.666304707527 -0.254187375307 0.001352 0.836802 0.547504
-0.659150362015 1.606440663338 -0.193740814924 0.001380 0.677534 0.735490
-0.677169680595 1.598128676414 -0.187537506223 0.001327 0.484515 0.874782
-0.628520905972 1.574764370918 -0.174617365003 0.001327 0.484515 0.874782
-0.557652473450 1.314910173416 -0.199238091707 0.999976 -0.000983 -0.006883
-0.557341635227 1.359268784523 -0.158246204257 0.999976 -0.000983 -0.006883
-0.708670079708 1.483291983604 -0.134265765548 0.001228 0.305890 0.952066
-0.792366862297 1.524583935738 -0.147574454546 0.001228 0.305890 0.952066
-0.816879451275 1.555213809013 -0.163806170225 0.001327 0.484515 0.874782
-0.817100048065 1.532253026962 -0.151109144092 0.001327 0.484515 0.874782
-0.739019811153 1.481873035431 -0.133808463812 0.001228 0.305890 0.952066
-0.861228466034 1.483937382698 -0.134473800659 0.001228 0.305890 0.952066
-0.626583218575 1.445174455643 -0.122442461550 0.001052 0.081042 0.996710
-0.608611524105 1.402135610580 -0.118936724961 0.001052 0.081042 0.996710
-0.683679521084 1.318853259087 -0.124297745526 0.001112 -0.150135 0.988665
-0.883161425591 1.401661872864 -0.118898123503 0.001052 0.081042 0.996710
-0.709203362465 1.287198901176 -0.129079103470 0.001112 -0.150135 0.988665
-0.720276176929 1.240188956261 -0.147650897503 0.001282 -0.393609 0.919277
-0.668145239353 1.270773291588 -0.134508967400 0.001282 -0.393609 0.919277
-0.775058090687 1.222927212715 -0.155068159103 0.001282 -0.393609 0.919277
-0.630516827106 1.168686032295 -0.187855437398 0.001360 -0.572458 0.819933
-0.702585995197 1.180836796761 -0.179350942373 0.001360 -0.572458 0.819933
-0.888708949089 1.174569129944 -0.183737799525 0.001360 -0.572458 0.819933
-0.917096495628 1.166721582413 -0.189230382442 0.001360 -0.572458 0.819933
-0.575678467751 1.094820141792 -0.256269454956 0.001378 -0.753685 0.657235
-0.682173013687 1.097680568695 -0.252989590168 0.001378 -0.753685 0.657235
-0.921099603176 1.095788598061 -0.255158960819 0.001378 -0.753685 0.657235
-0.877448201180 1.089647531509 -0.262200802565 0.001378 -0.753685 0.657235
-0.799028396606 1.062906384468 -0.298486024141 0.001326 -0.876523 0.481358
-0.620814621449 1.034614443779 -0.349844276905 0.001326 -0.876523 0.481358
-0.700131595135 1.024050354958 -0.376126676798 0.001215 -0.958392 0.285453
-0.838861346245 1.022148132324 -0.382528662682 0.001215 -0.958392 0.285453
-0.672448098660 1.007428765297 -0.441733956337 0.001065 -0.995500 0.094759
-0.600396096706 1.002841353416 -0.490351557732 0.001065 -0.995500 0.094759
-0.713767051697 1.003129601479 -0.510168254375 0.001007 -0.999513 -0.031203
-0.687620341778 1.003610134125 -0.525714397430 0.001007 -0.999513 -0.031203
-0.596066355705 1.010660886765 -0.584915399551 0.001108 -0.989410 -0.145143
-0.769565463066 1.007674336433 -0.564646482468 0.001108 -0.989410 -0.145143
-0.769624114037 1.010962605476 -0.586963236332 0.001108 -0.989410 -0.145143
0.245553493500 0.949327349663 -0.652722477913 0.000978 0.000978 0.999999
-0.463987290859 0.996123015881 -0.652789831161 0.000978 0.000978 0.999999
0.651015341282 0.961738407612 -0.652740418911 0.000978 0.000978 0.999999
0.496773481369 0.938460350037 -0.652706861496 0.000978 0.000978 0.999999
-0.123866498470 0.995608091354 -0.652789115906 0.000978 0.000978 0.999999
-0.024560213089 0.981388866901 -0.652768671513 0.000978 0.000978 0.999999
0.638216972351 0.970414698124 -0.652752816677 0.000978 0.000978 0.999999
0.395854473114 1.011095285416 -0.652811408043 0.000978 0.000978 0.999999
0.815504074097 1.007823348045 -0.652806699276 0.000978 0.000978 0.999999
0.861377894878 0.927593827248 -0.652691245079 0.000978 0.000978 0.999999
0.624032914639 1.017506003380 -0.644662618637 0.001052 -0.996710 -0.081042
0.560877323151 1.352413654327 -0.631376028061 -0.999960 0.000985 -0.008867
0.560782790184 1.167861104012 -0.619696676731 -0.999960 0.000985 -0.008867
0.560987353325 1.261705875397 -0.646045804024 -0.999976 -0.000983 -0.006883
0.096125930548 1.629033327103 -0.636652171612 0.001003 -0.027071 0.999633
0.266112595797 1.575330376625 -0.638073682785 0.001003 -0.027071 0.999633
0.492766618729 1.430526614189 -0.641906619072 0.001003 -0.027071 0.999633
0.119981080294 1.678897976875 -0.635332226753 0.001003 -0.027071 0.999633
-0.176267445087 1.719974994659 -0.634244918823 0.001003 -0.027071 0.999633
0.053757071495 1.719500064850 -0.634257495403 0.001003 -0.027071 0.999633
-0.523723542690 1.754749536514 -0.633324444294 0.001003 -0.027071 0.999633
0.201257973909 1.331552982330 -0.644526481628 0.001003 -0.027071 0.999633
-0.463618755341 1.721424698830 -0.634206593037 0.001003 -0.027071 0.999633
0.523808538914 1.385049462318 -0.643110394478 0.001003 -0.027071 0.999633
0.094246149063 1.650638341904 -0.636080265045 0.001003 -0.027071 0.999633
-0.374975681305 1.671548604965 -0.635526776314 0.001003 -0.027071 0.999633
0.231995195150 1.313292622566 -0.645009815693 0.001003 -0.027071 0.999633
0.408569574356 1.270332574844 -0.646146953106 0.001003 -0.027071 0.999633
-0.350154757500 1.751165270805 -0.633419334888 0.001003 -0.027071 0.999633
0.164336174726 1.435037016869 -0.641787230968 0.001003 -0.027071 0.999633
0.525160312653 1.208269357681 -0.647789776325 0.001003 -0.027071 0.999633
0.220169425011 1.735795140266 -0.633826136589 0.001003 -0.027071 0.999633
-0.138867080212 1.686243534088 -0.635137796402 0.001003 -0.027071 0.999633
0.434674799442 1.290907025337 -0.645602405071 0.001003 -0.027071 0.999633
-0.027341544628 1.483348846436 -0.640508413315 0.001003 -0.027071 0.999633
0.475237131119 1.125817179680 -0.649972319603 0.001003 -0.027071 0.999633
0.506027221680 1.546509623528 -0.638836562634 0.001003 -0.027071 0.999633
0.066030502319 1.592915177345 -0.637608170509 0.001003 -0.027071 0.999633
0.316060721874 1.317828774452 -0.644889771938 0.001003 -0.027071 0.999633
-0.339810132980 1.748611807823 -0.633486926556 0.001003 -0.027071 0.999633
-0.458998024464 1.719101190567 -0.634268045425 0.001003 -0.027071 0.999633
-0.231185495853 1.627273559570 -0.636698722839 0.001003 -0.027071 0.999633
0.342827320099 1.663991451263 -0.635726809502 0.001003 -0.027071 0.999633
0.291747659445 1.733564615250 -0.633885204792 0.001003 -0.027071 0.999633
0.405730605125 1.553447365761 -0.638652920723 0.001003 -0.027071 0.999633
0.134035319090 1.613130331039 -0.637073159218 0.001003 -0.027071 0.999633
0.460283935070 1.131696224213 -0.649816691875 0.001003 -0.027071 0.999633
0.294903814793 1.254300832748 -0.646571338177 0.001003 -0.027071 0.999633
0.340026080608 1.186619520187 -0.648362874985 0.001003 -0.027071 0.999633
0.076238840818 1.524506688118 -0.639419019222 0.001003 -0.027071 0.999633
0.543910682201 1.193384647369 -0.648183822632 0.001003 -0.027071 0.999633
-0.059444904327 1.741832733154 -0.633666336536 0.001003 -0.027071 0.999633
0.517078757286 1.647060155869 -0.636174976826 0.001003 -0.027071 0.999633
-0.126687228680 1.697561860085 -0.634838223457 0.001003 -0.027071 0.999633
-0.082981169224 1.712493181229 -0.634442985058 0.001003 -0.027071 0.999633
0.497004747391 1.232475876808 -0.647149085999 0.001003 -0.027071 0.999633
-0.375542640686 1.028731942177 -0.652542173862 0.001003 -0.027071 0.999633
-0.374600350857 1.368476271629 -0.643549084663 0.001003 -0.027071 0.999633
-0.090362921357 1.406221389771 -0.642549991608 0.001003 -0.027071 0.999633
-0.276808887720 1.085134863853 -0.651049137115 0.001003 -0.027071 0.999633
-0.013286232948 1.178102254868 -0.648588299751 0.001003 -0.027071 0.999633
-0.544703423977 1.587874770164 -0.637741625309 0.001003 -0.027071 0.999633
-0.202622413635 1.200391292572 -0.647998332977 0.001003 -0.027071 0.999633
-0.186942681670 1.368086338043 -0.643559455872 0.001003 -0.027071 0.999633
-0.510300636292 1.356142997742 -0.643875598907 0.001003 -0.027071 0.999633
-0.278208076954 1.450670361519 -0.641373455524 0.001003 -0.027071 0.999633
-0.312357157469 1.109679341316 -0.650399446487 0.001003 -0.027071 0.999633
-0.464274108410 1.065531492233 -0.651568055153 0.001003 -0.027071 0.999633
-0.263179332018 1.299611926079 -0.645371973515 0.001003 -0.027071 0.999633
0.074746385217 1.194730758667 -0.648148179054 0.001003 -0.027071 0.999633
0.046120628715 1.358930349350 -0.643801808357 0.001003 -0.027071 0.999633
0.242899686098 1.220689415932 -0.647461056709 0.001003 -0.027071 0.999633
-0.511192679405 1.057542443275 -0.651779532433 0.001003 -0.027071 0.999633
0.115183383226 1.133999466896 -0.649755716324 0.001003 -0.027071 0.999633
0.244420796633 1.158519506454 -0.649106681347 0.001003 -0.027071 0.999633
-0.221758157015 1.142325162888 -0.649535357952 0.001003 -0.027071 0.999633
-0.334167778492 1.454428195953 -0.641273975372 0.001003 -0.027071 0.999633
-0.513256669044 1.341654777527 -0.644259095192 0.001003 -0.027071 0.999633
-0.178330838680 1.374814152718 -0.643381357193 0.001003 -0.027071 0.999633
0.104878045619 1.321215629578 -0.644800066948 0.001003 -0.027071 0.999633
0.066617637873 1.325105547905 -0.644697129726 0.001003 -0.027071 0.999633
-0.462769746780 1.046642303467 -0.652068078518 0.001003 -0.027071 0.999633
0.026822596788 1.250246882439 -0.646678626537 0.001003 -0.027071 0.999633
-0.332075715065 1.589949607849 -0.637686729431 0.001003 -0.027071 0.999633
-0.098684608936 1.122850298882 -0.650050818920 0.001003 -0.027071 0.999633
-0.078156709671 1.102477788925 -0.650590062141 0.001003 -0.027071 0.999633
-0.533867418766 1.100827217102 -0.650633752346 0.001003 -0.027071 0.999633
-0.044538527727 1.360250949860 -0.643766820431 0.001003 -0.027071 0.999633
0.245621532202 1.226596593857 -0.647304654121 0.001003 -0.027071 0.999633
-0.357751131058 1.071808218956 -0.651401937008 0.001003 -0.027071 0.999633
-0.210493311286 1.472062945366 -0.640807151794 0.001003 -0.027071 0.999633
-0.280528664589 1.514873623848 -0.639673948288 0.001003 -0.027071 0.999633
-0.053130209446 1.257864713669 -0.646476984024 0.001003 -0.027071 0.999633
-0.003036260605 1.058244466782 -0.651760935783 0.001003 -0.027071 0.999633
-0.530167579651 1.483534693718 -0.640503525734 0.001003 -0.027071 0.999633
-0.329992264509 1.140916228294 -0.649572610855 0.001003 -0.027071 0.999633
-0.154265254736 1.199946522713 -0.648010075092 0.001003 -0.027071 0.999633
-0.546797394753 1.240090608597 -0.646947503090 0.001003 -0.027071 0.999633
-0.264266908169 1.177513003349 -0.648603916168 0.001003 -0.027071 0.999633
-0.562189817429 0.992237806320 -0.652784287930 0.000978 0.000978 0.999999
0.320761263371 0.918557107449 -0.652678191662 0.000978 0.000978 0.999999
0.607061743736 0.925490736961 -0.652688205242 0.000978 0.000978 0.999999
-0.731986224651 0.912337720394 -0.652669250965 0.000978 0.000978 0.999999
-0.853979349136 0.920876741409 -0.652681529522 0.000978 0.000978 0.999999
-0.693694591522 0.978967726231 -0.652765154839 0.000978 0.000978 0.999999
-0.761676609516 0.918771266937 -0.652678549290 0.000978 0.000978 0.999999
0.405799627304 0.933278143406 -0.652699410915 0.000978 0.000978 0.999999
0.123976796865 0.928053081036 -0.652691900730 0.000978 0.000978 0.999999
-0.402738809586 0.937256395817 -0.652705132961 0.000978 0.000978 0.999999
0.494490265846 0.598994135857 -0.652218282223 0.000978 0.000978 0.999999
0.715924143791 0.702169418335 -0.652366816998 0.000978 0.000978 0.999999
0.213171303272 0.608835458755 -0.652232468128 0.000978 0.000978 0.999999
0.564671158791 0.139497220516 -0.651557028294 0.000978 0.000978 0.999999
0.823344111443 0.310778021812 -0.651803493500 0.000978 0.000978 0.999999
-0.799256801605 0.842750668526 -0.652569115162 0.000978 0.000978 0.999999
0.173944830894 -0.075379073620 -0.651247739792 0.000978 0.000978 0.999999
0.563961446285 0.875482738018 -0.652616202831 0.000978 0.000978 0.999999
0.906752884388 -0.738950669765 -0.650292754173 0.000978 0.000978 0.999999
-0.240733981133 0.310975790024 -0.651803791523 0.000978 0.000978 0.999999
0.592318177223 0.775984466076 -0.652473032475 0.000978 0.000978 0.999999
0.137109100819 0.276605844498 -0.651754319668 0.000978 0.000978 0.999999
-0.472184658051 0.847111463547 -0.652575373650 0.000978 0.000978 0.999999
0.295936584473 0.712860882282 -0.652382194996 0.000978 0.000978 0.999999
0.698855400085 0.837764084339 -0.652561962605 0.000978 0.000978 0.999999
-0.084908604622 0.863157629967 -0.652598500252 0.000978 0.000978 0.999999
0.829668700695 -0.505312979221 -0.650628983974 0.000978 0.000978 0.999999
0.415411531925 0.629798054695 -0.652262628078 0.000978 0.000978 0.999999
0.816163837910 0.440979033709 -0.651990890503 0.000978 0.000978 0.999999
0.326484024525 0.819602429867 -0.652535796165 0.000978 0.000978 0.999999
-0.423812747002 0.675037562847 -0.652327716351 0.000978 0.000978 0.999999
0.639140367508 0.561836123466 -0.652164816856 0.000978 0.000978 0.999999
0.502024412155 -0.333642423153 -0.650876045227 0.000978 0.000978 0.999999
0.109317421913 0.623803019524 -0.652253985405 0.000978 0.000978 0.999999
0.383472681046 -0.052366197109 -0.651280879974 0.000978 0.000978 0.999999
0.212509870529 0.475673049688 -0.652040839195 0.000978 0.000978 0.999999
0.429282873869 0.809793412685 -0.652521669865 0.000978 0.000978 0.999999
0.293296098709 -0.178827226162 -0.651098847389 0.000978 0.000978 0.999999
-0.521942734718 0.529997825623 -0.652118980885 0.000978 0.000978 0.999999
0.547480940819 -0.242737948895 -0.651006877422 0.000978 0.000978 0.999999
0.853523313999 0.346972286701 -0.651855587959 0.000978 0.000978 0.999999
0.892350971699 0.233764886856 -0.651692688465 0.000978 0.000978 0.999999
0.440129905939 0.272318422794 -0.651748180389 0.000978 0.000978 0.999999
0.290906429291 0.169878244400 -0.651600718498 0.000978 0.000978 0.999999
0.074959754944 0.441183507442 -0.651991188526 0.000978 0.000978 0.999999
0.687726140022 -0.377872765064 -0.650812387466 0.000978 0.000978 0.999999
-0.194997668266 0.479193329811 -0.652045905590 0.000978 0.000978 0.999999
0.774808764458 0.117567479610 -0.651525437832 0.000978 0.000978 0.999999
0.867495417595 0.626399755478 -0.652257740498 0.000978 0.000978 0.999999
-0.037690460682 0.255941867828 -0.651724576950 0.000978 0.000978 0.999999
-0.103761076927 0.167649686337 -0.651597499847 0.000978 0.000978 0.999999
0.111069321632 -0.107183635235 -0.651201963425 0.000978 0.000978 0.999999
0.204040110111 0.844857871532 -0.652572154999 0.000978 0.000978 0.999999
0.316100060940 0.451581299305 -0.652006149292 0.000978 0.000978 0.999999
0.781947135925 -0.640407502651 -0.650434553623 0.000978 0.000978 0.999999
0.118466854095 0.562789916992 -0.652166187763 0.000978 0.000978 0.999999
0.645811080933 0.184258222580 -0.651621401310 0.000978 0.000978 0.999999
0.063241899014 0.783842027187 -0.652484357357 0.000978 0.000978 0.999999
-0.826972365379 0.843221664429 -0.652569770813 0.000978 0.000978 0.999999
0.730567216873 0.776679515839 -0.652474045753 0.000978 0.000978 0.999999
-0.101884841919 0.428241789341 -0.651972532272 0.000978 0.000978 0.999999
0.865173041821 -0.530232489109 -0.650593161583 0.000978 0.000978 0.999999
0.086099743843 0.142234027386 -0.651560962200 0.000978 0.000978 0.999999
-0.013616740704 0.449436545372 -0.652003049850 0.000978 0.000978 0.999999
0.821825265884 -0.283532679081 -0.650948166847 0.000978 0.000978 0.999999
-0.009741783142 0.605206012726 -0.652227222919 0.000978 0.000978 0.999999
0.683169603348 -0.274957954884 -0.650960505009 0.000978 0.000978 0.999999
0.885579884052 -0.828534543514 -0.650163829327 0.000978 0.000978 0.999999
0.909213602543 -0.599834740162 -0.650492966175 0.000978 0.000978 0.999999
0.715557396412 0.770907163620 -0.652465701103 0.000978 0.000978 0.999999
0.760595500469 -0.535711228848 -0.650585234165 0.000978 0.000978 0.999999
0.788390278816 0.491082638502 -0.652063012123 0.000978 0.000978 0.999999
0.764119565487 -0.512105524540 -0.650619208813 0.000978 0.000978 0.999999
0.405886411667 -0.051374197006 -0.651282310486 0.000978 0.000978 0.999999
0.386202752590 0.068283438683 -0.651454508305 0.000978 0.000978 0.999999
0.166818559170 0.586179852486 -0.652199864388 0.000978 0.000978 0.999999
0.728711903095 -0.519086062908 -0.650609195232 0.000978 0.000978 0.999999
-0.321880102158 0.755374073982 -0.652443349361 0.000978 0.000978 0.999999
-0.218496441841 0.347547531128 -0.651856422424 0.000978 0.000978 0.999999
-0.624775052071 0.834515690804 -0.652557253838 0.000978 0.000978 0.999999
0.871366739273 -0.770248353481 -0.650247693062 0.000978 0.000978 0.999999
-0.067894697189 0.374028205872 -0.651894509792 0.000978 0.000978 0.999999
0.454194456339 0.406006038189 -0.651940584183 0.000978 0.000978 0.999999
-0.101666450500 0.119389414787 -0.651528060436 0.000978 0.000978 0.999999
0.408781230450 0.048385739326 -0.651425898075 0.000978 0.000978 0.999999
-0.076637387276 0.329704046249 -0.651830732822 0.000978 0.000978 0.999999
0.820370018482 0.875579118729 -0.652616381645 0.000978 0.000978 0.999999
0.848974943161 0.870944917202 -0.652609705925 0.000978 0.000978 0.999999
0.673628151417 0.249750852585 -0.651715695858 0.000978 0.000978 0.999999
-0.360277652740 0.645291209221 -0.652284920216 0.000978 0.000978 0.999999
0.906844258308 0.638407945633 -0.652275025845 0.000978 0.000978 0.999999
0.856171190739 -0.108801424503 -0.651199638844 0.000978 0.000978 0.999999
0.789509892464 -0.318666636944 -0.650897622108 0.000978 0.000978 0.999999
-0.048586785793 0.571876049042 -0.652179300785 0.000978 0.000978 0.999999
0.398777842522 -0.201936781406 -0.651065587997 0.000978 0.000978 0.999999
0.556514859200 -0.539975345135 -0.650579094887 0.000978 0.000978 0.999999
0.503393054008 -0.309530794621 -0.650910794735 0.000978 0.000978 0.999999
-0.120210289955 0.308040857315 -0.651799559593 0.000978 0.000978 0.999999
0.809204757214 0.171644628048 -0.651603281498 0.000978 0.000978 0.999999
0.903154075146 -0.564865767956 -0.650543272495 0.000978 0.000978 0.999999
0.830998420715 -0.621781289577 -0.650461375713 0.000978 0.000978 0.999999
0.263109922409 0.822435319424 -0.652539849281 0.000978 0.000978 0.999999
-0.044083058834 0.653505802155 -0.652296781540 0.000978 0.000978 0.999999
0.877382099628 0.269181430340 -0.651743650436 0.000978 0.000978 0.999999
0.347058951855 0.561560332775 -0.652164399624 0.000978 0.000978 0.999999
-0.032660007477 0.182247161865 -0.651618540287 0.000978 0.000978 0.999999
-0.512158989906 0.897657752037 -0.652648150921 0.000978 0.000978 0.999999
0.874824166298 0.629530668259 -0.652262270451 0.000978 0.000978 0.999999
0.321717679501 -0.233222186565 -0.651020586491 0.000978 0.000978 0.999999
-0.137632727623 0.884867250919 -0.652629733086 0.000978 0.000978 0.999999
0.064079225063 0.435950547457 -0.651983678341 0.000978 0.000978 0.999999
0.584392309189 0.838187575340 -0.652562558651 0.000978 0.000978 0.999999
0.807817101479 -0.048309445381 -0.651286721230 0.000978 0.000978 0.999999
0.322543501854 0.363004982471 -0.651878654957 0.000978 0.000978 0.999999
-0.467877149582 0.665238320827 -0.652313649654 0.000978 0.000978 0.999999
0.483107745647 0.469724088907 -0.652032256126 0.000978 0.000978 0.999999
-0.234655857086 0.609114229679 -0.652232885361 0.000978 0.000978 0.999999
0.874651432037 -0.005915582180 -0.651347756386 0.000978 0.000978 0.999999
0.345033407211 -0.203752934933 -0.651063024998 0.000978 0.000978 0.999999
-0.106394052505 0.695417046547 -0.652357101440 0.000978 0.000978 0.999999
0.615500569344 -0.195926606655 -0.651074290276 0.000978 0.000978 0.999999
0.387207090855 0.007991552353 -0.651367723942 0.000978 0.000978 0.999999
0.579460382462 0.236151516438 -0.651696085930 0.000978 0.000978 0.999999
0.434824079275 0.878728270531 -0.652620911598 0.000978 0.000978 0.999999
0.078373610973 0.654673933983 -0.652298450470 0.000978 0.000978 0.999999
0.594283819199 -0.502815425396 -0.650632619858 0.000978 0.000978 0.999999
0.734807550907 -0.682580053806 -0.650373876095 0.000978 0.000978 0.999999
0.277312576771 0.448194026947 -0.652001261711 0.000978 0.000978 0.999999
0.840102851391 0.105546474457 -0.651508152485 0.000978 0.000978 0.999999
0.523178875446 0.850240647793 -0.652579903603 0.000978 0.000978 0.999999
0.886257588863 0.278885602951 -0.651757597923 0.000978 0.000978 0.999999
0.380549490452 0.144085526466 -0.651563584805 0.000978 0.000978 0.999999
0.916525602341 -0.848238885403 -0.650135457516 0.000978 0.000978 0.999999
0.863082110882 0.642701208591 -0.652281224728 0.000978 0.000978 0.999999
0.672255873680 0.146577894688 -0.651567220688 0.000978 0.000978 0.999999
0.003843128681 0.533223927021 -0.652123630047 0.000978 0.000978 0.999999
-0.434926152229 0.748263120651 -0.652433156967 0.000978 0.000978 0.999999
0.702545046806 0.712483286858 -0.652381658554 0.000978 0.000978 0.999999
0.299474656582 0.596620440483 -0.652214884758 0.000978 0.000978 0.999999
0.244059443474 -0.111411035061 -0.651195883751 0.000978 0.000978 0.999999
0.889438033104 -0.376990258694 -0.650813698769 0.000978 0.000978 0.999999
0.141605019569 0.741318345070 -0.652423143387 0.000978 0.000978 0.999999
0.794916450977 0.066104471684 -0.651451349258 0.000978 0.000978 0.999999
0.674858510494 0.710603177547 -0.652378916740 0.000978 0.000978 0.999999
0.801585495472 -0.326433479786 -0.650886416435 0.000978 0.000978 0.999999
0.700447142124 0.722376883030 -0.652395844460 0.000978 0.000978 0.999999
0.466879785061 -0.082377135754 -0.651237666607 0.000978 0.000978 0.999999
