0.662047863007 0.220713883638 0.011725738645 0.999999 0.000978 0.000978
0.662047863007 0.229063123465 0.030650004745 0.999999 0.000978 0.000978
0.572351753712 0.364644050598 0.230085432529 0.001284 0.917945 -0.396706
0.580989003181 0.219192057848 -0.105936288834 0.001284 0.917945 -0.396706
0.617719888687 0.187328338623 -0.179547578096 0.001284 0.917945 -0.396706
0.456550180912 0.223575919867 -0.095808736980 0.001284 0.917945 -0.396706
0.246037334204 0.366655558348 0.234732508659 0.001284 0.917945 -0.396706
0.472094058990 0.303336560726 0.088453561068 0.001284 0.917945 -0.396706
0.381005942822 0.343672424555 0.181637033820 0.001284 0.917945 -0.396706
0.381042927504 0.360353767872 0.220174118876 0.001284 0.917945 -0.396706
0.661612987518 0.218023762107 -0.108635291457 0.001284 0.917945 -0.396706
0.465906858444 0.313757747412 0.112528458238 0.001284 0.917945 -0.396706
0.276663422585 0.344249963760 0.182971253991 0.001284 0.917945 -0.396706
0.495836794376 0.286395967007 0.049317479134 0.001284 0.917945 -0.396706
0.268063038588 0.327132016420 0.143425524235 0.001284 0.917945 -0.396706
0.197676569223 0.370711117983 0.244101569057 0.001284 0.917945 -0.396706
0.604479134083 0.348630607128 0.193091362715 0.001284 0.917945 -0.396706
0.487780094147 0.275135874748 0.023304596543 0.001284 0.917945 -0.396706
0.335402578115 0.229131296277 -0.082974746823 0.001284 0.917945 -0.396706
0.411253839731 0.236268147826 -0.066487215459 0.001284 0.917945 -0.396706
0.233581021428 0.245729237795 -0.044630348682 0.001284 0.917945 -0.396706
0.216057717800 0.135762706399 -0.298673927784 0.001284 0.917945 -0.396706
0.283356636763 0.171047881246 -0.217158436775 0.001284 0.917945 -0.396706
0.301292836666 0.142892763019 -0.282202154398 0.001284 0.917945 -0.396706
0.477327197790 0.134661495686 -0.301217943430 0.001284 0.917945 -0.396706
0.227406278253 0.157220408320 -0.249102532864 0.001284 0.917945 -0.396706
0.610428750515 0.132931262255 -0.305215120316 0.001284 0.917945 -0.396706
0.497395336628 0.181480929255 -0.193056136370 0.001284 0.917945 -0.396706
0.251095026731 0.130175411701 -0.311581671238 0.001284 0.917945 -0.396706
0.293416500092 0.211579531431 -0.123522594571 0.001284 0.917945 -0.396706
0.232887804508 0.150562867522 -0.264482766390 0.001284 0.917945 -0.396706
0.160398855805 0.236459031701 -0.066046223044 0.001284 0.917945 -0.396706
0.467368751764 0.195370763540 -0.160967990756 0.001284 0.917945 -0.396706
0.500059604645 0.196561604738 -0.158216878772 0.001284 0.917945 -0.396706
0.188282310963 -0.264995813370 -0.340817034245 0.000978 0.000978 -0.999999
0.530194044113 0.055714543909 -0.340817034245 0.000978 0.000978 -0.999999
0.169862598181 0.093049354851 -0.340817034245 0.000978 0.000978 -0.999999
0.288040995598 -0.173463657498 -0.340817034245 0.000978 0.000978 -0.999999
0.164001807570 -0.295564651489 -0.340817034245 0.000978 0.000978 -0.999999
0.250138938427 -0.225538119674 -0.340817034245 0.000978 0.000978 -0.999999
0.515612304211 0.037120737135 -0.340817034245 0.000978 0.000978 -0.999999
0.389043509960 -0.003756359220 -0.340817034245 0.000978 0.000978 -0.999999
0.203121155500 0.007323563099 -0.340817034245 0.000978 0.000978 -0.999999
0.577449917793 0.100954078138 -0.340817034245 0.000978 0.000978 -0.999999
0.385611653328 -0.086856558919 -0.340817034245 0.000978 0.000978 -0.999999
0.213420182467 0.113828025758 -0.340817034245 0.000978 0.000978 -0.999999
0.408238291740 0.117265187204 -0.340817034245 0.000978 0.000978 -0.999999
0.405657947063 -0.144044682384 -0.340817034245 0.000978 0.000978 -0.999999
0.328963458538 -0.312225222588 -0.340817034245 0.000978 0.000978 -0.999999
0.293644160032 -0.266989856958 -0.340817034245 0.000978 0.000978 -0.999999
0.517931997776 -0.107534945011 -0.340817034245 0.000978 0.000978 -0.999999
0.262415379286 -0.367936611176 -0.340817034245 0.000978 0.000978 -0.999999
0.610381305218 -0.217314258218 -0.340817034245 0.000978 0.000978 -0.999999
0.430706143379 -0.250826239586 -0.340817034245 0.000978 0.000978 -0.999999
0.261575579643 -0.357090413570 -0.340817034245 0.000978 0.000978 -0.999999
0.442373186350 -0.106175392866 -0.340817034245 0.000978 0.000978 -0.999999
0.634342610836 0.081401050091 -0.340817034245 0.000978 0.000978 -0.999999
0.501749932766 -0.286000758410 -0.340817034245 0.000978 0.000978 -0.999999
0.204731181264 -0.351636290550 -0.340817034245 0.000978 0.000978 -0.999999
0.338865876198 -0.210182830691 -0.340817034245 0.000978 0.000978 -0.999999
0.457659363747 -0.389106601477 -0.318143516779 0.001048 -0.997066 0.076536
0.560574412346 -0.385209947824 -0.267433643341 0.001048 -0.997066 0.076536
0.380152076483 -0.386916399002 -0.289641082287 0.001048 -0.997066 0.076536
0.472673594952 -0.386576652527 -0.285219371319 0.001048 -0.997066 0.076536
0.203075945377 -0.377127170563 -0.162246599793 0.001048 -0.997066 0.076536
0.219194680452 -0.386803328991 -0.288169234991 0.001048 -0.997066 0.076536
0.405648887157 -0.377236545086 -0.163669943810 0.001048 -0.997066 0.076536
0.450106769800 -0.380252093077 -0.202913314104 0.001048 -0.997066 0.076536
0.625376582146 -0.377876788378 -0.172001779079 0.001048 -0.997066 0.076536
0.278783410788 -0.341949641705 -0.166331902146 0.001091 0.125512 0.992091
0.231509506702 -0.081994533539 -0.199199140072 0.001091 0.125512 0.992091
0.436537444592 -0.273290872574 -0.175012722611 0.001091 0.125512 0.992091
0.421282082796 -0.272313177586 -0.175136342645 0.001091 0.125512 0.992091
0.235248655081 -0.247080624104 -0.178326606750 0.001091 0.125512 0.992091
0.284700542688 -0.162984848022 -0.188959181309 0.001091 0.125512 0.992091
0.197819560766 0.011359155178 -0.211002230644 0.001091 0.125512 0.992091
0.423248916864 -0.257446289062 -0.177016019821 0.001091 0.125512 0.992091
0.310997396708 -0.089403778315 -0.198262348771 0.001091 0.125512 0.992091
0.531171143055 -0.358086138964 -0.164291709661 0.001091 0.125512 0.992091
0.232044190168 -0.138056486845 -0.192110985518 0.001091 0.125512 0.992091
0.275042116642 0.022899532691 -0.212461337447 0.001091 0.125512 0.992091
0.543226540089 0.027404589579 -0.213030934334 0.001091 0.125512 0.992091
0.497546851635 -0.097623601556 -0.197223082185 0.001091 0.125512 0.992091
0.599891781807 -0.027003090829 -0.206151932478 0.001091 0.125512 0.992091
0.455599248409 -0.017623413354 -0.207337841392 0.001091 0.125512 0.992091
0.363544255495 0.031069513410 -0.213494300842 0.001091 0.125512 0.992091
0.584343791008 0.045728549361 -0.215347707272 0.001091 0.125512 0.992091
0.553269147873 -0.061078872532 -0.201843589544 0.001091 0.125512 0.992091
0.322972834110 -0.081750854850 -0.199229940772 0.001091 0.125512 0.992091
0.579532206059 -0.119841530919 -0.194413974881 0.001091 0.125512 0.992091
0.654641330242 -0.359650939703 -0.164093852043 0.001091 0.125512 0.992091
0.613439977169 0.221546277404 0.176948845387 0.001282 -0.919277 0.393609
0.593647599220 0.070838391781 -0.173873156309 0.001282 -0.919277 0.393609
0.647709071636 0.172277942300 0.062260657549 0.001282 -0.919277 0.393609
0.257632881403 0.070966362953 -0.173575222492 0.001282 -0.919277 0.393609
0.364028990269 0.132751986384 -0.029748957604 0.001282 -0.919277 0.393609
0.523030877113 0.068698614836 -0.178854182363 0.001282 -0.919277 0.393609
0.576569020748 0.167753100395 0.051727600396 0.001282 -0.919277 0.393609
0.284261345863 0.071259602904 -0.172892630100 0.001282 -0.919277 0.393609
0.572937190533 0.202562689781 0.132758334279 0.001282 -0.919277 0.393609
0.438754975796 0.117344483733 -0.065614946187 0.001282 -0.919277 0.393609
0.165100246668 0.056838896126 -0.206461563706 0.001282 -0.919277 0.393609
0.445412039757 0.126575052738 -0.044127792120 0.001282 -0.919277 0.393609
0.396273314953 0.144586265087 -0.002200842835 0.001282 -0.919277 0.393609
0.262341082096 0.167396992445 0.050898641348 0.001282 -0.919277 0.393609
0.248264655471 0.251069545746 0.245673865080 0.001282 -0.919277 0.393609
0.516722023487 0.216684207320 0.165630757809 0.001282 -0.919277 0.393609
0.344793975353 0.218821376562 0.170605748892 0.001282 -0.919277 0.393609
0.480234235525 0.245340630412 0.232337981462 0.001282 -0.919277 0.393609
0.484674870968 0.233063057065 0.203757911921 0.001282 -0.919277 0.393609
0.367666065693 0.151056289673 0.012860253453 0.001282 -0.919277 0.393609
0.438882470131 0.220503717661 0.174521923065 0.001282 -0.919277 0.393609
0.260451972485 0.121103815734 -0.056863903999 0.001282 -0.919277 0.393609
0.389545142651 0.190151587129 0.103867411613 0.001282 -0.919277 0.393609
0.273406356573 0.193458184600 0.111564584076 0.001282 -0.919277 0.393609
0.421624064445 0.215452581644 0.162763774395 0.001282 -0.919277 0.393609
0.293317556381 0.187578529119 0.097877785563 0.001282 -0.919277 0.393609
0.473490774632 0.251323372126 0.279337197542 0.000978 -0.999999 0.000978
0.602933764458 0.251323372126 0.284171313047 0.000978 -0.999999 0.000978
0.243356451392 0.251323372126 0.286978065968 0.000978 -0.999999 0.000978
0.396406859159 0.251323372126 0.295508563519 0.000978 -0.999999 0.000978
0.480257034302 0.251323372126 0.368422418833 0.000978 -0.999999 0.000978
0.311534941196 0.251323372126 0.334208726883 0.000978 -0.999999 0.000978
0.531481683254 0.274262756109 0.375360190868 0.356781 0.001261 0.934187
0.577148139477 0.356188535690 0.357913583517 0.356781 0.001261 0.934187
0.534122049809 0.371647477150 0.323099225760 0.000978 0.999999 0.000978
0.451846182346 0.371647477150 0.287761926651 0.000978 0.999999 0.000978
0.153571724892 0.371647477150 0.318823546171 0.000978 0.999999 0.000978
0.183802008629 0.371647477150 0.313802838326 0.000978 0.999999 0.000978
0.151181876659 0.248871564865 0.172315925360 -0.999999 0.000978 0.000978
0.151181876659 0.167146801949 -0.140689119697 -0.999999 0.000978 0.000978
0.151181876659 0.267926216125 0.242925047874 -0.999999 0.000978 0.000978
0.151181876659 0.083495177329 -0.217813566327 -0.999999 0.000978 0.000978
0.151181876659 0.125514462590 -0.282653212547 -0.999999 0.000978 0.000978
0.151181876659 0.114587880671 -0.095165580511 -0.999999 0.000978 0.000978
0.151181876659 -0.334208756685 -0.168461561203 -0.999999 0.000978 0.000978
0.151181876659 -0.186062902212 -0.215987518430 -0.999999 0.000978 0.000978
0.151181876659 0.059637814760 -0.269173026085 -0.999999 0.000978 0.000978
0.151181876659 -0.301303207874 -0.273653656244 -0.999999 0.000978 0.000978
0.151181876659 -0.123180314898 -0.258190453053 -0.999999 0.000978 0.000978
0.151181876659 -0.158947840333 -0.296725541353 -0.999999 0.000978 0.000978
0.151181876659 -0.164800688624 -0.297110229731 -0.999999 0.000978 0.000978
0.151181876659 -0.132941976190 -0.316681802273 -0.999999 0.000978 0.000978
0.220923796296 0.284024924040 0.352122634649 -0.356781 0.001261 0.934187
0.237654328346 0.312034755945 0.358514428139 -0.356781 0.001261 0.934187
0.292908579111 0.303748458624 0.417698234320 -0.999999 0.000978 0.000978
0.427137911320 0.251323372126 0.476495742798 0.000978 -0.999999 0.000978
0.468680262566 0.251323372126 0.388265699148 0.000978 -0.999999 0.000978
0.267377167940 0.251323372126 0.367843210697 0.000978 -0.999999 0.000978
0.520321130753 0.274915546179 0.484827488661 0.999999 0.000978 0.000978
0.520321130753 0.257063925266 0.515103876591 0.999999 0.000978 0.000978
0.453492105007 0.371647477150 0.437605381012 0.000978 0.999999 0.000978
0.497603952885 0.371647477150 0.441762626171 0.000978 0.999999 0.000978
0.307002633810 0.371647477150 0.453476309776 0.000978 0.999999 0.000978
0.476902693510 0.371647477150 0.332382827997 0.000978 0.999999 0.000978
0.413446038961 0.361815869808 0.531794309616 0.001326 0.481358 0.876523
0.305467754602 0.295677334070 0.533380985260 0.001217 -0.288352 0.957524
0.372880458832 0.255236983299 0.521182596684 0.001217 -0.288352 0.957524
0.370275735855 -0.276298731565 -0.340817034245 0.000978 0.000978 0.999999
0.226419344544 0.160556733608 -0.340817034245 0.000978 0.000978 0.999999
0.081135645509 0.560499489307 -0.340817034245 0.000978 0.000978 0.999999
0.093266308308 -0.215737998486 -0.340817034245 0.000978 0.000978 0.999999
0.215262308717 0.097652196884 -0.340817034245 0.000978 0.000978 0.999999
0.359330058098 -0.429290562868 -0.340817034245 0.000978 0.000978 0.999999
0.161354735494 0.648233592510 -0.340817034245 0.000978 0.000978 0.999999
0.406175673008 -0.525819361210 -0.340817034245 0.000978 0.000978 0.999999
0.096946075559 0.600282728672 -0.340817034245 0.000978 0.000978 0.999999
0.087481886148 -0.177160680294 -0.340817034245 0.000978 0.000978 0.999999
0.176951050758 -0.648622453213 -0.340817034245 0.000978 0.000978 0.999999
0.088600389659 0.806615769863 -0.340817034245 0.000978 0.000978 0.999999
0.074377685785 -0.132884442806 -0.340817034245 0.000978 0.000978 0.999999
0.348320990801 -0.548969388008 -0.340817034245 0.000978 0.000978 0.999999
0.297520518303 -0.384242236614 -0.340817034245 0.000978 0.000978 0.999999
0.001948475838 -0.554670155048 -0.340817034245 0.000978 0.000978 0.999999
0.011124163866 0.151702046394 -0.340817034245 0.000978 0.000978 0.999999
0.168281286955 0.049460649490 -0.340817034245 0.000978 0.000978 0.999999
0.126909077168 -0.739368140697 -0.340817034245 0.000978 0.000978 0.999999
0.248913347721 -0.664575815201 -0.340817034245 0.000978 0.000978 0.999999
0.128510773182 -0.457083255053 -0.340817034245 0.000978 0.000978 0.999999
0.514718770981 -0.270860731602 -0.340817034245 0.000978 0.000978 0.999999
0.238675728440 0.429438412189 -0.340817034245 0.000978 0.000978 0.999999
0.340495973825 -0.500345110893 -0.340817034245 0.000978 0.000978 0.999999
0.464510262012 -0.218436658382 -0.340817034245 0.000978 0.000978 0.999999
0.297302335501 0.387700736523 -0.340817034245 0.000978 0.000978 0.999999
0.090449154377 0.197425603867 -0.340817034245 0.000978 0.000978 0.999999
0.299950212240 -0.219932496548 -0.340817034245 0.000978 0.000978 0.999999
0.500623464584 -0.317680090666 -0.340817034245 0.000978 0.000978 0.999999
0.140621662140 0.702258169651 -0.340817034245 0.000978 0.000978 0.999999
0.335920184851 -0.055666983128 -0.340817034245 0.000978 0.000978 0.999999
0.094171702862 0.494996249676 -0.340817034245 0.000978 0.000978 0.999999
0.337109327316 -0.578150629997 -0.340817034245 0.000978 0.000978 0.999999
0.276536643505 -0.200253605843 -0.340817034245 0.000978 0.000978 0.999999
0.043097555637 -0.684550881386 -0.340817034245 0.000978 0.000978 0.999999
0.055722177029 -0.709011197090 -0.340817034245 0.000978 0.000978 0.999999
0.004721313715 0.891015231609 -0.340817034245 0.000978 0.000978 0.999999
0.502852141857 -0.118890404701 -0.340817034245 0.000978 0.000978 0.999999
0.394588589668 -0.209589958191 -0.340817034245 0.000978 0.000978 0.999999
0.283163934946 -0.430436193943 -0.340817034245 0.000978 0.000978 0.999999
0.316748112440 0.059681355953 -0.340817034245 0.000978 0.000978 0.999999
0.071161806583 -0.573969364166 -0.340817034245 0.000978 0.000978 0.999999
0.102785110474 -0.447657823563 -0.340817034245 0.000978 0.000978 0.999999
0.628753423691 -0.530490636826 -0.340817034245 0.000978 0.000978 0.999999
0.114643588662 0.413880407810 -0.340817034245 0.000978 0.000978 0.999999
0.451594948769 -0.224616646767 -0.340817034245 0.000978 0.000978 0.999999
0.139424368739 0.279736220837 -0.340817034245 0.000978 0.000978 0.999999
0.086492270231 -0.199827373028 -0.340817034245 0.000978 0.000978 0.999999
0.181768208742 0.044323265553 -0.340817034245 0.000978 0.000978 0.999999
0.346587061882 0.245924174786 -0.340817034245 0.000978 0.000978 0.999999
0.566505551338 -0.446490079165 -0.340817034245 0.000978 0.000978 0.999999
0.137159526348 -0.757938086987 -0.340817034245 0.000978 0.000978 0.999999
0.748039901257 -0.551948726177 -0.340817034245 0.000978 0.000978 0.999999
0.126266717911 -0.314034759998 -0.340817034245 0.000978 0.000978 0.999999
0.048983275890 -0.530994534492 -0.340817034245 0.000978 0.000978 0.999999
0.063666403294 -0.458459764719 -0.340817034245 0.000978 0.000978 0.999999
0.169714927673 -0.649227738380 -0.340817034245 0.000978 0.000978 0.999999
0.155134350061 0.605661094189 -0.340817034245 0.000978 0.000978 0.999999
0.634690701962 -0.406599938869 -0.340817034245 0.000978 0.000978 0.999999
0.419230580330 -0.763266444206 -0.340817034245 0.000978 0.000978 0.999999
0.034742392600 0.769101321697 -0.340817034245 0.000978 0.000978 0.999999
0.085580170155 -0.641393303871 -0.340817034245 0.000978 0.000978 0.999999
0.322447270155 0.323367893696 -0.340817034245 0.000978 0.000978 0.999999
0.501582384109 -0.591159343719 -0.340817034245 0.000978 0.000978 0.999999
0.346678912640 -0.711980760098 -0.340817034245 0.000978 0.000978 0.999999
0.086696535349 0.289330303669 -0.340817034245 0.000978 0.000978 0.999999
0.524456501007 -0.695751190186 -0.340817034245 0.000978 0.000978 0.999999
0.173675477505 -0.753097534180 -0.340817034245 0.000978 0.000978 0.999999
0.404402464628 -0.634954571724 -0.340817034245 0.000978 0.000978 0.999999
0.046013057232 -0.617759466171 -0.340817034245 0.000978 0.000978 0.999999
0.411610573530 0.091795682907 -0.340817034245 0.000978 0.000978 0.999999
0.171555399895 -0.374797016382 -0.340817034245 0.000978 0.000978 0.999999
0.178045302629 0.571507751942 -0.340817034245 0.000978 0.000978 0.999999
0.481169253588 -0.636018395424 -0.340817034245 0.000978 0.000978 0.999999
0.150357931852 0.286536872387 -0.340817034245 0.000978 0.000978 0.999999
0.371346592903 0.045285344124 -0.340817034245 0.000978 0.000978 0.999999
0.352654695511 -0.428804039955 -0.340817034245 0.000978 0.000978 0.999999
0.626075387001 0.911027431488 -0.340817034245 0.000978 0.000978 0.999999
0.677714407444 0.717305064201 -0.340817034245 0.000978 0.000978 0.999999
0.816857337952 0.352532744408 -0.340817034245 0.000978 0.000978 0.999999
0.748638868332 -0.035481095314 -0.340817034245 0.000978 0.000978 0.999999
0.720080256462 -0.120412707329 -0.340817034245 0.000978 0.000978 0.999999
0.587411642075 0.371238231659 -0.340817034245 0.000978 0.000978 0.999999
0.806170403957 0.150995135307 -0.340817034245 0.000978 0.000978 0.999999
0.779769539833 0.677681624889 -0.340817034245 0.000978 0.000978 0.999999
0.755408942699 0.402573764324 -0.340817034245 0.000978 0.000978 0.999999
0.732070565224 0.186661720276 -0.340817034245 0.000978 0.000978 0.999999
0.216545253992 1.019311666489 -0.340817034245 0.000978 0.000978 0.999999
0.691593229771 -0.035436034203 -0.340817034245 0.000978 0.000978 0.999999
0.679592072964 0.429804325104 -0.340817034245 0.000978 0.000978 0.999999
0.622292518616 0.282629132271 -0.340817034245 0.000978 0.000978 0.999999
0.774730443954 -0.014825105667 -0.340817034245 0.000978 0.000978 0.999999
0.404885441065 0.672374725342 -0.340817034245 0.000978 0.000978 0.999999
0.668886423111 0.654781699181 -0.340817034245 0.000978 0.000978 0.999999
0.705282509327 0.956835746765 -0.340817034245 0.000978 0.000978 0.999999
0.805333614349 -0.283025503159 -0.340817034245 0.000978 0.000978 0.999999
0.682987391949 1.023160696030 -0.340817034245 0.000978 0.000978 0.999999
0.639400243759 0.189310967922 -0.340817034245 0.000978 0.000978 0.999999
0.556911587715 0.872997462749 -0.340817034245 0.000978 0.000978 0.999999
0.543811738491 0.550302326679 -0.340817034245 0.000978 0.000978 0.999999
0.591603279114 0.779768824577 -0.340817034245 0.000978 0.000978 0.999999
0.454971343279 0.080987334251 -0.340817034245 0.000978 0.000978 0.999999
0.498616099358 0.869886279106 -0.340817034245 0.000978 0.000978 0.999999
0.400103807449 0.242643356323 -0.340817034245 0.000978 0.000978 0.999999
0.312226533890 0.611983776093 -0.340817034245 0.000978 0.000978 0.999999
0.378823786974 0.438182294369 -0.340817034245 0.000978 0.000978 0.999999
0.609665989876 1.003457307816 -0.340817034245 0.000978 0.000978 0.999999
0.697165787220 -0.247993826866 -0.340817034245 0.000978 0.000978 0.999999
0.711690902710 0.242573142052 -0.340817034245 0.000978 0.000978 0.999999
0.561385035515 0.115106403828 -0.340817034245 0.000978 0.000978 0.999999
0.725697040558 0.000441074371 -0.340817034245 0.000978 0.000978 0.999999
0.707813739777 -0.080630898476 -0.340817034245 0.000978 0.000978 0.999999
0.482026457787 0.321983993053 -0.340817034245 0.000978 0.000978 0.999999
0.806680798531 0.415536880493 -0.340817034245 0.000978 0.000978 0.999999
0.602662622929 -0.169120669365 -0.340817034245 0.000978 0.000978 0.999999
0.256120920181 0.727930307388 -0.340817034245 0.000978 0.000978 0.999999
0.834565639496 -0.657121062279 -0.340817034245 0.000978 0.000978 0.999999
0.717305660248 -0.325371623039 -0.340817034245 0.000978 0.000978 0.999999
0.712165951729 0.469552874565 -0.340817034245 0.000978 0.000978 0.999999
0.261702120304 0.527418613434 -0.340817034245 0.000978 0.000978 0.999999
0.807018876076 0.884283185005 -0.340817034245 0.000978 0.000978 0.999999
0.760618388653 0.233460664749 -0.340817034245 0.000978 0.000978 0.999999
0.812862515450 -0.525164008141 -0.340817034245 0.000978 0.000978 0.999999
0.288869023323 0.893901109695 -0.340817034245 0.000978 0.000978 0.999999
0.844680428505 -0.317940235138 -0.340817034245 0.000978 0.000978 0.999999
0.779224276543 -0.225080490112 -0.340817034245 0.000978 0.000978 0.999999
0.709183335304 0.199169576168 -0.340817034245 0.000978 0.000978 0.999999
0.651533484459 0.706012666225 -0.340817034245 0.000978 0.000978 0.999999
0.565781593323 0.689061880112 -0.340817034245 0.000978 0.000978 0.999999
0.056421142071 0.923947155476 -0.340817034245 0.000978 0.000978 0.999999
0.530106365681 0.632142722607 -0.340817034245 0.000978 0.000978 0.999999
0.347292900085 0.709626793861 -0.340817034245 0.000978 0.000978 0.999999
0.628498613834 0.164635956287 -0.340817034245 0.000978 0.000978 0.999999
0.623834252357 0.343585193157 -0.340817034245 0.000978 0.000978 0.999999
0.148067027330 0.868930459023 -0.340817034245 0.000978 0.000978 0.999999
0.343719631433 0.987339615822 -0.340817034245 0.000978 0.000978 0.999999
0.361484587193 0.866924047470 -0.340817034245 0.000978 0.000978 0.999999
0.702491402626 -0.184837341309 -0.340817034245 0.000978 0.000978 0.999999
0.253124594688 0.577013909817 -0.340817034245 0.000978 0.000978 0.999999
0.491479873657 0.017539143562 -0.340817034245 0.000978 0.000978 0.999999
0.411068975925 0.423442482948 -0.340817034245 0.000978 0.000978 0.999999
0.597117543221 0.659755945206 -0.340817034245 0.000978 0.000978 0.999999
0.367898464203 0.592678904533 -0.340817034245 0.000978 0.000978 0.999999
0.279268234968 0.532088577747 -0.340817034245 0.000978 0.000978 0.999999
0.427478551865 0.973776161671 -0.340817034245 0.000978 0.000978 0.999999
0.729096949100 0.480126321316 -0.340817034245 0.000978 0.000978 0.999999
0.465831220150 0.350900828838 -0.340817034245 0.000978 0.000978 0.999999
0.759145855904 -0.519688010216 -0.340817034245 0.000978 0.000978 0.999999
0.737117826939 0.587791919708 -0.340817034245 0.000978 0.000978 0.999999
0.794383525848 0.664934277534 -0.340817034245 0.000978 0.000978 0.999999
0.630408525467 1.096578240395 -0.193243220448 0.001291 -0.912475 0.409130
0.705793023109 1.170052886009 -0.029585212469 0.001291 -0.912475 0.409130
0.511047124863 1.100367307663 -0.184803619981 0.001291 -0.912475 0.409130
0.296412050724 1.061642885208 -0.271058559418 0.001291 -0.912475 0.409130
0.651228427887 1.050069928169 -0.296836256981 0.001291 -0.912475 0.409130
0.495125591755 1.164584636688 -0.041765443981 0.001291 -0.912475 0.409130
0.612858235836 1.120987415314 -0.138874351978 0.001291 -0.912475 0.409130
0.419273406267 1.073175787926 -0.245370164514 0.001291 -0.912475 0.409130
0.111158847809 1.038891792297 -0.321734696627 0.001291 -0.912475 0.409130
0.745855689049 1.181890249252 -0.003218613565 0.001291 -0.912475 0.409130
0.475621670485 1.155775308609 -0.061387240887 0.001291 -0.912475 0.409130
0.539207994938 1.068533182144 -0.255711227655 0.001291 -0.912475 0.409130
0.396519303322 1.079039335251 -0.232309669256 0.001291 -0.912475 0.409130
0.375998556614 1.067687749863 -0.257594138384 0.001291 -0.912475 0.409130
0.692474007607 1.187698721886 0.009719274938 0.001291 -0.912475 0.409130
0.777580559254 1.040564894676 -0.318007767200 0.001291 -0.912475 0.409130
0.324689477682 1.062828660011 -0.268417477608 0.001291 -0.912475 0.409130
0.450204521418 1.031997084618 -0.337091863155 0.001291 -0.912475 0.409130
0.710055291653 1.215740323067 0.072179444134 0.001291 -0.912475 0.409130
0.267858743668 1.059692978859 -0.275401979685 0.001291 -0.912475 0.409130
0.534590840340 1.070130228996 -0.252153754234 0.001291 -0.912475 0.409130
0.776278913021 1.068083286285 -0.256713122129 0.001291 -0.912475 0.409130
0.390437871218 1.238948225975 0.123872533441 -0.001291 -0.912475 0.409130
0.412583231926 1.196295261383 0.028867222369 -0.001291 -0.912475 0.409130
0.617931902409 1.260793566704 0.172531157732 -0.001291 -0.912475 0.409130
0.071239516139 1.205826997757 0.050098091364 -0.001291 -0.912475 0.409130
0.085214294493 1.085102200508 -0.218805208802 -0.001291 -0.912475 0.409130
0.514011502266 1.200990915298 0.039326295257 -0.001291 -0.912475 0.409130
0.247134089470 1.272958159447 0.199626684189 -0.001291 -0.912475 0.409130
0.152178391814 1.159275770187 -0.053590446711 -0.001291 -0.912475 0.409130
0.356105089188 1.141661643982 -0.092824064195 -0.001291 -0.912475 0.409130
0.223818972707 1.117022275925 -0.147706121206 -0.001291 -0.912475 0.409130
0.493766158819 1.246080160141 0.139758512378 -0.001291 -0.912475 0.409130
0.379250288010 1.195989727974 0.028186559677 -0.001291 -0.912475 0.409130
0.673117756844 1.225957751274 0.094937555492 -0.001291 -0.912475 0.409130
0.025146709755 1.307267546654 0.276047557592 -0.001291 -0.912475 0.409130
0.070049881935 1.081616759300 -0.226568594575 -0.001291 -0.912475 0.409130
0.526402354240 1.193640112877 0.022952992469 -0.001291 -0.912475 0.409130
0.629372894764 1.207380294800 0.053558170795 -0.001291 -0.912475 0.409130
0.290455549955 1.253003716469 0.155180007219 -0.001291 -0.912475 0.409130
0.238053619862 1.275474429131 0.205231562257 -0.001291 -0.912475 0.409130
0.062170695513 1.161339044571 -0.048994570971 -0.001291 -0.912475 0.409130
0.321467012167 1.265539050102 0.183101281524 -0.001291 -0.912475 0.409130
0.331688344479 1.124283075333 -0.131533324718 -0.001291 -0.912475 0.409130
0.669450521469 1.240791440010 0.127978235483 -0.001291 -0.912475 0.409130
0.095316112041 1.178746819496 -0.010220378637 -0.001291 -0.912475 0.409130
0.034116052091 1.234935283661 0.114934056997 -0.001291 -0.912475 0.409130
0.244329422712 1.138699531555 -0.099421843886 -0.001291 -0.912475 0.409130
0.416943639517 1.263007164001 0.177461862564 -0.001291 -0.912475 0.409130
0.392651170492 1.268528223038 0.189759463072 -0.001291 -0.912475 0.409130
0.655618786812 1.296896696091 0.252947568893 0.001291 -0.912475 0.409130
0.377677708864 1.292013645172 0.242070987821 0.001291 -0.912475 0.409130
0.446300178766 1.309413671494 0.280827909708 0.001291 -0.912475 0.409130
0.575141131878 1.279950380325 0.215201213956 0.001291 -0.912475 0.409130
0.605992197990 1.308639764786 0.279104232788 0.001291 -0.912475 0.409130
0.763065516949 1.270587086678 0.194345265627 0.001291 -0.912475 0.409130
0.098690986633 1.430176377296 0.284156322479 0.000978 0.000978 0.999999
0.188534796238 1.696320056915 0.284156322479 0.000978 0.000978 0.999999
0.436089038849 1.398632168770 0.284156322479 0.000978 0.000978 0.999999
0.036202490330 1.644265890121 0.284156322479 0.000978 0.000978 0.999999
0.388800263405 1.525673985481 0.284156322479 0.000978 0.000978 0.999999
0.638835608959 1.402859330177 0.284156322479 0.000978 0.000978 0.999999
0.584017813206 1.389734268188 0.284156322479 0.000978 0.000978 0.999999
0.371325761080 1.353194952011 0.284156322479 0.000978 0.000978 0.999999
0.011778980494 1.521196126938 0.284156322479 0.000978 0.000978 0.999999
0.074057579041 1.413511633873 0.284156322479 0.000978 0.000978 0.999999
0.133998543024 1.689714670181 0.284156322479 0.000978 0.000978 0.999999
0.202260315418 1.472862005234 0.284156322479 0.000978 0.000978 0.999999
0.501493096352 1.325497269630 0.284156322479 0.000978 0.000978 0.999999
0.682380080223 1.389010787010 0.284156322479 0.000978 0.000978 0.999999
0.139797478914 1.673379182816 0.284156322479 0.000978 0.000978 0.999999
0.304993271828 1.370006561279 0.284156322479 0.000978 0.000978 0.999999
0.274597167969 1.460231065750 0.284156322479 0.000978 0.000978 0.999999
0.054325923324 1.732044458389 0.284156322479 0.000978 0.000978 0.999999
0.778625786304 1.317778944969 0.284156322479 0.000978 0.000978 0.999999
0.315988570452 1.436539053917 0.284156322479 0.000978 0.000978 0.999999
0.346779286861 1.497729778290 0.284156322479 0.000978 0.000978 0.999999
0.616996824741 1.641238689423 0.284156322479 0.000978 0.000978 0.999999
0.583287239075 1.578037023544 0.284156322479 0.000978 0.000978 0.999999
0.617660641670 1.593733787537 0.284156322479 0.000978 0.000978 0.999999
0.517992019653 1.652327418327 0.284156322479 0.000978 0.000978 0.999999
0.059898905456 1.796210289001 0.284156322479 0.000978 0.000978 0.999999
0.445920825005 1.727966308594 0.284156322479 0.000978 0.000978 0.999999
0.239503964782 1.791337609291 0.284156322479 0.000978 0.000978 0.999999
0.642591357231 1.752875924110 0.284156322479 0.000978 0.000978 0.999999
0.643392920494 1.521306753159 0.284156322479 0.000978 0.000978 0.999999
0.624333679676 1.639829874039 0.284156322479 0.000978 0.000978 0.999999
0.578528881073 1.589553952217 0.284156322479 0.000978 0.000978 0.999999
0.462317019701 1.705729484558 0.284156322479 0.000978 0.000978 0.999999
0.497495383024 1.602981209755 0.284156322479 0.000978 0.000978 0.999999
0.263251990080 1.769087791443 0.284156322479 0.000978 0.000978 0.999999
0.291804105043 1.687841534615 0.284156322479 0.000978 0.000978 0.999999
0.499049842358 1.642923593521 0.284156322479 0.000978 0.000978 0.999999
0.754141330719 1.474297523499 0.284156322479 0.000978 0.000978 0.999999
0.761565506458 1.469827413559 0.284156322479 0.000978 0.000978 0.999999
0.717208743095 1.766452312469 0.284156322479 0.000978 0.000978 0.999999
0.398768663406 -0.830745041370 -0.232553809881 0.001323 0.879960 0.475046
0.375103533268 -0.774173855782 -0.337762564421 0.001323 0.879960 0.475046
0.458999156952 -0.821892261505 -0.249017864466 0.001323 0.879960 0.475046
0.579489052296 -0.774049222469 -0.337994366884 0.001323 0.879960 0.475046
0.107735380530 -0.973661363125 0.033236131072 0.001323 0.879960 0.475046
0.011231493205 -1.000573396683 0.083285786211 0.001323 0.879960 0.475046
0.058810323477 -0.993645846844 0.070402458310 0.001323 0.879960 0.475046
0.332726567984 -0.802580833435 -0.284932464361 0.001323 0.879960 0.475046
0.660010755062 -0.776342213154 -0.333729922771 0.001323 0.879960 0.475046
0.291221290827 -0.809649527073 -0.271786391735 0.001323 0.879960 0.475046
0.044464163482 -0.978887975216 0.042956374586 0.001323 0.879960 0.475046
0.047207105905 -0.915002465248 -0.075855299830 0.001323 0.879960 0.475046
0.221821755171 -0.953251063824 -0.004722110927 0.001323 0.879960 0.475046
0.556462287903 -0.852670609951 -0.191777586937 0.001323 0.879960 0.475046
0.598290443420 -0.790686488152 -0.307052999735 0.001323 0.879960 0.475046
0.325520724058 -0.868925571442 -0.161547169089 0.001323 0.879960 0.475046
0.008928226307 -0.908554017544 -0.087847858667 0.001323 0.879960 0.475046
0.229941427708 -0.913274645805 -0.079068668187 0.001323 0.879960 0.475046
0.390514045954 -0.884650409222 -0.132302761078 0.001323 0.879960 0.475046
0.547465264797 -0.811752736568 -0.267874926329 0.001323 0.879960 0.475046
0.262983500957 -0.772922873497 -0.340089142323 0.001323 0.879960 0.475046
0.322412878275 -0.837783992290 -0.219463020563 0.001323 0.879960 0.475046
0.230302244425 -0.937754213810 -0.033542543650 0.001323 0.879960 0.475046
0.080357663333 -0.786327004433 -0.315160572529 0.001323 0.879960 0.475046
0.139005467296 -0.875248432159 -0.149788290262 0.001323 0.879960 0.475046
0.611936390400 -0.953425288200 -0.004398137331 0.001323 0.879960 0.475046
0.236451596022 -1.014902830124 0.109935373068 0.001323 0.879960 0.475046
0.226029962301 -0.992956340313 0.069120094180 0.001323 0.879960 0.475046
0.506240308285 -1.025674700737 0.129968285561 0.001323 0.879960 0.475046
0.790631771088 -0.874936521053 -0.150368332863 0.001323 0.879960 0.475046
0.344283252954 -1.037033677101 0.151093378663 0.001323 0.879960 0.475046
0.679689168930 -1.000538945198 0.083221822977 0.001323 0.879960 0.475046
0.411696195602 -1.039463996887 0.155613020062 0.001323 0.879960 0.475046
0.322715193033 -1.019096732140 0.117734968662 0.001323 0.879960 0.475046
0.822434127331 -0.889345467091 -0.123571112752 0.001323 0.879960 0.475046
0.400802165270 -0.924175560474 -0.058795515448 0.001323 0.879960 0.475046
0.615487396717 -0.914701521397 -0.076414972544 0.001323 0.879960 0.475046
0.734821200371 -1.025804758072 0.130210191011 0.001323 0.879960 0.475046
0.793003737926 -0.877975940704 -0.144715726376 0.001323 0.879960 0.475046
0.657718718052 -1.011034488678 0.102741062641 0.001323 0.879960 0.475046
0.700706660748 -1.040547251701 0.157627761364 0.001323 0.879960 0.475046
0.270021498203 -1.026631116867 0.131747171283 0.001323 0.879960 0.475046
0.351522684097 -0.937600970268 -0.033827625215 0.001323 0.879960 0.475046
0.219047099352 -0.977361381054 0.040117178112 0.001323 0.879960 0.475046
0.646852195263 -0.943523287773 -0.022813528776 0.001323 0.879960 0.475046
0.498496443033 -0.977388262749 0.040167152882 0.001323 0.879960 0.475046
0.645272314548 -0.875313043594 -0.149668067694 0.001323 0.879960 0.475046
0.776707172394 -0.938855886459 -0.031493782997 0.001323 0.879960 0.475046
0.435323864222 -0.941220462322 -0.027096167207 0.001323 0.879960 0.475046
0.763363599777 -0.673117995262 0.164476677775 0.000978 0.000978 -0.999999
0.697737097740 -0.886240065098 0.164476677775 0.000978 0.000978 -0.999999
0.331048518419 -0.900793612003 0.164476677775 0.000978 0.000978 -0.999999
0.754936218262 -0.617743730545 0.164476677775 0.000978 0.000978 -0.999999
0.341358304024 -1.022774338722 0.164476677775 0.000978 0.000978 -0.999999
0.248351797462 -1.031852245331 0.164476677775 0.000978 0.000978 -0.999999
0.298909962177 -0.894508183002 0.164476677775 0.000978 0.000978 -0.999999
0.622206687927 -0.937545418739 0.164476677775 0.000978 0.000978 -0.999999
0.482370942831 -0.853678226471 0.164476677775 0.000978 0.000978 -0.999999
0.593483567238 -0.944101631641 0.164476677775 0.000978 0.000978 -0.999999
0.660589277744 -0.775238275528 0.164476677775 0.000978 0.000978 -0.999999
0.479599922895 -0.923169374466 0.164476677775 0.000978 0.000978 -0.999999
0.493541002274 -0.818346500397 0.164476677775 0.000978 0.000978 -0.999999
0.726783335209 -0.872086882591 0.164476677775 0.000978 0.000978 -0.999999
0.426491290331 -0.872694909573 0.164476677775 0.000978 0.000978 -0.999999
0.490118294954 -0.855682134628 0.164476677775 0.000978 0.000978 -0.999999
0.524120092392 -0.976525127888 0.164476677775 0.000978 0.000978 -0.999999
0.580719828606 -0.768438100815 0.164476677775 0.000978 0.000978 -0.999999
0.098502814770 -1.028879761696 0.164476677775 0.000978 0.000978 -0.999999
0.530777215958 -0.684821963310 0.164476677775 0.000978 0.000978 -0.999999
0.013866350055 -0.984840631485 0.164476677775 0.000978 0.000978 -0.999999
0.176147609949 -0.668993294239 0.164476677775 0.000978 0.000978 -0.999999
0.055566139519 -0.993209481239 0.164476677775 0.000978 0.000978 -0.999999
0.173282116652 -0.848569512367 0.164476677775 0.000978 0.000978 -0.999999
0.361210793257 -0.810670375824 0.164476677775 0.000978 0.000978 -0.999999
0.191083908081 -0.879735350609 0.164476677775 0.000978 0.000978 -0.999999
0.149912402034 -0.842478632927 0.164476677775 0.000978 0.000978 -0.999999
0.378902852535 -0.680969715118 0.164476677775 0.000978 0.000978 -0.999999
0.132362008095 -0.604033410549 0.164476677775 0.000978 0.000978 -0.999999
0.164641320705 -0.649276733398 0.164476677775 0.000978 0.000978 -0.999999
0.654558897018 -0.630571126938 0.164476677775 0.000978 0.000978 -0.999999
0.314948320389 -0.864059448242 0.164476677775 0.000978 0.000978 -0.999999
0.188197374344 -0.598282754421 0.164476677775 0.000978 0.000978 -0.999999
0.530521273613 -0.700824439526 0.164476677775 0.000978 0.000978 -0.999999
0.567887663841 -0.601326048374 0.164476677775 0.000978 0.000978 -0.999999
0.483056843281 -0.692478299141 0.164476677775 0.000978 0.000978 -0.999999
0.016662120819 -0.822995603085 0.164476677775 0.000978 0.000978 -0.999999
0.030787410215 -0.566015839577 0.241267934442 0.001244 0.944109 -0.329630
0.302917391062 -0.576488614082 0.211204752326 0.001244 0.944109 -0.329630
0.151383802295 -0.574322640896 0.217422336340 0.001244 0.944109 -0.329630
0.342813998461 -0.577336192131 0.208771675825 0.001244 0.944109 -0.329630
0.155281350017 -0.563182175159 0.249402225018 0.001244 0.944109 -0.329630
0.693154394627 -0.567709863186 0.236404865980 0.001244 0.944109 -0.329630
0.405053526163 -0.569530606270 0.231178462505 0.001244 0.944109 -0.329630
0.755033016205 -0.565778791904 0.241948366165 0.001244 0.944109 -0.329630
0.652439057827 -0.678173542023 0.271234571934 0.001077 0.108776 0.994066
0.043131310493 -0.563845634460 0.258730709553 0.001077 0.108776 0.994066
0.661433100700 -0.717698216438 0.275557309389 0.001077 0.108776 0.994066
0.730454146862 -0.607043921947 0.263455241919 0.001077 0.108776 0.994066
0.369767427444 -0.653070271015 0.268489062786 0.001077 0.108776 0.994066
0.494357347488 -0.601039171219 0.262798517942 0.001077 0.108776 0.994066
0.129988595843 -0.565846800804 0.258949577808 0.001077 0.108776 0.994066
0.139625728130 -0.734815597534 0.277429401875 0.001077 0.108776 0.994066
0.180548369884 -0.630514502525 0.266022175550 0.001077 0.108776 0.994066
0.087295174599 -0.655883908272 0.268796771765 0.001077 0.108776 0.994066
0.094364717603 -0.646506130695 0.267771154642 0.001077 0.108776 0.994066
0.475448727608 -0.733618676662 0.277298510075 0.001077 0.108776 0.994066
0.013978540897 -0.628014326096 0.265748739243 0.001077 0.108776 0.994066
0.330505639315 -0.749699413776 0.279057234526 0.001077 0.108776 0.994066
0.218890309334 -0.736523747444 0.277616232634 0.001077 0.108776 0.994066
0.495342046022 -0.945407986641 0.283515632153 0.000995 0.018902 0.999821
0.240895420313 -0.790627300739 0.280583709478 0.000995 0.018902 0.999821
0.136646211147 -0.787952721119 0.280533045530 0.000995 0.018902 0.999821
0.497520387173 -0.899646580219 0.282648801804 0.000995 0.018902 0.999821
0.634976506233 -0.790520429611 0.280581682920 0.000995 0.018902 0.999821
0.499348878860 -0.853746950626 0.281779348850 0.000995 0.018902 0.999821
0.340487569571 -0.805135905743 0.280858516693 0.000995 0.018902 0.999821
0.562056303024 -0.796123206615 0.280687808990 0.000995 0.018902 0.999821
0.012084573507 -0.940628528595 0.283425092697 0.000995 0.018902 0.999821
0.043908491731 -0.839865744114 0.281516402960 0.000995 0.018902 0.999821
0.392267763615 -0.950791299343 0.283617585897 0.000995 0.018902 0.999821
0.043011210859 -0.790677249432 0.280584633350 0.000995 0.018902 0.999821
0.313780546188 -0.961829841137 0.283826678991 0.000995 0.018902 0.999821
0.058101903647 -0.781627714634 0.280413240194 0.000995 0.018902 0.999821
0.433119505644 -1.018352866173 0.277599394321 0.001096 -0.130369 0.991465
0.254306852818 -1.021439671516 0.277194380760 0.001096 -0.130369 0.991465
0.099205225706 -1.006741523743 0.279122889042 0.001096 -0.130369 0.991465
0.351385474205 -1.097044944763 0.267274498940 0.001096 -0.130369 0.991465
0.476294249296 -1.059395194054 0.272214382887 0.001096 -0.130369 0.991465
0.466052651405 -1.088463902473 0.268400371075 0.001096 -0.130369 0.991465
0.025721877813 -1.028036355972 0.276328861713 0.001096 -0.130369 0.991465
0.189381420612 -1.193124771118 0.254668205976 0.001096 -0.130369 0.991465
0.078589186072 -1.035177588463 0.275391876698 0.001096 -0.130369 0.991465
0.150139644742 -1.126739501953 0.263378381729 0.001096 -0.130369 0.991465
0.289497375488 -1.098616242409 0.267068326473 0.001096 -0.130369 0.991465
0.014324575663 -1.191752314568 0.254848301411 0.001096 -0.130369 0.991465
0.721519172192 -0.993931829929 0.280803591013 0.001096 -0.130369 0.991465
0.547343969345 -1.075353980064 0.270120471716 0.001096 -0.130369 0.991465
0.685351192951 -1.018360972404 0.277598321438 0.001096 -0.130369 0.991465
0.590983092785 -0.944598972797 0.283500283957 0.000995 0.018902 0.999821
0.713810205460 -0.821962118149 0.281177252531 0.000995 0.018902 0.999821
0.750121355057 -0.906450450420 0.282412469387 0.780785 -0.023745 0.624349
0.767900526524 -0.945645272732 0.258674830198 0.780785 -0.023745 0.624349
0.780232667923 -0.690541863441 0.242671757936 0.831707 0.017813 0.554928
0.785197913647 -0.606394886971 0.204668700695 0.964755 0.098392 0.244064
0.811301052570 -0.851724326611 0.200996145606 0.964755 0.098392 0.244064
0.807180881500 -0.761662244797 0.180732086301 0.964755 0.098392 0.244064
0.696139693260 0.659201085567 -0.233704686165 0.999999 0.000978 0.000978
0.696139693260 0.718013286591 -0.318607360125 0.999999 0.000978 0.000978
0.696139693260 0.886339545250 -0.305184602737 0.999999 0.000978 0.000978
0.696139693260 0.573648810387 -0.187332063913 0.999999 0.000978 0.000978
0.696139693260 0.933193027973 -0.235997095704 0.999999 0.000978 0.000978
0.696139693260 0.871068060398 -0.237077131867 0.999999 0.000978 0.000978
0.696139693260 0.682350516319 -0.197644785047 0.999999 0.000978 0.000978
0.696139693260 1.077867746353 0.006823956966 0.999999 0.000978 0.000978
0.696139693260 1.014402270317 -0.312949359417 0.999999 0.000978 0.000978
0.696139693260 1.108208894730 -0.039237052202 0.999999 0.000978 0.000978
0.696139693260 1.150051474571 0.076444968581 0.999999 0.000978 0.000978
0.696139693260 1.234724998474 0.149594187737 0.999999 0.000978 0.000978
0.696139693260 1.190353035927 0.040274098516 0.999999 0.000978 0.000978
0.594267070293 1.185830473900 0.028497308493 0.001284 0.917945 -0.396706
0.160965621471 1.268215060234 0.218821227551 0.001284 0.917945 -0.396706
0.384120315313 1.228739261627 0.127624541521 0.001284 0.917945 -0.396706
0.448347747326 1.210085630417 0.084530979395 0.001284 0.917945 -0.396706
0.690437614918 1.054949283600 -0.273863077164 0.001284 0.917945 -0.396706
0.402530729771 1.205309510231 0.073497116566 0.001284 0.917945 -0.396706
0.245610952377 1.246341109276 0.168287932873 0.001284 0.917945 -0.396706
0.416821271181 1.247177958488 0.170221403241 0.001284 0.917945 -0.396706
0.507678747177 1.202832341194 0.067774549127 0.001284 0.917945 -0.396706
0.552112579346 1.131476521492 -0.097070641816 0.001284 0.917945 -0.396706
0.384726047516 1.224347591400 0.117479100823 0.001284 0.917945 -0.396706
0.211356729269 1.234434008598 0.140780270100 0.001284 0.917945 -0.396706
0.667491495609 1.130608797073 -0.099075466394 0.001284 0.917945 -0.396706
0.467421829700 1.157375335693 -0.037239715457 0.001284 0.917945 -0.396706
0.458709508181 1.148732066154 -0.057207100093 0.001284 0.917945 -0.396706
0.437450736761 1.261122107506 0.202434912324 0.001284 0.917945 -0.396706
0.534092485905 1.122193574905 -0.118516154587 0.001284 0.917945 -0.396706
0.123866677284 1.240171432495 0.154034689069 0.001284 0.917945 -0.396706
0.285180330276 1.186901569366 0.030971653759 0.001284 0.917945 -0.396706
0.628920733929 1.121074199677 -0.121102079749 0.001284 0.917945 -0.396706
0.397070437670 1.232193112373 0.135603412986 0.001284 0.917945 -0.396706
0.590796172619 1.178389906883 0.011308014393 0.001284 0.917945 -0.396706
0.422425001860 1.079083442688 -0.218108534813 0.001284 0.917945 -0.396706
0.020755713806 1.123426675797 -0.115667164326 0.001284 0.917945 -0.396706
0.440052509308 1.103020668030 -0.162808820605 0.001284 0.917945 -0.396706
0.458626449108 1.070606470108 -0.237691998482 0.001284 0.917945 -0.396706
0.242841407657 1.128666400909 -0.103562638164 0.001284 0.917945 -0.396706
0.012923194095 1.055371165276 -0.272888481617 0.001284 0.917945 -0.396706
0.216565698385 1.065938234329 -0.248476400971 0.001284 0.917945 -0.396706
0.190623149276 1.031252741814 -0.328606486320 0.001284 0.917945 -0.396706
0.009389729239 1.067200779915 -0.245559662580 0.001284 0.917945 -0.396706
0.646607041359 1.037776589394 -0.313535124063 0.001284 0.917945 -0.396706
0.264732062817 1.115091800690 -0.134922519326 0.001284 0.917945 -0.396706
0.079183198512 1.115868926048 -0.133127272129 0.001284 0.917945 -0.396706
0.162114083767 1.050050139427 -0.285180747509 0.001284 0.917945 -0.396706
0.045956891030 1.124855279922 -0.112366944551 0.001284 0.917945 -0.396706
0.536044299603 1.043835878372 -0.299537122250 0.001284 0.917945 -0.396706
0.110091224313 1.156543254852 -0.039161697030 0.001284 0.917945 -0.396706
0.211295276880 1.199272513390 0.059550866485 0.001284 0.917945 -0.396706
0.097741872072 1.055614471436 -0.272326171398 0.001284 0.917945 -0.396706
0.108376376331 1.200954675674 0.063436970115 0.001284 0.917945 -0.396706
0.284622937441 1.165893316269 -0.017561497167 0.001284 0.917945 -0.396706
0.025183474645 1.152082681656 -0.049466699362 0.001284 0.917945 -0.396706
0.235562711954 1.101747274399 -0.165750741959 0.001284 0.917945 -0.396706
0.297030270100 0.775641858578 -0.340817034245 0.000978 0.000978 -0.999999
0.124448969960 0.651554226875 -0.340817034245 0.000978 0.000978 -0.999999
0.432244271040 0.846900701523 -0.340817034245 0.000978 0.000978 -0.999999
0.197607874870 0.991555511951 -0.340817034245 0.000978 0.000978 -0.999999
0.303195327520 0.895694851875 -0.340817034245 0.000978 0.000978 -0.999999
0.626648664474 0.976952075958 -0.340817034245 0.000978 0.000978 -0.999999
0.082860738039 0.837907195091 -0.340817034245 0.000978 0.000978 -0.999999
0.204211741686 0.693725228310 -0.340817034245 0.000978 0.000978 -0.999999
0.299044579268 0.782672822475 -0.340817034245 0.000978 0.000978 -0.999999
0.281147807837 0.795535087585 -0.340817034245 0.000978 0.000978 -0.999999
0.148097261786 0.714612960815 -0.340817034245 0.000978 0.000978 -0.999999
0.229949206114 0.913880288601 -0.340817034245 0.000978 0.000978 -0.999999
0.000825732946 0.847083628178 -0.340817034245 0.000978 0.000978 -0.999999
0.438910305500 0.997202754021 -0.340817034245 0.000978 0.000978 -0.999999
0.238782152534 0.766988039017 -0.340817034245 0.000978 0.000978 -0.999999
0.606668770313 1.012866616249 -0.340817034245 0.000978 0.000978 -0.999999
0.090278178453 0.680859863758 -0.340817034245 0.000978 0.000978 -0.999999
0.319203466177 0.980299472809 -0.340817034245 0.000978 0.000978 -0.999999
0.465508669615 0.580371379852 -0.340817034245 0.000978 0.000978 -0.999999
0.649662494659 0.600915849209 -0.340817034245 0.000978 0.000978 -0.999999
0.594448745251 0.900688529015 -0.340817034245 0.000978 0.000978 -0.999999
0.627258062363 0.859593868256 -0.340817034245 0.000978 0.000978 -0.999999
0.620516836643 0.549508929253 -0.340817034245 0.000978 0.000978 -0.999999
0.344527870417 0.761950254440 -0.340817034245 0.000978 0.000978 -0.999999
0.286789059639 0.671107828617 -0.340817034245 0.000978 0.000978 -0.999999
0.550635159016 0.551689386368 -0.340817034245 0.000978 0.000978 -0.999999
0.535545527935 0.728568375111 -0.340817034245 0.000978 0.000978 -0.999999
0.671656072140 0.653419315815 -0.340817034245 0.000978 0.000978 -0.999999
0.218630403280 0.635628163815 -0.340817034245 0.000978 0.000978 -0.999999
0.598215579987 0.654547870159 -0.340817034245 0.000978 0.000978 -0.999999
0.388715833426 0.648582100868 -0.340817034245 0.000978 0.000978 -0.999999
0.472987562418 0.698807597160 -0.340817034245 0.000978 0.000978 -0.999999
0.298322916031 0.560073673725 -0.340817034245 0.000978 0.000978 -0.999999
0.631515204906 0.530289769173 -0.340817034245 0.000978 0.000978 -0.999999
0.554556846619 0.799302339554 -0.340817034245 0.000978 0.000978 -0.999999
0.307731270790 0.627777397633 -0.340817034245 0.000978 0.000978 -0.999999
0.624377489090 0.523163855076 -0.268384993076 0.001048 -0.997066 0.076536
0.514539420605 0.520667850971 -0.300867289305 0.001048 -0.997066 0.076536
0.648552894592 0.530326485634 -0.175172507763 0.001048 -0.997066 0.076536
0.518309950829 0.519387185574 -0.317533731461 0.001048 -0.997066 0.076536
0.496732711792 0.524874746799 -0.246119961143 0.001048 -0.997066 0.076536
0.452740967274 0.518460333347 -0.329595804214 0.001048 -0.997066 0.076536
0.110522262752 0.526430428028 -0.225875198841 0.001048 -0.997066 0.076536
0.486710697412 0.529848337173 -0.181395158172 0.001048 -0.997066 0.076536
0.009869622067 0.522350251675 -0.278972804546 0.001048 -0.997066 0.076536
