-0.806784272194 -1.040145874023 -0.408559471369 0.001061 0.995927 0.090153
-0.670269191265 -1.078242182732 -0.569215774536 0.001339 0.858436 -0.512919
-0.805903375149 -1.569720864296 -0.626304626465 -0.001378 -0.753685 -0.657235
-0.781067371368 -1.557087540627 -0.640778422356 -0.001378 -0.753685 -0.657235
-0.712660431862 -1.613330125809 -0.564318716526 -0.001329 -0.873026 -0.487672
-0.675678312778 -1.636815071106 -0.506351768970 -0.001221 -0.955752 -0.294171
-0.695077478886 -1.647902369499 -0.395773917437 -0.001087 -0.992690 0.120688
-0.781326889992 -1.646139025688 -0.381265044212 -0.001087 -0.992690 0.120688
-0.743967592716 -1.288205146790 -0.530670046806 -0.829357 -0.214568 0.515875
-0.793148875237 -1.210019946098 -0.577218770981 -0.829357 -0.214568 0.515875
-0.824379026890 -1.263793945312 -0.649589478970 -0.829357 -0.214568 0.515875
-0.787882149220 -1.144513130188 -0.427935630083 -0.829357 -0.515875 0.214568
-0.708559393883 -1.275353312492 -0.436436831951 -0.829357 -0.515875 0.214568
-0.764153778553 -1.218751788139 -0.515194058418 -0.829357 -0.515875 0.214568
-0.729518413544 -1.248000860214 -0.392947733402 -0.829357 -0.515875 -0.214568
-0.795599102974 -1.172396898270 -0.319431126118 -0.829357 -0.515875 -0.214568
-0.780242383480 -1.180431365967 -0.359530448914 -0.829357 -0.515875 -0.214568
-0.795676946640 -1.216001629829 -0.260810285807 -0.829357 -0.214568 -0.515875
-0.783040642738 -1.318144083023 -0.238803356886 -0.829357 -0.214568 -0.515875
-0.701106786728 -1.318331360817 -0.370193034410 -0.829357 -0.214568 -0.515875
-0.806282579899 -1.459692955017 -0.238518014550 -0.829357 0.214568 -0.515875
-0.828276872635 -1.494599699974 -0.217697635293 -0.829357 0.214568 -0.515875
-0.780529201031 -1.451440930367 -0.276417136192 -0.829357 0.214568 -0.515875
-0.789478659630 -1.542820811272 -0.407667040825 -0.829357 0.515875 -0.214568
-0.731903493404 -1.436842203140 -0.374746620655 -0.829357 0.515875 -0.214568
-0.726217269897 -1.433207035065 -0.387992084026 -0.829357 0.515875 -0.214568
-0.812722980976 -1.543623805046 -0.524984657764 -0.829357 0.515875 0.214568
-0.823320031166 -1.581111311913 -0.475503295660 -0.829357 0.515875 0.214568
-0.775828599930 -1.500855088234 -0.485365033150 -0.829357 0.515875 0.214568
-0.715410470963 -1.365754604340 -0.499180793762 -0.829357 0.214568 0.515875
-0.689979970455 -1.362248778343 -0.459832608700 -0.829357 0.214568 0.515875
-0.683752834797 -1.367530465126 -0.447652548552 -0.829357 0.214568 0.515875
-0.766492247581 -1.341774582863 -0.331236630678 -0.999680 -0.003014 -0.025118
-0.801662504673 -1.309722542763 -0.427112519741 -0.999999 0.000978 0.000978
-0.775699853897 -1.267722725868 -0.410376906395 0.001119 0.987835 0.155503
-0.788670420647 -1.286363959312 -0.370173454285 0.001384 0.707106 0.707106
-0.754308223724 -1.228946805000 -0.348374009132 0.999999 -0.000979 -0.000979
-0.754315614700 -1.233905434608 -0.484875679016 0.999999 -0.000979 0.000979
-0.759619235992 -1.241191506386 -0.524155795574 0.001384 0.707106 -0.707106
-0.754398584366 -1.375485420227 -0.499216705561 0.999999 0.000979 0.000979
-0.754374802113 -1.450026273727 -0.416115850210 0.999999 0.000978 0.000978
-0.766537725925 -1.348502159119 -0.329915851355 -0.999672 0.005023 -0.025117
-0.801671624184 -1.367119669914 -0.418129503727 -0.999999 0.000978 0.000978
-0.766292333603 -1.358030915260 -0.501530826092 -0.999672 0.005023 0.025117
-0.766870498657 -1.267391085625 -0.493233561516 -0.999705 -0.017184 0.017184
-0.767508864403 -1.240934371948 -0.340194821358 -0.999705 -0.017184 -0.017184
-0.758394300938 -1.258036732674 -0.540654957294 0.001313 0.452981 -0.891519
-0.767092704773 -1.396033644676 -0.521239638329 -0.999669 0.011096 0.023201
-0.766866624355 -1.425001621246 -0.486638098955 -0.999705 0.017184 0.017184
-0.767688333988 -1.464076042175 -0.358580410480 -0.999669 0.023201 -0.011096
-0.767528057098 -1.406998991966 -0.307967156172 -0.999669 0.011096 -0.023201
-0.638335943222 1.193495392799 -0.557775497437 0.999984 -0.002950 -0.004916
-0.638685464859 1.040566802025 -0.464284688234 0.999987 -0.004916 -0.000983
-0.638667106628 1.080328941345 -0.538578093052 0.999984 -0.004916 -0.002950
-0.637770056725 1.205942273140 -0.410178899765 0.999987 -0.004916 0.000983
-0.638065993786 1.172679543495 -0.362280845642 0.999984 -0.004916 0.002950
-0.638452827930 1.119470953941 -0.316547989845 0.999984 -0.004916 0.002950
-0.637783825397 1.227413177490 -0.383223414421 0.999984 -0.002950 0.004916
-0.637746512890 1.239405512810 -0.386632204056 0.999987 -0.000983 0.004916
-0.638479053974 1.376554727554 -0.306129932404 0.999991 0.002950 0.002950
-0.638624191284 1.416678309441 -0.312106549740 0.999984 0.004916 0.002950
-0.638524353504 1.407755970955 -0.508392333984 0.999984 0.004916 -0.002950
-0.638281822205 1.331581115723 -0.528192102909 0.999984 0.002950 -0.004916
-0.830033123493 1.292317509651 -0.219053670764 -0.992514 -0.027786 -0.118924
-0.827293872833 1.242391943932 -0.397628098726 -0.999999 0.000978 -0.000978
-0.827082335949 1.273440599442 -0.471048653126 -0.951125 -0.303387 0.057605
-0.829731404781 1.404325485229 -0.551093041897 -0.991991 -0.085812 0.092677
-0.830732524395 1.118593454361 -0.488207727671 -0.998609 -0.046957 -0.024000
-0.830740392208 1.081164121628 -0.562581717968 -0.992193 0.094766 0.081065
-0.830432236195 1.032173037529 -0.447301119566 -0.992178 0.124435 0.009911
-0.831062674522 1.251196384430 -0.287678122520 -0.998623 0.001028 0.052451
-0.828052580357 1.081278562546 -0.318278908730 -0.998311 -0.049442 0.030507
-0.820355474949 1.111582756042 -0.560132861137 -0.507876 0.612488 0.605739
-0.826142668724 1.128498196602 -0.264812231064 -0.852726 0.300690 -0.427134
-0.813051044941 1.385158538818 -0.475143253803 -0.320848 0.478901 0.817135
-0.823270261288 1.392991185188 -0.371203601360 -0.328823 0.457835 -0.825992
-0.621564924717 1.247116327286 -0.688067734241 0.927487 0.006379 0.373801
-0.677027285099 1.220204591751 -0.725581705570 -0.000991 -0.014865 -0.999889
-0.623907208443 0.983523845673 -0.451208293438 0.928075 0.370970 0.032541
-0.650332152843 1.297198891640 -0.718840301037 0.458669 0.171451 -0.871910
-0.659802258015 1.302955985069 -0.719840824604 0.001147 0.193909 -0.981019
-0.749302566051 1.297515392303 -0.720913410187 0.001147 0.193909 -0.981019
-0.835818052292 1.247379899025 -0.663107931614 -0.975822 0.003506 0.218537
-0.840672850609 1.151334166527 -0.669185519218 -0.975587 0.092736 0.199074
-0.833069324493 1.131156802177 -0.693569600582 -0.926638 -0.157459 -0.341393
-0.654240131378 1.113141775131 -0.696899950504 0.459764 -0.373258 -0.805789
-0.621997177601 0.988449752331 -0.344452083111 0.928300 0.351360 -0.121677
-0.696946799755 0.981144487858 -0.265862792730 -0.001339 -0.858436 0.512919
-0.756932616234 1.001409530640 -0.234120979905 -0.001380 -0.732842 0.680398
-0.788175821304 1.073460340500 -0.168519169092 -0.001361 -0.575560 0.817758
-0.725453197956 1.088880062103 -0.157665401697 -0.001361 -0.575560 0.817758
-0.632438123226 1.323547720909 -0.195395871997 0.927905 -0.157201 -0.338052
-0.633058428764 1.475100159645 -0.476116210222 0.928300 -0.351360 0.121677
-0.637812316418 1.353819131851 -0.619501709938 0.928512 -0.213402 0.303851
-0.734072744846 1.382826685905 -0.692582368851 0.001282 0.393609 -0.919277
-0.840729713440 1.326883554459 -0.672006607056 -0.975866 -0.085126 0.201095
-0.833677589893 1.279349803925 -0.192127212882 -0.975581 -0.049565 -0.213975
-0.837547540665 1.181060075760 -0.179832383990 -0.975632 0.042105 -0.215337
-0.751972317696 1.056195735931 -0.662170827389 -0.001367 -0.600218 -0.799835
-0.698840260506 1.070040702820 -0.672562956810 -0.001367 -0.600218 -0.799835
-0.817126333714 0.967014789581 -0.295810788870 -0.411863 -0.862003 0.295500
-0.840291917324 0.998615384102 -0.291867733002 -0.926493 -0.322933 0.193196
-0.834493339062 1.275792002678 -0.131987020373 -0.925874 0.006403 0.377777
-0.668141186237 1.235247135162 -0.117145940661 0.000991 0.014865 0.999889
-0.815291464329 1.151259660721 -0.131919085979 -0.413373 -0.356790 0.837749
-0.625329554081 1.315829873085 -0.151532173157 0.841077 0.120569 0.527307
-0.625667214394 1.464443802834 -0.249749585986 0.841760 0.405989 0.355828
-0.625009775162 1.506993055344 -0.511028468609 0.841726 0.510995 -0.174304
-0.642827033997 1.389453887939 -0.683015465736 0.458537 0.511509 -0.726707
-0.841327965260 1.485325574875 -0.295827805996 -0.925815 0.330146 0.184039
-0.648617565632 1.521980047226 -0.305061846972 0.458942 0.848812 0.262472
-0.638129651546 1.534284591675 -0.363412678242 0.458942 0.848812 0.262472
-0.635292232037 1.534875392914 -0.457022428513 0.459905 0.881603 -0.106132
-0.724238395691 1.482296347618 -0.610631406307 0.001380 0.732842 -0.680398
-0.827180624008 1.502941131592 -0.564657390118 -0.409979 0.782686 -0.468316
-0.819581687450 1.409835219383 -0.171632453799 -0.410570 0.545777 0.730451
-0.698279082775 1.342821359634 -0.132655128837 0.001297 0.421606 0.906778
-0.757746040821 1.422151565552 -0.175893425941 0.001367 0.600218 0.799835
-0.670669794083 1.415122389793 -0.170630931854 0.001367 0.600218 0.799835
-0.695571839809 1.483621120453 -0.234997898340 0.001378 0.753685 0.657235
-0.724114596844 1.509082317352 -0.274705976248 0.001329 0.873026 0.487672
-0.780014395714 1.547795176506 -0.418111562729 0.001061 0.995927 0.090153
-0.794094502926 1.547548890114 -0.434390395880 0.001087 0.992690 -0.120688
-0.697535991669 1.525187611580 -0.535598814487 0.001240 0.946173 -0.323658
-0.751964151859 1.512200593948 -0.563627660275 0.001339 0.858436 -0.512919
-0.766393423080 1.500243067741 -0.583630502224 0.001339 0.858436 -0.512919
-0.833576858044 1.225310683250 -0.189903616905 -0.975822 -0.003506 -0.218537
-0.673706710339 0.994067847729 -0.599642574787 -0.001378 -0.753685 -0.657235
-0.694702744484 1.030351638794 -0.641195893288 -0.001378 -0.753685 -0.657235
-0.662218332291 0.978501498699 -0.572845935822 -0.001329 -0.873026 -0.487672
-0.657223403454 0.958726406097 -0.533796191216 -0.001221 -0.955752 -0.294171
-0.679094493389 0.937185049057 -0.412348926067 -0.001087 -0.992690 0.120688
-0.829954683781 0.947304487228 -0.400820702314 -0.411285 -0.904828 0.110141
-0.780244231224 1.278063178062 -0.598159193993 -0.829357 -0.214568 0.515875
-0.805561423302 1.348017334938 -0.609824001789 -0.829357 -0.214568 0.515875
-0.794411778450 1.314965844154 -0.605615675449 -0.829357 -0.214568 0.515875
-0.789337396622 1.447654247284 -0.422914564610 -0.829357 -0.515875 0.214568
-0.825676143169 1.482236027718 -0.480223119259 -0.829357 -0.515875 0.214568
-0.827023446560 1.455320358276 -0.550405383110 -0.829357 -0.515875 0.214568
-0.698648631573 1.295160055161 -0.404913425446 -0.829357 -0.515875 -0.214568
-0.777238905430 1.390688657761 -0.331024706364 -0.829357 -0.515875 -0.214568
-0.787825345993 1.406972527504 -0.329315930605 -0.829357 -0.515875 -0.214568
-0.813460826874 1.403368592262 -0.244975596666 -0.829357 -0.214568 -0.515875
-0.764461338520 1.359467387199 -0.305424690247 -0.829357 -0.214568 -0.515875
-0.735007047653 1.325524449348 -0.338634908199 -0.829357 -0.214568 -0.515875
-0.729911446571 1.177347779274 -0.339683383703 -0.829357 0.214568 -0.515875
-0.789610266685 1.203444242477 -0.233085066080 -0.829357 0.214568 -0.515875
-0.754867732525 1.198090434074 -0.291045874357 -0.829357 0.214568 -0.515875
-0.737981200218 1.141548991203 -0.370609790087 -0.829357 0.515875 -0.214568
-0.781232535839 1.085619688034 -0.338148593903 -0.829357 0.515875 -0.214568
-0.754124283791 1.124248504639 -0.349862158298 -0.829357 0.515875 -0.214568
-0.793604135513 1.077103257179 -0.533764719963 -0.829357 0.515875 0.214568
-0.700445234776 1.186373472214 -0.436811089516 -0.829357 0.515875 0.214568
-0.774459660053 1.091147780418 -0.493529617786 -0.829357 0.515875 0.214568
-0.740423858166 1.214936256409 -0.537323713303 -0.829357 0.214568 0.515875
-0.805731832981 1.137113809586 -0.609850406647 -0.829357 0.214568 0.515875
-0.809298217297 1.210848093033 -0.646132886410 -0.829357 0.214568 0.515875
-0.766914069653 1.308426737785 -0.316854298115 -0.999669 -0.011096 -0.023201
-0.753954589367 1.304668664932 -0.336902201176 0.999999 -0.000979 -0.000979
-0.753960609436 1.331595897675 -0.421015530825 0.999999 -0.000979 0.000979
-0.753951609135 1.210092425346 -0.520470857620 0.999999 0.000979 0.000979
-0.753947556019 1.148378729820 -0.358913153410 0.999999 0.000979 -0.000979
-0.753964364529 1.259474039078 -0.321179181337 0.999999 -0.000979 -0.000979
-0.766066074371 1.243136167526 -0.331510305405 -0.999672 0.005023 -0.025117
-0.767396688461 1.274999499321 -0.559678077698 -0.999680 -0.003014 0.025118
-0.766608774662 1.327128887177 -0.494306117296 -0.999705 -0.017184 0.017184
-0.800726234913 1.317053318024 -0.445937275887 0.001313 0.891519 -0.452981
-0.767008781433 1.199992895126 -0.540423691273 -0.999669 0.011096 0.023201
-0.766084671021 1.175456643105 -0.479543715715 -0.999705 0.017184 0.017184
-0.766868829727 1.130764722824 -0.464233070612 -0.999669 0.023201 0.011096
-0.767496168613 1.153678655624 -0.306508004665 -0.999705 0.017184 -0.017184
0.520026266575 1.134094834328 0.396129816771 -0.152243 -0.987860 -0.030906
0.475287258625 1.141917347908 0.448546379805 -0.066981 -0.995925 -0.060392
0.581472933292 1.189370870590 0.375546157360 0.966768 0.248241 0.061125
0.544715225697 1.181485176086 0.482727706432 0.133378 0.839845 0.526185
0.462534368038 1.171723246574 0.486139416695 0.007780 0.138927 0.990272
0.402767837048 1.186831116676 0.474445879459 0.001340 0.856545 0.516071
0.417082011700 1.197998523712 0.456367611885 -0.004047 0.851234 0.524770
0.456772863865 1.183554887772 0.479887247086 0.004047 0.851234 0.524770
0.488096684217 1.216560721397 0.394538879395 -0.005960 0.969064 0.246736
0.498111516237 1.226620078087 0.294533491135 0.001369 0.606331 -0.795211
0.557610332966 1.180393934250 0.293129712343 0.233200 0.017938 -0.972263
0.540075123310 1.137879014015 0.311434924603 -0.001345 -0.848828 -0.528668
0.491812407970 1.143784761429 0.302479475737 -0.148041 -0.987330 -0.057118
0.512312531471 1.138210058212 0.338054299355 -0.147640 -0.986238 -0.074411
0.386029869318 1.213314890862 0.406955778599 -0.001193 0.967781 0.251790
0.351974129677 1.191427350044 0.289682269096 0.009025 0.019053 -0.999778
-0.326136648655 1.136620521545 0.450151801109 -0.156955 -0.971078 0.179924
-0.293449044228 1.131459116936 0.441627323627 0.157345 -0.970932 0.180371
-0.266746044159 1.135779023170 0.374102473259 0.976427 -0.215817 -0.003500
-0.265379786491 1.200101971626 0.421399354935 0.966768 0.248241 0.061125
-0.263005703688 1.209117054939 0.339359760284 0.984289 0.175725 -0.017228
-0.311494529247 1.210726022720 0.414816409349 0.003580 0.967776 0.251789
-0.300586819649 1.231228709221 0.299490809441 -0.005378 0.994969 -0.100035
-0.357035875320 1.174080610275 0.289908975363 -0.009025 0.019053 -0.999778
-0.310253292322 1.145142793655 0.298999786377 -0.001345 -0.848828 -0.528668
-0.476892203093 1.134926676750 0.342469453812 0.147640 -0.986238 -0.074411
-0.523767352104 1.142503023148 0.383226037025 -0.976427 -0.215817 -0.003500
-0.520007252693 1.134872794151 0.436604648829 -0.170159 -0.971059 0.167600
-0.449717670679 1.202865719795 0.445422589779 -0.001193 0.967781 0.251790
-0.394588023424 1.231223344803 0.299393504858 0.001052 0.996710 -0.081042
-0.615985393524 0.723006308079 -0.299843609333 0.008218 -0.219533 0.975570
-0.640380382538 0.654498934746 -0.293422758579 -0.003313 0.135852 0.990724
-0.617618620396 0.678111255169 -0.296621769667 0.001100 0.135260 0.990809
-0.679412364960 0.497154325247 -0.271855413914 0.001104 0.140185 0.990125
-0.712071359158 0.522458732128 -0.301193356514 -0.726775 -0.120386 0.676243
-0.698239684105 0.610466361046 -0.292941719294 -0.711792 0.108027 0.694034
-0.688990294933 0.761797368526 -0.290926605463 -0.527917 -0.159119 0.834257
-0.728025436401 0.781009674072 -0.328786849976 -0.994348 -0.068075 0.081467
-0.728018462658 0.667077422142 -0.382135510445 -0.997713 0.020102 0.064539
-0.728916823864 0.627207815647 -0.384793996811 -0.998385 0.013534 0.055177
-0.599429428577 0.410542666912 -0.265931040049 -0.381081 -0.628536 0.678027
-0.645020008087 0.400628775358 -0.319426774979 -0.516930 -0.854119 0.057127
-0.712320029736 0.455279171467 -0.424265891314 -0.970688 -0.231234 0.065537
-0.630080282688 0.386582970619 -0.425618469715 -0.495997 -0.867652 0.034160
-0.572592020035 0.367136031389 -0.348593264818 0.015282 -0.999447 0.029545
-0.385801196098 0.370677202940 -0.326769411564 0.015282 -0.999447 0.029545
-0.459186673164 0.369870066643 -0.315359652042 0.015282 -0.999447 0.029545
-0.265460073948 0.370886802673 -0.369660794735 0.011295 -0.999134 0.040048
-0.287210166454 0.368124306202 -0.431758582592 0.011295 -0.999134 0.040048
-0.219174221158 0.369718492031 -0.412659287453 0.011295 -0.999134 0.040048
-0.055491164327 0.392294555902 -0.272596269846 0.009588 -0.814990 0.579396
-0.137197256088 0.371152758598 -0.390463590622 0.011229 -0.999369 0.033687
-0.049581438303 0.372933894396 -0.366667836905 0.011229 -0.999369 0.033687
0.119295895100 0.374558061361 -0.303327828646 -0.011229 -0.999369 0.033687
0.155506595969 0.372283935547 -0.357819318771 -0.011229 -0.999369 0.033687
0.175889179111 0.376337319613 -0.422332942486 -0.659653 -0.750444 0.041140
0.269622832537 0.369545847178 -0.406767308712 -0.013349 -0.999109 0.040046
0.495499998331 0.366724848747 -0.406954377890 -0.013349 -0.999109 0.040046
0.581790804863 0.367493003607 -0.337745934725 -0.015313 -0.999444 0.029606
0.590137183666 0.365770041943 -0.392161816359 -0.015313 -0.999444 0.029606
0.598636865616 0.365925639868 -0.382225275040 -0.015313 -0.999444 0.029606
0.671678185463 0.397565841675 -0.406025052071 0.495997 -0.867652 0.034160
0.695415139198 0.412243157625 -0.385293781757 0.514884 -0.855349 0.057209
0.735060095787 0.460450202227 -0.393521279097 0.970688 -0.231234 0.065537
0.740670919418 0.496862888336 -0.346611648798 0.970140 -0.234172 0.063189
0.755071580410 0.543079435825 -0.413183003664 0.998411 0.011452 0.055178
0.748548507690 0.634375751019 -0.325376808643 0.997713 0.020102 0.064539
0.740180313587 0.715534210205 -0.327174872160 0.701266 -0.244261 0.669748
0.734022617340 0.671374022961 -0.314987391233 0.711792 0.108027 0.694034
0.699060082436 0.474314749241 -0.270544648170 0.725368 -0.120647 0.677706
0.656940758228 0.426857501268 -0.269742101431 0.381081 -0.628536 0.678027
0.597267925739 0.380237251520 -0.285460025072 -0.004146 -0.761489 0.648164
0.389031469822 0.420139729977 -0.265369683504 -0.000979 0.002938 0.999995
0.657761871815 0.433899819851 -0.265579968691 -0.042464 0.075129 0.996269
0.640313863754 0.696791887283 -0.299181878567 0.001100 0.135260 0.990809
0.643260419369 0.782792925835 -0.285451412201 -0.008276 -0.230547 0.973026
0.667107999325 0.657751858234 -0.293913871050 0.005522 0.135850 0.990714
0.701951563358 0.784425854683 -0.285658359528 0.012926 -0.215046 0.976518
0.720793068409 0.777438044548 -0.293035596609 0.523159 -0.158578 0.837351
0.609576463699 1.023614168167 0.001905053854 0.991672 -0.127707 0.016657
0.472564578056 1.038246035576 0.018979769200 -0.010120 -0.151796 0.988360
0.423490881920 0.871110320091 -0.209326401353 0.004086 -0.826768 0.562529
0.317639917135 0.842918276787 -0.249815687537 0.004086 -0.826768 0.562529
0.372416406870 0.856779932976 -0.229932695627 0.004086 -0.826768 0.562529
0.488495707512 0.840593516827 -0.254806369543 0.004086 -0.826768 0.562529
0.284492671490 0.931956887245 -0.118558794260 0.004086 -0.826768 0.562529
0.274763345718 0.839866578579 -0.258209764957 0.655934 -0.592186 0.468045
0.274514645338 0.905647873878 -0.164299026132 0.945236 -0.261274 0.195613
0.409409821033 1.074903607368 0.101416341960 0.006761 -0.850476 0.525970
0.377843499184 1.050458669662 0.062335144728 0.006761 -0.850476 0.525970
0.460365355015 1.049890041351 0.061688456684 -0.009556 -0.825872 0.563777
0.375693589449 1.040128827095 0.046084627509 -0.009556 -0.825872 0.563777
0.609659075737 1.044411420822 0.047056857497 0.965343 -0.242926 0.095390
0.651334941387 0.987393200397 -0.033113561571 -0.015001 -0.844128 0.535932
0.635784506798 0.851753711700 -0.247024923563 -0.020501 -0.843259 0.537116
0.655389249325 0.871957719326 -0.215062052011 0.043087 -0.843678 0.535117
0.661621034145 0.977062165737 -0.049961205572 0.017753 -0.845323 0.533960
0.713174343109 0.898581743240 -0.176021993160 -0.146326 -0.829183 0.539486
0.753103673458 0.980165660381 -0.069218300283 0.659448 -0.315952 0.682131
0.746591448784 1.152614712715 0.076977513731 0.843851 -0.497887 0.200057
0.745863974094 1.138126134872 0.043795596808 0.843851 -0.497887 0.200057
0.727814912796 1.166833043098 0.251398384571 -0.986927 -0.057230 -0.150667
0.722261011600 1.141440033913 0.257753878832 -0.372878 -0.019354 -0.927679
0.688421785831 1.037969946861 0.042051088065 0.909754 -0.397060 0.121208
0.687510430813 1.090730190277 0.159078150988 0.090184 -0.894906 0.437047
0.641607403755 1.142528772354 0.248571038246 -0.221914 -0.768164 0.600565
0.285724461079 1.161697149277 0.290588617325 0.077026 -0.719389 0.690323
0.245438694954 1.134030818939 0.263522326946 0.009628 -0.799137 0.601072
0.067897468805 1.122874975204 0.203229680657 -0.003685 -0.298483 -0.954408
0.103482075036 1.077028155327 0.023392599076 0.001286 -0.916599 0.399807
0.065619111061 1.139891266823 0.167747080326 0.001286 -0.916599 0.399807
0.129024103284 1.108962297440 0.096655830741 0.001286 -0.916599 0.399807
0.099286362529 0.998462200165 -0.157083794475 -0.001286 -0.916599 0.399807
0.038897022605 1.042823791504 -0.055223017931 -0.001286 -0.916599 0.399807
0.061132568866 0.994293093681 -0.166716396809 -0.001286 -0.916599 0.399807
-0.012163155712 1.081689834595 0.034069612622 0.001286 -0.916599 0.399807
-0.063967391849 1.052421689034 -0.033156178892 0.001286 -0.916599 0.399807
0.009481602348 1.131818294525 0.149251669645 0.001286 -0.916599 0.399807
-0.123911321163 1.102215528488 0.081041544676 -0.001286 -0.916599 0.399807
-0.130703002214 1.040886640549 -0.059749141335 -0.001286 -0.916599 0.399807
-0.103629112244 1.047068119049 -0.045499190688 -0.001286 -0.916599 0.399807
-0.141294091940 1.035685300827 -0.014078900218 0.998948 -0.036307 0.028008
-0.102295055985 0.947668015957 -0.175227791071 -0.035578 0.393988 0.918427
-0.042728796601 0.943276762962 -0.171522811055 -0.024594 0.371502 0.928107
-0.052416011691 0.846879601479 -0.244318291545 -0.006815 -0.824619 0.565648
-0.003319611540 0.887585878372 -0.183370888233 -0.012295 -0.829245 0.558750
0.046077214181 0.872810602188 -0.205672308803 0.012295 -0.829245 0.558750
0.123540930450 0.854997158051 -0.232967942953 0.006815 -0.824619 0.565648
-0.090874962509 0.770369589329 -0.287482172251 -0.001185 -0.240583 0.970628
-0.081550061703 0.522700190544 -0.271076768637 -0.005398 0.106875 0.994258
-0.070596359670 0.495599865913 -0.267912775278 -0.005514 0.131223 0.991338
-0.143575921655 0.487966865301 -0.278387159109 -0.939565 0.034703 0.340608
-0.150208145380 0.438343882561 -0.272831529379 0.918041 -0.051965 0.393065
-0.218480199575 0.394176483154 -0.272220432758 0.012405 -0.806343 0.591318
-0.414097964764 0.384640038013 -0.281701624393 0.004146 -0.761489 0.648164
-0.287234365940 0.404287934303 -0.265315860510 0.000979 0.002938 0.999995
-0.351762533188 0.443678140640 -0.265479505062 0.000981 0.004907 0.999987
-0.010223376565 1.132291674614 0.261595457792 -0.004158 -0.722184 0.691689
-0.090839043260 1.149542808533 0.278723537922 -0.009743 -0.713998 0.700080
-0.147819250822 1.174353599548 0.319865256548 -0.359693 -0.895532 0.261999
-0.716233015060 1.136700868607 0.226051867008 0.928303 -0.323436 -0.183420
-0.711874306202 1.133024573326 0.079416640103 -0.805566 -0.530266 0.264351
-0.704597115517 1.113105177879 0.061716865748 -0.805566 -0.530266 0.264351
-0.674440622330 1.123415708542 0.195793926716 -0.923739 -0.358693 0.134337
-0.655066251755 1.115447640419 0.220698758960 0.022384 -0.907230 0.420038
-0.640506029129 1.039735555649 0.057613275945 -0.014436 -0.906825 0.421260
-0.689040064812 0.955668509007 -0.085036009550 0.219556 -0.815274 0.535839
-0.728755891323 0.948928952217 -0.103494226933 -0.679107 -0.388297 0.622928
-0.738470673561 0.929690063000 -0.126021072268 -0.679107 -0.388297 0.622928
-0.613396942616 0.933771967888 -0.118186764419 0.015001 -0.844128 0.535932
-0.595895588398 0.863423347473 -0.229541897774 0.017768 -0.843303 0.537144
-0.593176364899 0.762397825718 -0.310007810593 -0.958014 0.211856 0.193202
-0.604712188244 0.622561156750 -0.303794920444 -0.016489 0.939851 0.341187
-0.394078463316 0.607934832573 -0.284176439047 -0.005554 0.143285 0.989666
-0.344484359026 0.570780098438 -0.278610974550 -0.003351 0.150797 0.988559
-0.365203917027 0.520799696445 -0.271611005068 -0.003294 0.130653 0.991423
-0.481875956059 0.493473976851 -0.267864257097 -0.001108 0.142973 0.989726
-0.191775336862 0.743300497532 -0.296309977770 0.008305 -0.236101 0.971693
-0.154759049416 0.751245379448 -0.294433653355 -0.005960 -0.246736 0.969064
-0.165005847812 0.836360692978 -0.260232985020 -0.014085 -0.930924 0.364942
-0.186778366566 0.853333950043 -0.232845947146 -0.012323 -0.828389 0.560018
-0.203683540225 0.883220434189 -0.189024612308 -0.012323 -0.828389 0.560018
-0.235563874245 0.977181792259 -0.048125974834 0.015039 -0.832587 0.553691
-0.184598848224 1.078818917274 0.109588824213 0.009473 -0.848492 0.529123
-0.220201402903 1.032001614571 0.034977346659 0.012214 -0.850895 0.525194
-0.253868937492 1.092548847198 0.144989222288 0.084759 -0.976577 0.197772
-0.283366531134 1.106203794479 0.197068437934 -0.003700 -0.950873 0.309558
-0.357755690813 1.145241975784 0.268719941378 -0.018197 -0.718099 0.695703
-0.369710236788 1.157002925873 0.280254185200 -0.023888 -0.695574 0.718057
-0.617074012756 1.106379508972 0.179494455457 -0.038726 -0.958167 0.283577
-0.488319754601 1.058278560638 0.074532695115 0.009556 -0.825872 0.563777
-0.534346044064 1.034148216248 0.022253770381 -0.015719 -0.257556 -0.966136
-0.446380645037 0.988444924355 -0.034447245300 0.006795 -0.833075 0.553118
-0.412320643663 0.982460558414 -0.043881781399 0.006795 -0.833075 0.553118
-0.353043854237 0.994828879833 -0.025946728885 0.006795 -0.833075 0.553118
-0.343559205532 1.017171621323 0.007629154716 0.006795 -0.833075 0.553118
-0.322613477707 1.000513911247 -0.017741313204 0.006795 -0.833075 0.553118
-0.279868304729 0.969128727913 -0.064200930297 -0.004086 -0.826768 0.562529
-0.311087846756 0.896169662476 -0.171805992723 -0.004086 -0.826768 0.562529
-0.301429003477 0.880709469318 -0.194450333714 -0.004086 -0.826768 0.562529
-0.386540830135 0.930552482605 -0.121967561543 -0.004086 -0.826768 0.562529
-0.450133651495 0.856932222843 -0.230857938528 -0.004086 -0.826768 0.562529
-0.464771747589 0.798253536224 -0.311629265547 0.001263 -0.933019 0.359825
-0.511612474918 0.793604373932 -0.321852624416 -0.001152 0.980402 0.197002
-0.233431369066 0.531398415565 -0.287530541420 0.972696 -0.138232 0.186423
-0.252765983343 0.488300174475 -0.277513861656 0.693895 -0.687658 0.213626
-0.398252725601 0.472062826157 -0.264708578587 -0.001106 0.140492 0.990081
-0.475870996714 0.452301353216 -0.274466484785 0.010796 -0.968005 0.250698
-0.464994639158 0.652739167213 -0.289826065302 -0.003331 0.145461 0.989358
-0.500492095947 0.634204328060 -0.287224888802 -0.003331 0.145461 0.989358
-0.285244911909 0.631073772907 -0.298024475574 0.024268 -0.938806 0.343590
-0.470894396305 0.681435048580 -0.293859839439 -0.001102 0.135556 0.990769
-0.560059785843 0.781954228878 -0.303866177797 -0.001050 0.078785 0.996891
-0.333159536123 0.771351754665 -0.303020387888 0.001050 0.078785 0.996891
-0.331202745438 0.799223363400 -0.307519078255 -0.003688 -0.952774 0.303658
-0.263081818819 0.824113667011 -0.280564785004 -0.012551 -0.709835 0.704256
-0.549425661564 0.808492362499 -0.297831088305 -0.001381 -0.664449 0.747332
-0.252186954021 0.910175323486 -0.162062406540 0.982705 -0.153889 0.102996
-0.569216728210 0.853038489819 -0.240320518613 -0.555121 -0.691818 0.461767
-0.330072462559 1.100155353546 0.144773006439 -0.012372 -0.149594 0.988670
-0.480713903904 1.074009180069 0.098393812776 -0.006761 -0.850476 0.525970
-0.514113962650 1.086449980736 0.118024803698 -0.006761 -0.850476 0.525970
-0.382205694914 1.079580545425 0.108823075891 -0.006761 -0.850476 0.525970
-0.587028801441 1.100057125092 0.126264646649 -0.628904 -0.215846 0.746921
-0.570729553699 1.092435002327 0.145464181900 0.012209 -0.132081 -0.991164
-0.328185319901 1.111669063568 0.213133275509 -0.006186 -0.951352 0.308045
-0.360371291637 1.105127334595 0.192382588983 -0.006186 -0.951352 0.308045
-0.546200335026 1.121446013451 0.237286522985 -0.008708 -0.949144 0.314723
-0.446519643068 1.122337102890 0.242575213313 -0.008708 -0.949144 0.314723
-0.623424589634 0.486090570688 -0.270607322454 0.009984 0.136443 0.990598
0.097601756454 1.155740022659 0.285309851170 0.009743 -0.713998 0.700080
-0.084422327578 1.113787770271 0.216964364052 -0.003557 -0.971174 0.238347
-0.072088330984 1.112915992737 0.205725073814 0.012770 -0.193867 -0.980945
-0.075521238148 0.463286966085 -0.263824194670 0.001083 0.115898 0.993261
0.157522082329 0.471815615892 -0.265135437250 0.005514 0.131223 0.991338
0.164734572172 0.471356958151 -0.270036399364 0.941699 0.037155 0.334399
0.390387535095 0.372251838446 -0.298764795065 -0.012405 -0.806343 0.591318
0.254079520702 0.445350080729 -0.265497982502 0.000981 0.004907 0.999987
0.251676410437 0.423884332180 -0.265405744314 -0.000981 0.004907 0.999987
0.560258626938 0.448380947113 -0.274570882320 0.010614 0.975321 0.220538
0.635601341724 0.620630621910 -0.299427926540 0.019070 0.939511 0.341987
0.316750586033 0.646757543087 -0.288396209478 0.003331 0.145461 0.989358
0.589450597763 0.650743246078 -0.289771050215 0.001102 0.135556 0.990769
0.504148721695 0.693255484104 -0.295508921146 0.001102 0.135556 0.990769
0.638126671314 0.641615092754 -0.302938431501 0.961943 0.166667 0.216536
0.466124892235 0.791737318039 -0.312796711922 0.001137 0.983522 0.180786
0.275607109070 0.791252672672 -0.309486478567 0.001152 0.980402 0.197002
0.274750053883 0.794768452644 -0.320599555969 0.001229 -0.952780 0.303660
0.450396656990 0.826491713524 -0.282729983330 0.018163 -0.699970 0.713941
0.533630788326 0.801179707050 -0.304152995348 0.001377 -0.631887 0.775059
0.257610380650 0.754635930061 -0.315698266029 0.940675 -0.228588 0.250754
0.236382484436 0.572507500648 -0.281279891729 0.005533 0.138320 0.990372
0.216143652797 0.665265023708 -0.294163048267 0.005533 0.138320 0.990372
0.177083775401 0.823363780975 -0.275537401438 0.005994 -0.252954 0.967460
0.168956041336 0.880083143711 -0.192353039980 0.012323 -0.828389 0.560018
0.188595712185 0.970415413380 -0.059227172285 0.012323 -0.828389 0.560018
0.165125980973 0.956581473351 -0.107627354562 -0.998948 -0.036307 0.028008
0.043634518981 0.926857292652 -0.164334848523 0.024594 0.371502 0.928107
0.231547772884 1.027662038803 0.027769528329 -0.012214 -0.850895 0.525194
0.211224198341 1.018338084221 0.012589683756 -0.015039 -0.832587 0.553691
0.210327029228 1.095666289330 0.149110376835 -0.003600 -0.966129 0.258034
0.173101589084 1.102650165558 0.165083259344 -0.923038 -0.377545 0.073897
0.279700249434 1.099227070808 0.129581138492 -0.422853 -0.104667 0.900133
0.420106709003 1.122234106064 0.243969708681 0.008708 -0.949144 0.314723
0.356636524200 1.092754960060 0.155044764280 0.006171 -0.951586 0.307321
0.381007373333 1.093822479248 0.157928690314 0.006171 -0.951586 0.307321
0.279291033745 1.115019798279 0.224777951837 0.003700 -0.950873 0.309558
0.420251697302 1.139266252518 0.261692136526 0.018197 -0.718099 0.695703
0.450830668211 1.145377397537 0.266427010298 0.093517 -0.442460 0.891899
0.165948703885 0.758198618889 -0.304124563932 -0.950657 -0.090227 0.296835
0.169909119606 0.574984788895 -0.289899259806 -0.948787 0.029057 0.314578
0.164121329784 0.730520486832 -0.310204058886 0.955320 -0.078643 0.284920
0.076643578708 0.808533847332 -0.277913570404 0.003555 -0.240582 0.970622
0.146440625191 0.684069752693 -0.293096303940 0.012252 0.139227 0.990185
0.142934069037 0.577616035938 -0.278078973293 0.010003 0.138924 0.990252
0.065787158906 0.624413609505 -0.283847868443 0.010003 0.138924 0.990252
0.111311763525 0.540989220142 -0.273200929165 0.007617 0.114249 0.993423
0.174151018262 0.475800812244 -0.273564606905 -0.927338 0.051446 0.370671
0.264234721661 0.462954610586 -0.267305493355 0.003312 0.138019 0.990424
-0.084767341614 0.590412557125 -0.279521912336 -0.010003 0.138924 0.990252
-0.051028426737 0.670030415058 -0.290287911892 -0.012252 0.139227 0.990185
-0.048049066216 0.765635430813 -0.289579808712 0.028421 -0.278036 0.960150
0.420740127563 0.466968864202 -0.263999581337 0.001106 0.140492 0.990081
0.550427317619 0.471994668245 -0.264870941639 0.001106 0.140492 0.990081
0.615454852581 0.515868961811 -0.271264791489 0.001108 0.142973 0.989726
0.301859617233 0.537177503109 -0.273577451706 0.003294 0.130653 0.991423
0.635974645615 0.563841164112 -0.278370708227 0.003351 0.150797 0.988559
0.421330869198 0.552748799324 -0.276027649641 0.003351 0.150797 0.988559
0.472852289677 0.614819169044 -0.285435706377 0.005554 0.143285 0.989666
0.285790503025 0.576864540577 -0.279129773378 0.005554 0.143285 0.989666
0.287445217371 0.761893272400 -0.302275657654 0.001050 0.078785 0.996891
0.288508385420 0.781676709652 -0.303849875927 0.001050 0.078785 0.996891
0.550683856010 0.751152753830 -0.301464974880 0.001050 0.078785 0.996891
0.394406437874 0.985956668854 -0.038927581161 -0.006795 -0.833075 0.553118
0.556205034256 0.932481110096 -0.117533005774 -0.006795 -0.833075 0.553118
0.420058578253 0.976329743862 -0.053122065961 -0.006795 -0.833075 0.553118
0.452743232250 0.930538833141 -0.121759340167 -0.006795 -0.833075 0.553118
0.432775735855 0.982120156288 -0.044231377542 -0.006795 -0.833075 0.553118
0.587934672832 0.892086327076 -0.178045541048 -0.006795 -0.833075 0.553118
-0.312810748816 1.182871580124 0.349741935730 -0.952589 -0.300617 0.046932
-0.485631138086 1.175363540649 0.265230327845 -0.488822 -0.863730 0.122566
-0.476311087608 1.172958254814 0.282829046249 -0.454719 -0.882355 0.121163
0.363146394491 1.182936787605 0.345215797424 -0.488822 -0.863730 0.122566
0.362117081881 1.175147294998 0.238201379776 -0.198525 0.972391 -0.122655
-0.134173452854 0.776532888412 -0.082656487823 -0.999999 0.000978 -0.000978
-0.134167388082 0.814611077309 -0.083105206490 -0.999999 0.000978 -0.000978
-0.134177565575 0.750766634941 -0.098324269056 -0.999999 0.000978 0.000978
-0.134174138308 0.772303700447 -0.109101124108 -0.999999 0.000978 0.000978
0.112891726196 0.597108304501 -0.146293342113 0.038287 -0.682071 -0.730283
0.157755225897 0.639926791191 -0.096105538309 0.999999 -0.000978 -0.000978
0.157751783729 0.618382990360 -0.138767302036 0.999999 -0.000978 -0.000978
0.157793432474 0.879250884056 -0.068953730166 0.999999 -0.000978 0.000978
0.122367516160 0.717932701111 -0.060255315155 0.038691 0.034509 0.998655
0.128726571798 0.967293977737 -0.068900644779 0.038691 0.034509 0.998655
0.098930314183 0.905171930790 -0.065637707710 0.038691 0.034509 0.998655
0.038427695632 0.721790552139 -0.057751979679 0.030025 0.030025 0.999098
0.060852140188 0.874725222588 -0.063167810440 0.030025 0.030025 0.999098
0.126294687390 0.682065367699 -0.059255924076 0.030025 0.030025 0.999098
0.091308645904 0.597491145134 -0.063006035984 0.023219 -0.520370 0.853625
0.139071851969 0.586263298988 -0.071539230645 0.041446 -0.997891 0.049948
0.103915140033 0.582880020142 -0.111015789211 0.032031 -0.999153 0.025831
0.011554699391 0.579959094524 -0.109825223684 -0.032031 -0.999153 0.025831
-0.067094668746 0.583791494370 -0.081048853695 -0.041446 -0.997891 0.049948
-0.110817641020 0.593100249767 -0.066934987903 -0.023219 -0.520370 0.853625
-0.105100274086 0.667914569378 -0.058891877532 -0.030025 0.030025 0.999098
-0.069470122457 0.633449018002 -0.056721452624 -0.030025 0.030025 0.999098
-0.089394256473 0.733587324619 -0.060431241989 -0.030025 0.030025 0.999098
-0.048708055168 0.985288441181 -0.067290470004 -0.038691 0.034509 0.998655
-0.078518122435 0.780599236488 -0.061568237841 -0.038691 0.034509 0.998655
-0.051741551608 0.977421164513 -0.067144729197 -0.038691 0.034509 0.998655
-0.596062242985 1.409616827965 -0.121983304620 0.041584 -0.193661 -0.980187
-0.606928288937 1.295190453529 -0.099850155413 0.041584 -0.193661 -0.980187
-0.336042284966 1.474575281143 -0.123797349632 0.041584 -0.193661 -0.980187
-0.620547354221 1.431815624237 -0.126309037209 -0.165109 0.764952 -0.622565
-0.206924319267 1.533399820328 -0.110477291048 -0.165109 0.764952 -0.622565
-0.457759380341 1.452945232391 -0.012483671308 -0.197746 0.920444 0.337164
-0.326634287834 1.473186135292 0.009040631354 -0.197746 0.920444 0.337164
-0.316673845053 1.484223723412 -0.015262439847 -0.197746 0.920444 0.337164
-0.219206839800 1.452213168144 0.129213511944 -0.197746 0.920444 0.337164
-0.391167759895 1.499081611633 -0.099453136325 -0.197746 0.920444 0.337164
-0.227200090885 1.513793826103 -0.043600775301 -0.197746 0.920444 0.337164
-0.418036192656 1.468019604683 -0.030378967524 -0.197746 0.920444 0.337164
0.161873653531 1.539265036583 -0.098349943757 0.001253 0.938727 0.344659
0.100143089890 1.519143223763 -0.043386384845 0.001253 0.938727 0.344659
-0.155397713184 1.518929839134 -0.042692482471 0.001253 0.938727 0.344659
-0.030784837902 1.509589314461 -0.017245210707 0.001253 0.938727 0.344659
-0.185616686940 1.470882296562 0.088500492275 0.001253 0.938727 0.344659
-0.081282928586 1.517687082291 -0.039332084358 0.001253 0.938727 0.344659
0.198938176036 1.440167546272 0.172190502286 0.001253 0.938727 0.344659
0.070766851306 1.488342285156 0.040719456971 0.001253 0.938727 0.344659
0.049907062203 1.490898966789 0.033748239279 0.001253 0.938727 0.344659
0.121824271977 1.517808079720 -0.039750557393 0.001253 0.938727 0.344659
0.130961596966 1.460251808167 0.117386028171 0.001253 0.938727 0.344659
0.196738898754 1.497472524643 0.015736907721 0.001253 0.938727 0.344659
-0.197496488690 1.419121742249 0.204714357853 0.001374 0.776155 0.630540
-0.140613257885 1.418847322464 0.205040931702 0.001374 0.776155 0.630540
-0.493840634823 1.298032760620 0.208729609847 0.000978 0.000978 0.999999
0.042751193047 1.414162755013 0.208729609847 0.000978 0.000978 0.999999
-0.464011311531 1.313127398491 0.208729609847 0.000978 0.000978 0.999999
-0.071070432663 1.323864698410 0.208729609847 0.000978 0.000978 0.999999
0.292175441980 1.338712811470 0.208729609847 0.000978 0.000978 0.999999
0.337099969387 1.339522719383 0.208729609847 0.000978 0.000978 0.999999
0.371062517166 1.259124279022 0.208729609847 0.000978 0.000978 0.999999
0.281461834908 1.344820857048 0.208729609847 0.000978 0.000978 0.999999
0.344428747892 1.256074070930 0.208729609847 0.000978 0.000978 0.999999
-0.194319844246 1.323233842850 0.208729609847 0.000978 0.000978 0.999999
0.029631674290 1.270165443420 0.208729609847 0.000978 0.000978 0.999999
0.371222823858 1.344199657440 0.208729609847 0.000978 0.000978 0.999999
-0.050660222769 1.316436409950 0.208729609847 0.000978 0.000978 0.999999
0.429487526417 1.259659409523 0.208729609847 0.000978 0.000978 0.999999
0.625043451786 1.266767024994 0.208729609847 0.000978 0.000978 0.999999
0.346696108580 1.377878069878 0.208729609847 0.000978 0.000978 0.999999
0.619340121746 1.260778188705 -0.000357910991 0.999036 -0.001020 -0.043880
0.400326877832 1.272995471954 -0.058055818081 -0.001069 -0.995256 -0.097281
0.546835601330 1.264656662941 0.026235252619 -0.001069 -0.995256 -0.097281
0.360984414816 1.273573160172 -0.063848733902 -0.001069 -0.995256 -0.097281
0.247962951660 1.276420831680 -0.092530749738 -0.001069 -0.995256 -0.097281
0.582294523716 1.260201215744 0.071340531111 -0.001069 -0.995256 -0.097281
0.448889940977 1.263936877251 0.033688746393 -0.001069 -0.995256 -0.097281
0.513096213341 1.270515441895 -0.033099442720 -0.001069 -0.995256 -0.097281
0.061244308949 1.274985671043 -0.077681392431 -0.001069 -0.995256 -0.097281
0.023192018270 1.262185811996 0.052127927542 -0.001069 -0.995256 -0.097281
0.036316365004 1.274918437004 -0.076959036291 -0.001069 -0.995256 -0.097281
0.412154018879 1.260052323341 0.073125004768 -0.001069 -0.995256 -0.097281
0.287223219872 1.261964678764 0.053942382336 -0.001069 -0.995256 -0.097281
0.300462484360 1.259730458260 0.076568588614 -0.001069 -0.995256 -0.097281
-0.200577676296 1.271294951439 -0.039846319705 -0.001069 -0.995256 -0.097281
0.235882699490 1.260287880898 0.071022659540 -0.001069 -0.995256 -0.097281
0.078838616610 1.273323059082 -0.060855992138 -0.001069 -0.995256 -0.097281
0.279398918152 1.263005137444 0.043407440186 -0.001069 -0.995256 -0.097281
0.398586332798 1.256184458733 0.112354800105 -0.001069 -0.995256 -0.097281
-0.237340554595 1.275506615639 -0.082479216158 -0.001069 -0.995256 -0.097281
0.223098114133 1.256221890450 0.112258292735 -0.001069 -0.995256 -0.097281
-0.478944629431 1.257811427116 0.097282357514 -0.001069 -0.995256 -0.097281
-0.350396931171 1.264242172241 0.031887739897 -0.001069 -0.995256 -0.097281
-0.376282781363 1.269581317902 -0.022190965712 -0.001069 -0.995256 -0.097281
0.522878885269 1.248096823692 0.194134116173 -0.001069 -0.995256 -0.097281
0.082539573312 1.249451518059 0.181114464998 -0.001069 -0.995256 -0.097281
-0.311420083046 1.268890738487 -0.015296038240 -0.001069 -0.995256 -0.097281
0.356616258621 1.251640319824 0.158484578133 -0.001069 -0.995256 -0.097281
0.178900986910 1.254851698875 0.126218646765 -0.001069 -0.995256 -0.097281
-0.199609264731 1.259619712830 0.078499831259 -0.001069 -0.995256 -0.097281
0.502547740936 1.248879075050 0.186237528920 -0.001069 -0.995256 -0.097281
0.006130015943 1.260152697563 0.072764404118 -0.001069 -0.995256 -0.097281
-0.011083843186 1.258582472801 0.088709294796 -0.001069 -0.995256 -0.097281
-0.627456605434 1.259891271591 0.076440170407 -0.001069 -0.995256 -0.097281
-0.290095835924 1.249254703522 0.183712661266 -0.001069 -0.995256 -0.097281
-0.136495172977 1.263379931450 0.040282107890 -0.001069 -0.995256 -0.097281
-0.157965689898 1.252015471458 0.155515134335 -0.001069 -0.995256 -0.097281
-0.144867330790 1.265164256096 0.022207964212 -0.001069 -0.995256 -0.097281
-0.548229217529 1.264632701874 0.028249256313 -0.001069 -0.995256 -0.097281
-0.635120809078 1.313815474510 0.199280887842 -0.990809 0.001100 -0.135260
-0.380605190992 1.347911715508 0.208729609847 0.000978 0.000978 0.999999
-0.345444977283 1.362179160118 0.208729609847 0.000978 0.000978 0.999999
-0.342075109482 1.396363973618 0.196526110172 -0.161784 0.766583 0.621431
-0.536456704140 1.359775543213 0.191435664892 -0.161784 0.766583 0.621431
-0.411165595055 1.414440274239 0.121516734362 -0.193669 0.923110 0.332206
-0.470212489367 1.412487030029 0.092489629984 -0.193669 0.923110 0.332206
-0.434142738581 1.397743105888 0.154626801610 -0.193669 0.923110 0.332206
-0.612714350224 1.408732533455 0.019762441516 -0.193669 0.923110 0.332206
-0.478264987469 1.402372479439 0.115970596671 -0.193669 0.923110 0.332206
-0.406872272491 1.406769871712 0.145395278931 -0.193669 0.923110 0.332206
-0.334932804108 1.421762704849 0.145616769791 -0.193669 0.923110 0.332206
-0.625396013260 1.404459714890 -0.038216352463 -0.985780 -0.143883 -0.086806
-0.625753283501 1.346712708473 0.061131253839 -0.985780 -0.143883 -0.086806
0.034793198109 1.412061095238 -0.113797619939 -0.001089 -0.123096 -0.992394
0.024492308497 1.404242634773 -0.112830519676 -0.001089 -0.123096 -0.992394
0.190415114164 1.432803869247 -0.116365909576 -0.001089 -0.123096 -0.992394
-0.422433376312 1.297525286674 -0.099624149501 -0.001089 -0.123096 -0.992394
0.066884189844 1.334572076797 -0.104215323925 -0.001089 -0.123096 -0.992394
0.073779053986 1.450211286545 -0.118516340852 -0.001089 -0.123096 -0.992394
-0.041777729988 1.292676091194 -0.099031984806 -0.001089 -0.123096 -0.992394
0.020039185882 1.421453595161 -0.114958874881 -0.001089 -0.123096 -0.992394
-0.514475226402 1.280824303627 -0.097556963563 -0.001089 -0.123096 -0.992394
0.082694500685 1.450622558594 -0.118567392230 -0.001089 -0.123096 -0.992394
-0.126901537180 1.428727865219 -0.115855567157 -0.001089 -0.123096 -0.992394
-0.232864394784 1.457391023636 -0.119398206472 -0.001089 -0.123096 -0.992394
-0.304545164108 1.408669233322 -0.113371461630 -0.001089 -0.123096 -0.992394
-0.460166186094 1.368935585022 -0.108454607427 -0.001089 -0.123096 -0.992394
-0.126119017601 1.435519456863 -0.116695493460 -0.001089 -0.123096 -0.992394
0.038843236864 1.533322453499 -0.111912898719 0.001374 0.776155 -0.630540
0.362668395042 1.498323917389 -0.112077221274 0.168762 0.764750 -0.621834
0.357277631760 1.505185246468 -0.105093106627 0.168762 0.764750 -0.621834
0.418121099472 1.455741405487 0.003378942609 0.203059 0.921575 0.330858
0.381304174662 1.500085234642 -0.097592711449 0.203059 0.921575 0.330858
0.363186568022 1.483990430832 -0.041682571173 0.203059 0.921575 0.330858
0.359391868114 1.489108562469 -0.053614482284 0.203059 0.921575 0.330858
0.492715239525 1.448745012283 -0.022777594626 0.203059 0.921575 0.330858
0.548733651638 1.441660881042 -0.037324044853 0.203059 0.921575 0.330858
0.306001096964 1.516885876656 -0.098307184875 0.203059 0.921575 0.330858
0.625222921371 1.348970651627 0.096379198134 0.998944 -0.021784 -0.040456
0.622637152672 1.387787461281 0.012351006269 0.998944 -0.021784 -0.040456
0.619268238544 1.320747494698 -0.095164567232 0.999999 -0.000978 0.000978
0.519584655762 1.318898320198 -0.105389691889 -0.001147 -0.193909 -0.981019
0.304248511791 1.279310584068 -0.097566634417 -0.001147 -0.193909 -0.981019
0.334316939116 1.280517339706 -0.097805850208 -0.001147 -0.193909 -0.981019
0.548855364323 1.394919514656 -0.120400398970 -0.001147 -0.193909 -0.981019
0.241177484393 1.424400568008 -0.116334885359 -0.027894 -0.123849 -0.991909
0.491960018873 1.443657398224 -0.125529810786 -0.027894 -0.123849 -0.991909
0.584715008736 1.424211978912 -0.125645205379 -0.027894 -0.123849 -0.991909
0.521190762520 1.423256158829 -0.123801097274 -0.027894 -0.123849 -0.991909
0.350014209747 1.377186179161 -0.113453172147 -0.027894 -0.123849 -0.991909
0.621697187424 1.330752849579 0.202981963754 0.165109 0.764952 0.622565
0.265630692244 1.414364099503 0.194221585989 0.165109 0.764952 0.622565
0.335399657488 1.456940293312 0.049380645156 0.197746 0.920444 0.337164
0.275449067354 1.484810233116 0.008452743292 0.197746 0.920444 0.337164
0.481642484665 1.407742381096 0.097926810384 0.197746 0.920444 0.337164
0.324149459600 1.426979303360 0.137775748968 0.197746 0.920444 0.337164
0.228808850050 1.515959024429 -0.049232661724 0.197746 0.920444 0.337164
0.207172840834 1.523369789124 -0.056775644422 0.197746 0.920444 0.337164
0.614388227463 0.070433355868 -0.317617326975 0.210236 0.072538 -0.974956
0.604639887810 0.096710070968 -0.328612864017 0.118991 -0.075091 0.990052
0.632603764534 -0.232147753239 -0.346492320299 0.331179 0.006249 0.943547
0.597589671612 -0.157661423087 -0.334724843502 0.328951 0.006254 0.944326
0.604335725307 -0.169957339764 -0.330427646637 0.434043 0.006557 -0.900868
0.623920083046 0.056309126318 -0.314703971148 0.436784 0.033393 -0.898947
0.628509163857 -0.071946993470 -0.314004123211 0.999976 -0.000983 0.006883
0.584853887558 0.139076843858 -0.295070111752 0.039885 0.999162 0.009204
0.431338369846 0.144071072340 -0.311181575060 0.032230 0.783326 -0.620775
0.240070611238 0.139102578163 -0.313006430864 -0.032230 0.783326 -0.620775
0.280986309052 0.143227547407 -0.252921611071 -0.041673 0.999131 0.001016
0.131615743041 0.063186973333 -0.289926886559 -0.999976 0.000983 0.006883
0.124121531844 -0.071368008852 -0.250862240791 -0.991472 0.037138 -0.124919
0.131006956100 -0.204387754202 -0.300958335400 -0.992626 -0.016525 -0.120085
0.126663148403 -0.307389676571 -0.261575937271 -0.817595 -0.541524 -0.195677
0.155313476920 0.098170310259 -0.317623227835 -0.210236 0.072538 -0.974956
0.129413753748 -0.107618018985 -0.346497893333 -0.320695 -0.018864 0.946995
0.131240904331 -0.225529640913 -0.345157414675 -0.331179 0.006249 0.943547
0.124249286950 -0.219923436642 -0.427276492119 -0.998940 -0.001022 -0.046011
0.124061174691 -0.128031969070 -0.370762854815 -0.999821 0.018902 -0.000995
