-0.124115370214 0.252663791180 -0.458040177822 -0.999769 0.013062 0.017081
-0.010137082078 0.275032103062 -0.510101735592 0.002979 0.999912 -0.012908
-0.032065819949 0.275961786509 -0.446036577225 0.002979 0.999912 -0.012908
-0.122983068228 0.275744050741 -0.480435013771 0.002979 0.999912 -0.012908
-0.123159758747 -0.012161342427 -0.341136634350 -0.999984 -0.004916 0.002950
-0.123492121696 0.045427195728 -0.379858583212 -0.999984 -0.004916 0.002950
0.035722434521 0.001847899519 -0.217656001449 -0.003729 -0.945907 0.324417
-0.059169702232 -0.032407525927 -0.318223983049 -0.003729 -0.945907 0.324417
0.021121580154 -0.025179430842 -0.296522140503 -0.003729 -0.945907 0.324417
0.076827675104 -0.069334015250 -0.341843098402 0.000987 0.010858 0.999941
0.116907089949 -0.391739279032 -0.338560014963 0.000987 0.010858 0.999941
0.088858574629 -0.102958187461 -0.341500967741 0.000987 0.010858 0.999941
-0.100350536406 -0.041663944721 -0.342119574547 0.000987 0.010858 0.999941
0.117839373648 -0.186801716685 -0.340647727251 0.000987 0.010858 0.999941
-0.059604145586 -0.094541512430 -0.341582149267 0.000987 0.010858 0.999941
-0.087640114129 -0.356485903263 -0.338912874460 0.000987 0.010858 0.999941
-0.088016554713 -0.435043692589 -0.338112592697 0.000987 0.010858 0.999941
0.028762849048 -0.341272652149 -0.339071422815 0.000987 0.010858 0.999941
-0.124271206558 -0.315482079983 -0.339329451323 0.000987 0.010858 0.999941
-0.077105045319 -0.360972464085 -0.338867485523 0.000987 0.010858 0.999941
-0.096362896264 -0.456565082073 -0.337893098593 0.000987 0.010858 0.999941
-0.065671622753 -0.550428032875 -0.305500179529 0.001384 0.695951 0.718088
-0.118869468570 -0.533766329288 -0.321519345045 0.001384 0.695951 0.718088
0.031182602048 -0.570468187332 -0.286320358515 0.001384 0.695951 0.718088
-0.115818366408 -0.637466311455 -0.037355910987 0.003514 0.975710 0.219037
-0.059874303639 -0.592769324780 -0.236324757338 0.003514 0.975710 0.219037
-0.154206722975 -0.640742182732 -0.022355984896 0.003514 0.975710 0.219037
-0.137305065989 -0.587240815163 -0.259908080101 0.003514 0.975710 0.219037
-0.077375471592 -0.629988193512 -0.070998527110 0.003514 0.975710 0.219037
0.066117912531 -0.615002036095 -0.139227524400 0.003514 0.975710 0.219037
0.030149631202 -0.630203545094 -0.071351736784 0.003514 0.975710 0.219037
0.044003225863 -0.637510001659 -0.039106734097 0.003514 0.975710 0.219037
0.095198795199 -0.627786874771 -0.082864478230 0.003514 0.975710 0.219037
-0.086763307452 -0.650834381580 0.021595191211 0.003514 0.975710 0.219037
0.110798694193 -0.656988024712 0.046490527689 0.003514 0.975710 0.219037
-0.037330303341 -0.657598793507 0.051002427936 0.003514 0.975710 0.219037
0.075839325786 -0.673844635487 0.061021458358 0.001316 0.454044 0.890978
-0.163872152567 -0.683417797089 0.066246837378 0.001316 0.454044 0.890978
-0.175092086196 -0.770200490952 -0.192584380507 -0.992466 0.046083 -0.113521
-0.147347062826 -0.773941159248 -0.391181349754 -0.982808 0.117840 -0.142137
-0.191408157349 -0.678933143616 -0.009672095068 -0.982808 0.117840 -0.142137
-0.168302938342 -0.691835880280 -0.179112076759 -0.982808 0.117840 -0.142137
-0.164344578981 -0.764825701714 -0.266843885183 -0.982808 0.117840 -0.142137
-0.164953604341 -0.661891877651 -0.177287667990 -0.982808 0.117840 -0.142137
-0.151036173105 -0.848844110966 -0.427959889174 -0.982808 0.117840 -0.142137
-0.140759021044 -0.630218684673 -0.320843994617 -0.990420 0.089196 -0.105413
-0.139465063810 -0.689745545387 -0.383734524250 -0.990420 0.089196 -0.105413
-0.129827588797 -0.487550377846 -0.359294533730 -0.997997 0.013614 0.061786
-0.130537316203 -0.443461149931 -0.379786998034 -0.997997 0.013614 0.061786
-0.140375018120 -0.764161765575 -0.472158432007 -0.997997 0.013614 0.061786
-0.131405860186 -0.520958781242 -0.377825140953 -0.997997 0.013614 0.061786
-0.139668837190 -0.684986948967 -0.480772286654 -0.998948 0.017562 0.042355
-0.128883212805 -0.229609906673 -0.405763536692 -0.998948 0.017562 0.042355
-0.129670277238 -0.286584973335 -0.401677370071 -0.998948 0.017562 0.042355
-0.127344653010 -0.188987821341 -0.385265260935 -0.998948 0.017562 0.042355
-0.127054825425 -0.080005526543 -0.422200918198 -0.998948 0.017562 0.042355
-0.126885026693 -0.085525840521 -0.415911078453 -0.998948 0.017562 0.042355
-0.139075443149 -0.650001168251 -0.480644404888 -0.998948 0.017562 0.042355
-0.124925151467 -0.051908180118 -0.382500708103 -0.998948 0.017562 0.042355
-0.128545641899 -0.241193100810 -0.393013983965 -0.998948 0.017562 0.042355
-0.124249972403 0.164904832840 -0.453619986773 -0.998948 0.017562 0.042355
0.169162839651 -0.792517244816 -0.261763244867 0.992817 0.039175 -0.113049
0.150467395782 -0.725746214390 -0.339085429907 0.983179 0.112467 -0.143909
0.180097073317 -0.697195947170 -0.112889766693 0.983179 0.112467 -0.143909
0.166972443461 -0.771438717842 -0.261306345463 0.983179 0.112467 -0.143909
0.152575328946 -0.671565473080 -0.282166719437 0.983179 0.112467 -0.143909
0.144916802645 -0.759777188301 -0.403913974762 0.983179 0.112467 -0.143909
0.155707716942 -0.695159435272 -0.279087781906 0.983179 0.112467 -0.143909
0.141899272799 -0.721049606800 -0.400855898857 0.991134 0.081731 -0.104754
0.132463723421 -0.232749029994 -0.376444786787 0.998099 0.005204 0.061405
0.131595373154 -0.329648554325 -0.353261113167 0.998099 0.005204 0.061405
0.133867070079 -0.570613503456 -0.366810142994 0.998099 0.005204 0.061405
0.141198262572 -0.731480300426 -0.469288915396 0.998099 0.005204 0.061405
0.128415688872 0.165991783142 -0.246768549085 0.999984 0.004926 -0.002956
0.128133907914 0.234424561262 -0.224050715566 0.999984 0.004926 -0.002956
0.129130199552 0.042980264872 -0.189432501793 0.999987 0.004907 -0.000981
0.128041952848 0.256726801395 -0.187059730291 0.999987 0.004907 -0.000981
-0.701475560665 -0.334812939167 0.451888442039 0.210408 0.410517 -0.887245
-0.638853430748 -0.218996793032 0.514836370945 0.273909 0.320781 -0.906683
-0.631546437740 -0.119478717446 0.551207423210 0.403733 0.207005 -0.891150
-0.695546627045 -0.426073729992 0.411169230938 0.210408 0.410517 -0.887245
-0.684463739395 -0.480111449957 0.386127531528 0.174475 0.514477 -0.839567
-0.734029233456 -0.688546240330 0.248592510819 0.174475 0.514477 -0.839567
-0.802290558815 -0.754545807838 0.201968774199 0.031599 0.520689 -0.853161
-0.716509342194 -0.673659443855 0.287155181170 0.969750 -0.073447 -0.232790
-0.670487940311 -0.463505536318 0.412593722343 0.963405 -0.087814 -0.253260
-0.724420189857 -0.711686372757 0.268093854189 0.975655 -0.108406 -0.190645
-0.722931861877 -0.734557986259 0.287971615791 0.974883 -0.098109 -0.199944
-0.750174760818 -0.889954268932 0.210735678673 0.748723 0.394841 0.532461
-0.757578670979 1.100803375244 0.259778141975 0.910594 -0.100565 -0.400882
-0.710861384869 0.298584371805 0.328370749950 0.949905 -0.003706 -0.312517
-0.726262867451 0.338377714157 0.281981229782 0.946397 0.006234 -0.322947
-0.766916275024 0.424832999706 0.336505174637 -0.001152 0.979955 -0.199215
-0.720622658730 0.439426094294 0.405349552631 0.005836 0.976906 -0.213589
-0.660830080509 0.459921300411 0.500601053238 0.057623 0.972232 -0.226813
-0.647350788116 0.440952867270 0.491964280605 0.923189 -0.001277 -0.384343
-0.691082656384 0.395464956760 0.386518329382 0.923189 -0.001277 -0.384343
-0.611107349396 0.439590781927 0.580804407597 0.929319 -0.016710 -0.368900
-0.651344001293 0.357931524515 0.483636975288 0.929319 -0.016710 -0.368900
-0.693675577641 0.304469525814 0.410776138306 -0.026638 -0.944997 0.325992
-0.633292734623 0.355278372765 0.562960028648 -0.073277 -0.928621 0.363721
-0.745208263397 0.296139359474 0.386100560427 -0.001249 -0.942782 0.333408
-0.803439140320 0.245726048946 0.249570712447 -0.011447 -0.934849 0.354861
-0.747307181358 0.266272127628 0.304630190134 0.026638 -0.944997 0.325992
0.717049539089 -0.409869402647 0.416262954473 -0.207342 0.413213 -0.886716
0.722754299641 -0.347597748041 0.443801343441 -0.210408 0.410517 -0.887245
0.670356154442 -0.208145856857 0.511984467506 -0.270940 0.323663 -0.906550
0.623859226704 -0.173489004374 0.540372252464 -0.833866 0.099373 -0.542949
0.722223758698 -0.672776579857 0.270123213530 -0.975925 -0.090066 -0.198640
0.749631166458 -0.825855016708 0.204354912043 -0.975925 -0.090066 -0.198640
0.751311719418 -0.560103714466 0.326562851667 -0.171152 0.513455 -0.840875
0.751101672649 -0.511177539825 0.356440007687 -0.230071 0.446607 -0.864644
0.815754055977 -0.804585397243 0.173699542880 -0.028745 0.521511 -0.852760
0.751587331295 1.047658681870 0.316558957100 -0.912015 -0.094630 -0.399092
0.750064611435 0.337291598320 0.237738057971 -0.946568 0.013791 -0.322209
0.740970015526 0.365402638912 0.265521824360 -0.946568 0.013791 -0.322209
0.712426304817 0.282296627760 0.348953634501 -0.949905 0.003706 -0.312517
0.730860114098 0.273032009602 0.333683878183 -0.031859 -0.944309 0.327513
0.742484927177 0.294553846121 0.393224537373 -0.003755 -0.942497 0.334192
0.627251863480 0.410228013992 0.564456760883 -0.929206 -0.011503 -0.369382
0.628744840622 0.376344203949 0.561703264713 -0.929206 -0.011503 -0.369382
0.636454761028 0.433005690575 0.540703892708 -0.923701 0.006406 -0.383061
0.685979306698 0.408714562654 0.420894950628 -0.923701 0.006406 -0.383061
0.495654225349 -0.798145830631 0.122874759138 0.938422 -0.003769 -0.345470
0.351934313774 -0.827509760857 0.156644105911 0.934355 0.155497 0.320626
0.377069890499 -0.761878669262 0.103483080864 0.542989 0.153227 0.825642
0.382654577494 -0.777745485306 0.097546122968 -0.539322 0.001352 -0.842099
0.603451132774 -0.824153244495 0.175744161010 -0.924482 0.131279 -0.357909
0.572396337986 -0.820168972015 0.200431481004 0.001093 0.127937 -0.991782
0.571342885494 -0.771212577820 0.097948282957 0.001125 0.163122 0.986605
0.233656972647 -0.765616178513 0.175792425871 -0.938422 0.003769 0.345470
0.324045658112 -0.775849163532 0.107022173703 -0.541916 0.185670 0.819667
0.262879312038 -0.775029540062 0.102901108563 -0.539322 0.001352 -0.842099
0.063020899892 -0.420312345028 -0.303234726191 0.921120 -0.003854 0.389260
0.003717443440 -0.409097909927 -0.267619371414 -0.924088 0.003834 0.382161
-0.653550684452 -0.850829482079 0.096310123801 0.905318 0.001299 -0.424733
-0.655668020248 -0.822946190834 0.091901823878 0.906315 0.001300 -0.422600
-0.723175644875 -0.711208462715 0.142771348357 0.003807 0.930297 0.366788
-0.710577309132 -0.732077777386 0.171452611685 -0.340494 0.026780 0.939865
0.686605274677 -0.770492255688 0.171763226390 -0.340494 0.026780 0.939865
0.717385053635 -0.780365645885 0.170638546348 0.340516 0.024231 0.939926
0.737474322319 -0.705293238163 0.117558486760 0.003807 0.930297 0.366788
0.652540922165 -0.770338952541 0.101130306721 -0.905361 0.006532 -0.424592
0.682658314705 -0.806571245193 0.130328431726 -0.710507 0.616206 -0.339808
0.522783041000 -0.751702904701 0.028113916516 0.534128 0.809707 0.243067
0.476673960686 -0.715590775013 0.008766032755 0.534128 0.809707 0.243067
0.737549006939 -0.810504496098 0.159872666001 0.695574 -0.023888 -0.718057
-0.671092689037 0.135375767946 -0.151763752103 -0.883730 0.430910 -0.182589
-0.700629889965 0.052394367754 -0.205013632774 -0.883730 0.430910 -0.182589
-0.619877755642 0.208146929741 -0.228372305632 -0.883730 0.430910 -0.182589
-0.697897017002 0.052325520664 -0.218490019441 -0.883730 0.430910 -0.182589
-0.651573657990 0.215958654881 -0.050525560975 -0.919346 0.382721 -0.091254
-0.661260306835 0.057056166232 -0.157608777285 0.460937 -0.860315 0.217706
-0.650820851326 0.055466171354 -0.204702973366 0.501226 -0.856562 0.122779
-0.687202751637 0.030272237957 -0.231978625059 0.501226 -0.856562 0.122779
-0.631101965904 0.118770189583 -0.313866108656 -0.731901 -0.146380 -0.665502
-0.589022934437 0.078987300396 -0.291584670544 0.486270 -0.864320 0.128422
-0.404762983322 0.096517235041 -0.265148758888 -0.003331 -0.989358 0.145461
-0.432038307190 0.088870227337 -0.317457109690 -0.003331 -0.989358 0.145461
-0.413007259369 0.097433194518 -0.259096801281 -0.003331 -0.989358 0.145461
-0.313428848982 0.102379672229 -0.223741099238 -0.003331 -0.989358 0.145461
-0.353862762451 0.098145544529 -0.253174006939 -0.003331 -0.989358 0.145461
-0.313148438931 0.106700234115 -0.194467574358 -0.003331 -0.989358 0.145461
-0.213434562087 0.049670957029 -0.251760780811 -0.505878 -0.853760 0.123208
-0.248474583030 0.083709232509 -0.159393623471 -0.505878 -0.853760 0.123208
-0.190885290504 0.068476125598 -0.260844230652 0.730168 -0.149662 -0.666675
-0.229970186949 0.206692576408 -0.181903421879 0.887198 0.423932 -0.182101
-0.224315702915 0.184746295214 -0.205701351166 0.887198 0.423932 -0.182101
-0.226457580924 0.215314388275 -0.144532561302 0.887198 0.423932 -0.182101
-0.204298317432 0.155692175031 -0.175965890288 0.887198 0.423932 -0.182101
-0.346471399069 0.188391387463 -0.323841094971 0.003531 0.973303 -0.229497
-0.288932740688 0.201447099447 -0.267885297537 0.003531 0.973303 -0.229497
-0.255395710468 0.194340676069 -0.297590106726 0.003531 0.973303 -0.229497
-0.350560933352 0.203084141016 -0.261668086052 0.003531 0.973303 -0.229497
-0.280355900526 0.237453028560 -0.115308687091 0.003531 0.973303 -0.229497
-0.277135133743 0.216306656599 -0.204821467400 0.003531 0.973303 -0.229497
-0.588194727898 0.255693137646 -0.041636660695 0.003531 0.973303 -0.229497
-0.604720652103 0.190475165844 -0.318013906479 0.003531 0.973303 -0.229497
-0.527533888817 0.247486352921 -0.075687222183 0.003531 0.973303 -0.229497
-0.501771032810 0.226063579321 -0.166109651327 0.003531 0.973303 -0.229497
-0.453333467245 0.255548059940 -0.040686592460 0.003531 0.973303 -0.229497
-0.586940586567 0.212033361197 -0.226512908936 0.003531 0.973303 -0.229497
-0.475799649954 0.246096581221 -0.080972425640 0.003531 0.973303 -0.229497
-0.387814819813 0.267451614141 0.010482788086 0.003531 0.973303 -0.229497
-0.349748462439 0.265369206667 0.002105824649 0.003531 0.973303 -0.229497
-0.491351872683 0.270747393370 0.023238733411 0.003531 0.973303 -0.229497
-0.315531194210 0.288120061159 0.098848447204 0.003531 0.973303 -0.229497
-0.370965808630 0.310343742371 0.192318826914 0.003531 0.973303 -0.229497
-0.582083940506 0.260622471571 -0.020691037178 0.003531 0.973303 -0.229497
-0.224938094616 0.275680989027 0.047222629189 0.003531 0.973303 -0.229497
-0.247162550688 0.276464641094 0.050283133984 0.003531 0.973303 -0.229497
-0.206227719784 0.226565420628 0.155380561948 0.963239 0.152916 -0.220878
-0.220295041800 0.252204179764 0.002907687798 0.995632 0.040437 -0.084153
-0.206339821219 0.251290321350 0.169320225716 0.995632 0.040437 -0.084153
-0.201634481549 0.188786417246 -0.007803991437 0.894045 0.373873 0.246786
-0.143781840801 0.044490046799 -0.107049249113 0.921131 0.378491 -0.090892
-0.148106724024 0.054374884814 -0.109761223197 0.921131 0.378491 -0.090892
-0.157092034817 0.056780602783 -0.062807455659 -0.468049 -0.856335 0.218222
-0.146048128605 0.033928845078 -0.129383593798 -0.468049 -0.856335 0.218222
-0.287436604500 0.152029588819 -0.004787536338 -0.491285 -0.825046 0.279174
-0.271709263325 0.135533958673 -0.025827718899 -0.491285 -0.825046 0.279174
-0.323030114174 0.172933325171 0.041783630848 -0.003717 -0.947931 0.318455
-0.498629808426 0.134585097432 -0.073259137571 -0.003717 -0.947931 0.318455
-0.336197257042 0.153057634830 -0.017210971564 -0.003717 -0.947931 0.318455
-0.445909738541 0.159099072218 -0.000201542440 -0.003717 -0.947931 0.318455
-0.528306424618 0.176815629005 0.051620066166 -0.003717 -0.947931 0.318455
-0.478057831526 0.156857758760 -0.007103008218 -0.003717 -0.947931 0.318455
-0.667076945305 0.092106506228 -0.019786976278 0.487653 -0.827296 0.278881
-0.625047028065 0.126313477755 0.008325811476 0.487653 -0.827296 0.278881
-0.603486955166 0.160930246115 0.068670079112 0.415934 -0.827123 0.377978
-0.653521478176 0.183754384518 0.018331687897 -0.891849 0.378405 0.247818
-0.662853479385 0.167548537254 0.009505503811 -0.891849 0.378405 0.247818
-0.651423513889 0.297454297543 0.176342740655 -0.995468 0.047298 -0.082497
-0.660289406776 0.236418992281 0.192262843251 -0.962069 0.158814 -0.221814
-0.562546312809 0.205216318369 0.173157960176 0.400567 -0.900198 0.170851
-0.648207008839 0.273566454649 0.254213750362 -0.855921 0.163524 0.490571
-0.583175897598 0.275848031044 0.276447266340 -0.085581 -0.001057 0.996331
-0.627615511417 0.314853966236 0.208439424634 0.003531 0.973303 -0.229497
-0.585578382015 0.294155895710 0.121275946498 0.003531 0.973303 -0.229497
-0.476017087698 0.317084938288 0.219647273421 0.003531 0.973303 -0.229497
-0.541705369949 0.315297275782 0.211314514279 0.003531 0.973303 -0.229497
-0.483809709549 0.310816913843 0.193012997508 0.003531 0.973303 -0.229497
-0.608020365238 0.254836559296 0.274171739817 -0.107791 0.014154 0.994073
-0.496907770634 0.206690624356 0.162828326225 -0.003543 -0.971983 0.235024
-0.486409336329 0.211179539561 0.181516379118 -0.003543 -0.971983 0.235024
-0.493623197079 0.223237857223 0.231316432357 -0.003543 -0.971983 0.235024
-0.315245091915 0.219126597047 0.216335162520 -0.003543 -0.971983 0.235024
-0.211214601994 0.169681712985 0.193963468075 -0.404015 -0.898609 0.171095
-0.242060273886 0.161438226700 0.090086057782 -0.440568 -0.873719 0.206192
-0.202546179295 0.122672826052 0.047208398581 -0.419639 -0.825025 0.378466
-0.194813683629 0.169854387641 0.236020237207 -0.410046 -0.898671 0.155732
-0.246270015836 0.328437000513 0.271354496479 -0.010424 0.981058 -0.193432
-0.520064830780 0.279076993465 0.442033290863 -0.001282 -0.393609 0.919277
-0.522217333317 0.239607483149 0.391965061426 -0.003531 -0.973303 0.229497
-0.539540290833 0.253646701574 0.370850503445 -0.997533 0.003140 0.070131
-0.457728743553 0.224005386233 0.292941421270 -0.003152 -0.997050 0.076696
-0.428646981716 0.223956719041 0.293349415064 -0.003152 -0.997050 0.076696
-0.357315272093 0.224407032132 0.251026302576 -0.003774 -0.937301 -0.348500
-0.542608261108 0.298262894154 0.246769875288 -0.997787 0.056438 0.035141
-0.533744692802 0.322086185217 0.279211878777 0.003086 0.998724 0.050399
-0.404680311680 0.321784853935 0.278191685677 0.003086 0.998724 0.050399
-0.387243479490 0.317519783974 0.360449314117 0.003086 0.998724 0.050399
-0.383375585079 0.318103790283 0.348851740360 0.003086 0.998724 0.050399
-0.520259976387 0.304316580296 0.433167785406 0.001289 0.400751 0.916186
-0.425009816885 0.271875739098 0.439059227705 -0.001282 -0.393609 0.919277
-0.316705882549 0.272610425949 0.291275411844 0.998151 0.049749 0.034930
-0.357514947653 0.238289490342 0.388289511204 -0.003531 -0.973303 0.229497
-0.417279362679 0.179000616074 -0.429167211056 0.002967 0.999956 -0.008902
-0.324236065149 0.179506927729 -0.349579542875 0.002967 0.999956 -0.008902
-0.454864531755 0.179767698050 -0.359746724367 0.002967 0.999956 -0.008902
-0.410706579685 0.118204064667 -0.338690847158 0.001030 0.056668 0.998393
-0.309471130371 -0.036771796644 -0.330063760281 0.001030 0.056668 0.998393
-0.303285419941 -0.210402742028 -0.320381551981 0.001030 0.056668 0.998393
-0.335712969303 0.107865005732 -0.338125914335 0.001030 0.056668 0.998393
-0.310042053461 0.119377858937 -0.338771939278 0.001030 0.056668 0.998393
-0.493253767490 0.117474384606 -0.338637351990 0.001030 0.056668 0.998393
-0.364659488201 -0.034638669342 -0.330174148083 0.001030 0.056668 0.998393
-0.286303520203 -0.069581821561 -0.328237563372 0.001030 0.056668 0.998393
-0.592385768890 -0.300561189651 -0.315308481455 0.001030 0.056668 0.998393
-0.395542740822 -0.292205691338 -0.315805107355 0.001030 0.056668 0.998393
-0.364632338285 -0.232558503747 -0.319136381149 0.001030 0.056668 0.998393
-0.290735810995 -0.339315503836 -0.313194185495 0.001030 0.056668 0.998393
-0.372378289700 -0.236500561237 -0.318915337324 0.001030 0.056668 0.998393
-0.476011574268 -0.231629177928 -0.319170862436 0.001030 0.056668 0.998393
-0.477745205164 -0.302117437124 -0.315239518881 0.001030 0.056668 0.998393
-0.415930747986 -0.119840741158 -0.325414568186 0.001030 0.056668 0.998393
-0.486552536488 -0.144535720348 -0.324026346207 0.001030 0.056668 0.998393
-0.576192140579 -0.235831379890 -0.318920940161 0.001030 0.056668 0.998393
-0.280634045601 -0.385024547577 -0.350943893194 -0.003712 -0.948924 -0.315483
-0.482917189598 -0.390891015530 -0.331571817398 -0.003712 -0.948924 -0.315483
-0.307251453400 -0.362240374088 -0.419462084770 -0.003712 -0.948924 -0.315483
-0.540714800358 -0.374190926552 -0.381477028131 -0.003712 -0.948924 -0.315483
-0.557939529419 -0.387922912836 -0.339905828238 -0.003712 -0.948924 -0.315483
-0.376328259706 -0.368922650814 -0.398730635643 -0.003712 -0.948924 -0.315483
-0.237840414047 -0.348934799433 -0.398447126150 0.643187 -0.722202 -0.254430
-0.210079044104 -0.332134276628 -0.380688548088 0.609086 -0.742672 -0.278303
-0.144374787807 -0.229202955961 -0.262007206678 -0.455792 0.056119 0.888315
-0.195318505168 -0.317562133074 -0.374729424715 0.934461 -0.228361 -0.273193
-0.186994656920 -0.186981201172 -0.339086830616 0.846609 0.216574 -0.486157
-0.182924345136 -0.246298283339 -0.358603626490 0.846609 0.216574 -0.486157
-0.262051284313 0.044219650328 -0.426674574614 0.922627 0.140128 -0.359339
-0.273725658655 0.092184320092 -0.437917232513 0.922627 0.140128 -0.359339
-0.262731790543 0.037673778832 -0.430995225906 0.922627 0.140128 -0.359339
-0.268021523952 0.150157868862 -0.394993007183 0.937313 0.178076 -0.299554
-0.275683462620 0.179219067097 -0.365755051374 0.002967 0.999956 -0.008902
-0.241594761610 0.073064461350 -0.329660177231 0.206338 0.219824 0.953469
-0.264087527990 -0.254107058048 -0.316766321659 -0.260028 0.035738 0.964939
-0.242572918534 -0.032835535705 -0.319270223379 -0.260028 0.035738 0.964939
-0.231342211366 -0.282817423344 -0.305274218321 -0.484087 0.079980 0.871357
-0.238336056471 -0.356171220541 -0.302454948425 -0.484087 0.079980 0.871357
-0.620695233345 -0.173533961177 -0.313649892807 0.259433 0.033198 0.965190
-0.629073798656 -0.145089179277 -0.312403798103 0.259433 0.033198 0.965190
-0.598180115223 0.053114831448 -0.327815413475 0.259433 0.033198 0.965190
-0.692713558674 -0.165895640850 -0.281409502029 0.485154 0.076898 0.871041
-0.663451850414 -0.291019380093 -0.286722362041 0.485154 0.076898 0.871041
-0.643278062344 -0.365212500095 -0.292191207409 0.454754 0.053259 0.889023
0.666998028755 0.095221213996 -0.277858138084 0.730168 -0.149662 -0.666675
0.703487992287 0.025661297143 -0.197728097439 -0.505878 -0.853760 0.123208
0.658038258553 0.046895790845 -0.237624570727 -0.505878 -0.853760 0.123208
0.608270168304 0.067380845547 -0.300500690937 -0.493103 -0.860399 0.128698
0.493581086397 0.105867356062 -0.185131773353 -0.003331 -0.989358 0.145461
0.475385695696 0.098051019013 -0.238418251276 -0.003331 -0.989358 0.145461
0.336592733860 0.087092414498 -0.315229922533 -0.003331 -0.989358 0.145461
0.305488348007 0.104905009270 -0.195143088698 -0.003331 -0.989358 0.145461
0.342154562473 0.100678063929 -0.223096117377 -0.003331 -0.989358 0.145461
0.439948648214 0.112320892513 -0.142410621047 -0.003331 -0.989358 0.145461
0.290086209774 0.101116307080 -0.169781938195 0.501226 -0.856562 0.122779
0.208423882723 0.042208552361 -0.247492402792 0.501226 -0.856562 0.122779
0.202390164137 0.073990315199 -0.073059886694 0.460937 -0.860315 0.217706
0.155992656946 0.066103540361 -0.068588390946 -0.919346 0.382721 -0.091254
0.180389612913 0.128677621484 -0.021682556719 -0.891849 0.378405 0.247818
0.171524077654 0.083714380860 0.006452089176 0.415934 -0.827123 0.377978
0.207242295146 0.084048919380 -0.048771321774 0.487653 -0.827296 0.278881
0.208818376064 0.087615042925 -0.040938794613 0.487653 -0.827296 0.278881
0.320004433393 0.173598125577 0.048973426223 -0.003717 -0.947931 0.318455
0.490087628365 0.129466727376 -0.080398254097 -0.003717 -0.947931 0.318455
0.403327107430 0.154462978244 -0.007043763995 -0.003717 -0.947931 0.318455
0.560899794102 0.127789288759 -0.084793396294 -0.003717 -0.947931 0.318455
0.563647389412 0.141495034099 -0.044163923711 -0.003717 -0.947931 0.318455
0.420077443123 0.161085486412 0.012713317759 -0.003717 -0.947931 0.318455
0.573196589947 0.114983655512 -0.119209781289 -0.491285 -0.825046 0.279174
0.638898849487 0.094172880054 -0.064869269729 -0.491285 -0.825046 0.279174
0.681381523609 0.063031025231 -0.090895697474 -0.468049 -0.856335 0.218222
0.726419210434 0.031487591565 -0.122431501746 0.921131 0.378491 -0.090892
0.692231357098 0.065909430385 -0.238358646631 0.887198 0.423932 -0.182101
0.653135180473 0.194919690490 -0.127084031701 0.887198 0.423932 -0.182101
0.684355735779 0.130633220077 -0.125166833401 0.887198 0.423932 -0.182101
0.631901800632 0.160488456488 -0.311538964510 0.887198 0.423932 -0.182101
0.499913960695 0.246276184916 -0.068888224661 0.003531 0.973303 -0.229497
0.537671566010 0.214380472898 -0.203521862626 0.003531 0.973303 -0.229497
0.629253983498 0.242408245802 -0.083766721189 0.003531 0.973303 -0.229497
0.604534864426 0.216335758567 -0.194465428591 0.003531 0.973303 -0.229497
0.443771481514 0.213407009840 -0.208734273911 0.003531 0.973303 -0.229497
0.481603503227 0.225957021117 -0.155148327351 0.003531 0.973303 -0.229497
0.272658169270 0.279337435961 0.068481370807 0.003531 0.973303 -0.229497
0.365500390530 0.284844696522 0.092881128192 0.003531 0.973303 -0.229497
0.316322505474 0.309173434973 0.195337355137 0.003531 0.973303 -0.229497
0.333761364222 0.281926959753 0.080156713724 0.003531 0.973303 -0.229497
0.415909022093 0.265440940857 0.011295489967 0.003531 0.973303 -0.229497
0.349577873945 0.290849328041 0.118124626577 0.003531 0.973303 -0.229497
0.557560682297 0.279035985470 0.070512011647 0.003531 0.973303 -0.229497
0.530073940754 0.315387398005 0.224133446813 0.003531 0.973303 -0.229497
0.484887808561 0.296359866858 0.143031239510 0.003531 0.973303 -0.229497
0.605183303356 0.312888354063 0.214422956109 0.003531 0.973303 -0.229497
0.655991554260 0.285747796297 0.249949842691 0.858289 0.156986 0.488565
0.677146852016 0.205483198166 0.223119661212 0.984144 0.119254 0.131299
0.670560896397 0.196313798428 0.177087843418 0.963239 0.152916 -0.220878
0.656227290630 0.190558329225 0.083639062941 0.995632 0.040437 -0.084153
0.659473598003 0.272745013237 0.162041932344 0.995632 0.040437 -0.084153
0.704732060432 0.103819318116 -0.024122562259 0.894045 0.373873 0.246786
0.704155802727 0.101769223809 -0.018928017467 0.894045 0.373873 0.246786
0.644624650478 0.128837853670 0.043349888176 -0.419639 -0.825025 0.378466
0.579610288143 0.189484536648 0.128666058183 -0.404015 -0.898609 0.171095
0.514514863491 0.188945993781 0.100889869034 -0.003543 -0.971983 0.235024
0.386706769466 0.190052479506 0.104019001126 -0.003543 -0.971983 0.235024
0.352008551359 0.204725161195 0.164322748780 -0.003543 -0.971983 0.235024
0.381856143475 0.221354395151 0.233451992273 -0.003543 -0.971983 0.235024
0.287998735905 0.199261441827 0.193830847740 0.400567 -0.900198 0.170851
0.222287073731 0.176151216030 0.226918414235 0.403193 -0.901842 0.155293
0.318694084883 0.224195063114 0.254720032215 0.383724 -0.910459 0.154339
0.250411808491 0.229331865907 0.273503214121 -0.085581 -0.001057 0.996331
0.229628235102 0.288240581751 0.105685055256 0.003531 0.973303 -0.229497
0.216727882624 0.161415934563 0.091918885708 -0.995468 0.047298 -0.082497
0.219587042928 0.201158836484 0.080157123506 -0.995468 0.047298 -0.082497
0.195229306817 0.193541884422 0.214687317610 -0.962069 0.158814 -0.221814
0.264340192080 0.300495177507 0.274027645588 -0.107791 0.014154 0.994073
0.641635477543 0.208223730326 0.271979808807 0.107791 0.014154 0.994073
0.344040840864 0.231881484389 -0.131656095386 0.003531 0.973303 -0.229497
0.358529090881 0.215425759554 -0.201174259186 0.003531 0.973303 -0.229497
0.494102358818 0.200087293983 -0.264556288719 0.003531 0.973303 -0.229497
0.461207896471 0.194048270583 -0.290511757135 0.003531 0.973303 -0.229497
0.281790018082 0.193454578519 -0.295107424259 0.003531 0.973303 -0.229497
0.222333520651 0.128724485636 -0.288791835308 -0.883730 0.430910 -0.182589
0.221595004201 0.221963539720 -0.063687272370 -0.883730 0.430910 -0.182589
0.233786731958 0.249121263623 -0.058559995145 -0.883730 0.430910 -0.182589
0.235541924834 0.086183018982 -0.306454539299 -0.731901 -0.146380 -0.665502
0.547743201256 0.250842303038 0.369068115950 0.997533 -0.003140 0.070131
0.549551248550 0.298121958971 0.283523052931 0.998151 0.049749 0.034930
0.329614281654 0.301631033421 0.373848706484 -0.997787 0.056438 0.035141
0.338151395321 0.221584334970 0.289784133434 -0.003152 -0.997050 0.076696
0.393353670835 0.224007695913 0.323663800955 -0.003152 -0.997050 0.076696
0.391030132771 0.239822357893 0.403490096331 -0.003531 -0.973303 0.229497
0.331989318132 0.256421327591 0.429166406393 -0.997543 0.003134 0.069985
0.414596736431 0.243501916528 0.419367223978 -0.003531 -0.973303 0.229497
0.377256959677 0.293067693710 0.437016546726 0.001289 0.400751 0.916186
0.376774877310 0.312437713146 0.418718934059 0.003086 0.998724 0.050399
0.388366311789 0.313915103674 0.389286577702 0.003086 0.998724 0.050399
0.490664839745 0.319451540709 0.275828391314 0.003086 0.998724 0.050399
0.482704937458 0.321003735065 0.245974838734 0.003086 0.998724 0.050399
0.618001043797 -0.349135935307 -0.309324324131 -0.260028 0.035738 0.964939
0.637170851231 -0.114126786590 -0.312976360321 -0.260028 0.035738 0.964939
0.407392919064 -0.132794916630 -0.324820190668 0.001030 0.056668 0.998393
0.518781721592 -0.283789992332 -0.316416621208 0.001030 0.056668 0.998393
0.482934892178 -0.203834220767 -0.320870101452 0.001030 0.056668 0.998393
0.463831156492 -0.168814122677 -0.322820186615 0.001030 0.056668 0.998393
0.495727688074 -0.195715099573 -0.321324884892 0.001030 0.056668 0.998393
0.506125807762 -0.277887225151 -0.316743820906 0.001030 0.056668 0.998393
0.356389552355 -0.338267356157 -0.313353240490 0.001030 0.056668 0.998393
0.531517386436 -0.325615525246 -0.314086019993 0.001030 0.056668 0.998393
0.572142481804 -0.094125092030 -0.327002346516 0.001030 0.056668 0.998393
0.601842761040 -0.393489569426 -0.310311645269 0.001030 0.056668 0.998393
0.324454873800 -0.397181093693 -0.319273024797 -0.003712 -0.948924 -0.315483
0.433030784130 -0.381590425968 -0.367207229137 -0.003712 -0.948924 -0.315483
0.245532274246 -0.359159618616 -0.382603466511 -0.647974 -0.717683 -0.255071
0.210971146822 -0.359953671694 -0.302996605635 -0.613965 -0.738352 -0.279075
0.183366030455 -0.300734102726 -0.333695352077 -0.936337 -0.221874 -0.272110
0.190700054169 -0.290460556746 -0.279671758413 0.454754 0.053259 0.889023
0.201590761542 -0.115186519921 -0.301034986973 0.485154 0.076898 0.871041
0.210463762283 -0.229962959886 -0.295915216208 0.485154 0.076898 0.871041
0.271165788174 -0.181579798460 -0.320056587458 0.259433 0.033198 0.965190
0.262392073870 -0.136661320925 -0.319291740656 0.259433 0.033198 0.965190
0.505056738853 0.156434848905 -0.340965420008 0.001030 0.056668 0.998393
0.311937302351 -0.097365081310 -0.326781213284 0.001030 0.056668 0.998393
0.343922585249 -0.009381324053 -0.331692934036 0.001030 0.056668 0.998393
0.267230093479 -0.337499469519 -0.313382238150 0.001030 0.056668 0.998393
0.304837852716 -0.084281563759 -0.327509760857 0.001030 0.056668 0.998393
0.344541698694 0.023333907127 -0.333517551422 0.001030 0.056668 0.998393
0.349638819695 0.042710304260 -0.334598958492 0.001030 0.056668 0.998393
0.321264088154 0.142343312502 -0.340150952339 0.001030 0.056668 0.998393
0.486551165581 0.177299886942 -0.347912997007 0.002967 0.999956 -0.008902
0.452708274126 0.176549613476 -0.436120867729 0.002967 0.999956 -0.008902
0.253382682800 0.100226208568 -0.355691790581 -0.936472 0.184520 -0.298284
0.217148408294 -0.030551152304 -0.322851717472 -0.936472 0.184520 -0.298284
0.256327450275 0.042513102293 -0.394740313292 -0.921981 0.146457 -0.358471
0.246542632580 -0.129644498229 -0.440137177706 -0.921981 0.146457 -0.358471
0.220648989081 -0.136711746454 -0.376431614161 -0.921981 0.146457 -0.358471
0.189470246434 -0.134667158127 -0.309883207083 -0.845865 0.223235 -0.484436
0.505231320858 -0.360715389252 -0.430785059929 -0.003712 -0.948924 -0.315483
0.449355244637 -0.364982306957 -0.417449206114 -0.003712 -0.948924 -0.315483
0.693573653698 -0.202720507979 -0.280845046043 -0.484087 0.079980 0.871357
0.353011250496 1.225286245346 0.263140976429 -0.001354 -0.838040 -0.545606
0.324920505285 1.267823457718 0.276640206575 -0.996286 0.005305 0.085942
0.333200812340 1.225497722626 0.335463315248 -0.003201 -0.995476 0.094960
0.372447401285 1.229145526886 0.374994575977 -0.003201 -0.995476 0.094960
0.449564188719 1.225818395615 0.342195332050 -0.003201 -0.995476 0.094960
0.550769686699 1.221544623375 0.300129532814 -0.003201 -0.995476 0.094960
0.556959629059 1.242813706398 0.282609075308 0.996315 -0.001059 0.085761
0.433062434196 1.358139276505 0.271772474051 0.001375 0.782341 -0.622848
0.467542499304 1.336814880371 0.353805899620 0.003598 0.965528 0.260273
0.494866073132 1.335893630981 0.356955200434 0.003598 0.965528 0.260273
0.546688020229 1.285749793053 0.414769619703 0.998417 -0.011428 0.055064
0.480339348316 1.294733881950 0.420765250921 0.001207 0.273924 0.961751
0.375640779734 1.332569241524 0.370539993048 0.003598 0.965528 0.260273
-0.542399644852 1.222901701927 0.280208736658 -0.996286 0.005305 0.085942
-0.510443210602 1.232769966125 0.387676000595 -0.003201 -0.995476 0.094960
-0.392929196358 1.227795243263 0.338701099157 -0.003201 -0.995476 0.094960
-0.382341474295 1.222057104111 0.278607696295 -0.003201 -0.995476 0.094960
-0.315044522285 1.229325056076 0.259746044874 -0.001354 -0.838040 -0.545606
-0.536210238934 1.352542877197 0.305527418852 0.003598 0.965528 0.260273
-0.525745451450 1.349387407303 0.317160785198 0.003598 0.965528 0.260273
-0.417502522469 1.339884281158 0.351414650679 0.003598 0.965528 0.260273
-0.395947962999 1.320911288261 0.413978368044 0.001207 0.273924 0.961751
-0.531692624092 1.257084369659 0.409034907818 -0.998488 -0.005163 0.054726
-0.314855813980 1.321457386017 0.339904814959 0.997228 -0.013777 0.073123
-0.310547590256 1.290209650993 0.284966826439 0.996315 -0.001059 0.085761
-0.360379606485 1.286204338074 0.423861205578 0.001207 0.273924 0.961751
-0.535812735558 1.299458503723 0.355589896441 -0.997329 -0.007372 0.072667
0.430294811726 -0.545961260796 0.272491961718 0.127243 0.832196 -0.539684
0.438268661499 -0.541077852249 0.286082506180 0.121849 0.306632 0.943997
0.261915892363 -0.458779931068 0.068085148931 0.704872 0.501575 0.501575
0.286198973656 -0.448303818703 0.007192684337 -0.570383 0.770573 -0.284397
0.506783545017 -0.442694634199 -0.014308912680 -0.353198 0.344024 0.869999
0.503352820873 -0.455775320530 -0.023556701839 -0.368169 -0.811247 0.454235
0.590490758419 -0.459793359041 0.042479038239 -0.555876 0.414021 0.720825
0.624235749245 -0.467971503735 0.095233365893 -0.703181 0.506090 0.499409
0.578543782234 -0.534058034420 0.199315115809 -0.558908 -0.410525 -0.720480
0.619297742844 -0.515899598598 0.117560103536 -0.762676 -0.603590 -0.232390
0.498072117567 -0.422026634216 -0.028310108930 0.127243 0.832196 -0.539684
0.645718932152 -0.497198343277 0.109436988831 0.757706 -0.610852 -0.229655
0.629324257374 -0.527043521404 0.172588557005 0.710585 -0.702041 0.046993
0.347177147865 -0.554323196411 0.141877979040 -0.284397 -0.343956 0.894881
0.382334679365 -0.598158299923 0.137387767434 -0.283724 -0.295364 0.912283
0.333807140589 -0.631179809570 0.097471661866 -0.951413 0.092662 -0.293646
0.336454570293 -0.699819266796 0.065014123917 -0.980227 0.191758 0.048833
0.348372370005 -0.632446229458 0.040503483266 -0.980227 0.191758 0.048833
0.382626384497 -0.708819806576 0.088910512626 -0.001295 -0.413217 0.910632
0.359266996384 -0.713805735111 0.086613312364 -0.001295 -0.413217 0.910632
0.537611365318 -0.709133327007 0.041668992490 0.999852 -0.016913 -0.002985
0.507297456264 -0.568016588688 0.026445414871 0.885644 0.383829 -0.261362
0.538626492023 -0.591121971607 0.098838791251 0.885644 0.383829 -0.261362
0.539667427540 -0.565751969814 0.132286503911 0.284104 -0.346578 0.893962
0.556894600391 -0.550312161446 0.098220147192 0.503370 -0.794206 -0.340374
0.621437907219 -0.515422582626 0.109679751098 0.487897 -0.813162 -0.317370
0.564750313759 -0.501700639725 0.153015866876 0.291987 0.141284 0.945929
0.570894479752 -0.478954792023 0.117895036936 0.003786 0.935020 0.354576
0.382709473372 -0.503859579563 0.174833148718 -0.139909 -0.356005 0.923951
0.490155071020 -0.499190807343 0.171800404787 0.035039 0.930479 0.364665
0.396983414888 -0.451864689589 0.049252226949 -0.029354 0.940612 0.338212
0.351784795523 -0.497774541378 0.072043418884 -0.846906 0.366525 -0.385241
0.286038547754 -0.504168272018 0.072143137455 0.296990 0.551100 -0.779798
0.271972775459 -0.527213215828 0.140179798007 -0.104630 -0.357373 0.928082
0.269520491362 -0.501854240894 0.142011761665 -0.292732 0.141644 0.945645
0.498402863741 -0.475334048271 0.049162257463 0.849703 0.360149 -0.385095
-0.026657711715 -0.338807404041 0.472712486982 0.166782 0.985941 -0.010211
0.082972876728 -0.357320696115 0.481467157602 0.166782 0.985941 -0.010211
-0.098293669522 -0.333941102028 0.526145935059 -0.618111 -0.786061 0.006883
-0.765916824341 -0.540412902832 0.289082556963 0.923813 0.011596 -0.382667
-0.800266265869 -0.606184899807 0.204386681318 0.923813 0.011596 -0.382667
-0.782693028450 -0.518392086029 0.285369157791 0.003177 0.996489 -0.083659
0.776492953300 -0.585945725441 0.268093526363 -0.923367 0.016788 -0.383552
0.765077054501 -0.572942793369 0.296195745468 -0.923367 0.016788 -0.383552
0.757508695126 -0.520511567593 0.316792577505 -0.923367 0.016788 -0.383552
-0.757470011711 -0.742858707905 -0.508925080299 -0.999411 0.013271 -0.031646
0.712663531303 -1.813778519630 -0.014331771061 0.661530 -0.001381 0.749918
0.688650906086 -1.823722243309 -0.004950178321 0.229498 -0.001177 0.973308
0.627804398537 -1.873743414879 -0.030192144215 -0.957110 0.003667 0.289700
0.692976176739 -1.846562147141 -0.036067411304 -0.548596 -0.568852 -0.612740
0.656741499901 -1.874028086662 -0.088134564459 0.189674 -0.547778 0.814839
-0.447823017836 2.041742801666 0.045700334013 -0.846453 0.400623 -0.350740
-0.486107230186 2.016981124878 0.092803977430 0.189655 0.808688 0.556826
-0.527263939381 1.935696721077 0.036828201264 0.707607 0.666814 0.233777
-0.541948080063 1.963138937950 0.069656498730 0.432039 0.662238 -0.612195
-0.640695512295 1.982863783836 0.058977570385 -0.929839 0.150598 -0.335737
-0.702751636505 1.903446197510 0.014281621203 0.022133 0.187548 0.982006
-0.710562229156 1.893771886826 0.020837502554 0.294195 0.394801 0.870391
-0.793357431889 1.804534673691 0.135410949588 -0.370016 0.508974 -0.777196
-0.737111330032 1.844848275185 0.133799687028 -0.236435 0.365666 -0.900215
-0.784040093422 1.846296787262 0.034587115049 0.168002 0.515901 0.840012
-0.666070401669 1.905905127525 0.038041427732 -0.571262 0.812102 0.118952
-0.709175586700 1.868149757385 0.100666627288 -0.656543 0.749711 0.082978
-0.791935145855 1.797494530678 0.045453406870 -0.706775 0.703884 0.070822
0.654970884323 1.982758641243 0.069333091378 -0.914107 0.147437 0.377718
0.620995521545 1.983106493950 -0.006830590311 -0.894754 0.168577 0.413518
0.482381135225 2.037932395935 -0.010445051827 0.052608 0.226335 0.972628
0.474085509777 2.032392740250 0.024837134406 0.859871 0.401478 -0.315337
0.615191221237 1.977299571037 0.135454878211 0.206746 0.222961 -0.952651
0.589936017990 2.001313447952 0.003406382632 0.375407 0.488190 -0.787871
0.610254645348 1.999720096588 0.086132213473 -0.428370 0.665056 -0.611718
0.529979825020 2.000308990479 0.084351852536 0.672467 0.287283 -0.682097
0.517268419266 2.004061937332 0.068995699286 0.950019 0.151842 -0.272778
0.504840016365 2.020144939423 0.060098387301 -0.389007 0.900934 0.192334
0.630578339100 1.957509040833 0.134364604950 0.327500 0.852120 0.408210
0.708472013474 1.908308863640 0.014811253175 0.344563 0.250725 0.904662
0.774191677570 1.836850285530 0.097205847502 0.720105 0.691358 0.058931
0.478688269854 2.025968313217 -0.001487895846 0.301087 0.953236 0.026236
0.816016912460 -1.679296255112 0.017646485940 0.371548 -0.422141 -0.826891
0.495127350092 -2.020996570587 -0.075666010380 0.827534 -0.159543 -0.538270
0.506389737129 -1.971316456795 -0.073685355484 0.848093 -0.173777 -0.500539
0.473358869553 -2.051675081253 -0.105636112392 0.879299 -0.174104 -0.443307
0.491691678762 -1.993441939354 -0.106449469924 0.546897 -0.337173 0.766301
0.823921978474 -1.831084251404 -0.078445442021 0.188934 -0.423270 0.886085
0.709836006165 -1.877460360527 -0.093535952270 -0.481545 -0.094614 0.871299
0.688496351242 -1.948192358017 -0.106203027070 -0.106145 -0.045810 0.993295
0.529158771038 -1.925550341606 -0.071764200926 0.883832 -0.245923 -0.397948
0.573879539967 -1.899640440941 -0.040213491768 -0.128451 -0.810568 -0.571384
0.603703558445 -1.912207961082 -0.096539199352 -0.377636 -0.817415 0.434999
0.603989064693 -1.904725313187 -0.076650433242 -0.526566 -0.833854 0.165577
0.584712684155 -1.892388105392 -0.015536887571 0.228891 -0.065574 0.971241
0.547226607800 -1.935912132263 -0.034806367010 0.754025 -0.165370 -0.635687
-0.806868791580 -1.848478674889 -0.084816947579 -0.163308 -0.341970 0.925412
-0.704489171505 -1.923876285553 -0.098952040076 -0.077374 -0.323922 0.942914
-0.520144581795 -1.977245211601 -0.044212728739 -0.828859 -0.156248 -0.537196
-0.808077931404 -1.673522710800 0.015830902383 -0.374766 -0.419042 -0.827015
-0.584721207619 -1.954580068588 -0.111633747816 0.230903 0.078632 0.969794
-0.621772527695 -1.895631670952 -0.077939927578 0.706165 -0.104672 0.700268
-0.713722169399 -1.872932076454 -0.088911704719 0.532644 -0.146071 0.833639
-0.607022523880 -1.878590464592 -0.029087688774 -0.659666 -0.064673 0.748771
-0.600722968578 -1.846137404442 -0.020715277642 -0.659666 -0.064673 0.748771
-0.603707551956 -1.926632165909 -0.034227322787 0.646720 -0.227057 -0.728147
-0.554114580154 -1.897884368896 -0.094286419451 -0.137992 -0.802728 0.580160
-0.568256139755 -1.903708100319 -0.103455737233 0.131848 -0.804421 0.579243
-0.595821261406 -1.897455334663 -0.070212453604 0.519371 -0.837839 0.168163
-0.575286865234 -1.876079320908 -0.018755560741 -0.368237 -0.284069 -0.885272
-0.511480629444 -1.950216770172 -0.077629432082 -0.896050 -0.206106 -0.393210
-0.518522024155 -1.932477235794 -0.101906538010 -0.616214 -0.261376 0.742942
-0.726197302341 1.906485557556 0.076444409788 -0.661331 0.006932 0.750063
-0.684890151024 1.883211255074 0.010662958957 0.230024 0.003539 -0.973179
-0.724900901318 1.925228714943 0.024256151170 -0.661331 0.006932 -0.750063
0.832627296448 1.852744340897 0.100276574492 0.841401 0.069292 0.535951
0.734260618687 1.776582002640 0.128049418330 -0.440150 0.117468 0.890207
0.794321596622 1.803212165833 0.135592609644 0.424365 0.052540 0.903965
0.815188169479 1.843050003052 0.122709542513 0.462121 0.067594 0.884237
0.830595672131 1.869740962982 0.101055823267 0.841581 0.081168 0.533998
0.765031635761 1.882588505745 0.060549978167 0.956644 0.001219 0.291258
0.699946045876 -1.894047379494 -0.058501943946 0.278164 -0.957551 -0.075630
0.665803015232 -1.833758354187 -0.060135822743 0.547929 -0.697819 0.461327
0.676905751228 -1.801318883896 -0.024278039113 0.547929 -0.697819 0.461327
0.730128049850 -1.749169468880 -0.009227212518 0.581819 -0.678512 0.448451
0.823244690895 -1.725825548172 -0.044833850116 0.956849 -0.016050 -0.290141
0.825607538223 -1.767844200134 -0.034546144307 0.956849 -0.016050 0.290141
0.793252408504 -1.700923681259 0.006017357111 0.229351 -0.013072 0.973256
-0.664226233959 -1.841779232025 -0.102721817791 -0.427429 -0.890837 0.153990
-0.605882644653 -1.857223033905 -0.034548003227 -0.551530 -0.694827 0.461552
-0.748553574085 -1.761528730392 -0.064161889255 -0.585336 -0.675388 0.448591
-0.761838138103 -1.763788938522 -0.071639180183 -0.241344 -0.679866 0.692485
-0.803965091705 -1.739119887352 -0.003349946812 -0.661315 -0.009705 0.750045
-0.729919373989 -1.779351115227 -0.058058362454 0.661109 -0.012526 -0.750185
-0.670887589455 -1.841275334358 -0.072937920690 -0.192917 -0.545331 0.815719
-0.660394370556 -1.839823722839 -0.037762321532 -0.548596 -0.568852 -0.612740
-0.680673122406 -1.877976059914 -0.096692785621 0.189674 -0.547778 0.814839
-0.737296581268 -2.004423379898 -0.348622202873 -0.598510 -0.800349 -0.035042
-0.597739756107 -2.087497234344 -0.355153173208 -0.447379 -0.890603 -0.081719
0.578315198421 -2.098344564438 -0.390001207590 0.438413 -0.894805 -0.084363
0.690172076225 -2.041693449020 -0.358988612890 0.527741 -0.848006 -0.048736
0.753076791763 -1.998171210289 -0.367277592421 0.601004 -0.798054 -0.043633
-0.757156133652 1.891228675842 0.069973446429 -0.134836 0.949190 -0.284356
-0.686461687088 1.930458426476 0.085326552391 0.086514 0.935685 0.342064
0.027187397704 1.787352204323 0.604310989380 -0.001340 0.861485 -0.507781
0.596517562866 2.000663280487 0.042038794607 0.305829 0.946613 -0.101943
0.762257277966 1.925144553185 0.044548407197 0.315275 0.943164 -0.105092
-0.549143373966 1.065980434418 0.613091409206 -0.153233 0.097731 0.983345
-0.553882122040 0.793533563614 0.633487105370 -0.130759 0.063644 0.989369
-0.558403253555 0.539284110069 0.641849875450 -0.103701 0.018557 0.994435
-0.547381699085 0.556624889374 0.642629921436 -0.096377 0.018409 0.995175
-0.560318589211 0.271501690149 0.636505544186 -0.079961 -0.047101 0.995685
-0.560016155243 -0.007765489630 0.613581657410 -0.123972 -0.150976 0.980733
-0.575759172440 -0.133007794619 0.591265141964 -0.102926 -0.192212 0.975941
-0.574477136135 -0.191216394305 0.579423904419 -0.037126 -0.214371 0.976047
0.557053923607 1.326277732849 0.584020197392 0.153420 0.121509 0.980662
0.572911083698 0.487888544798 0.642187058926 0.096377 0.018409 0.995175
0.555897414684 0.414676606655 0.644374430180 0.096640 -0.047765 0.994173
0.578305006027 0.367791950703 0.640063285828 0.079970 -0.044914 0.995785
0.570773541927 0.048812549561 0.620457828045 0.114216 -0.104797 0.987913
-0.647250711918 0.924094378948 0.565841495991 -0.824880 0.063670 0.561711
-0.651100397110 1.122263431549 0.529820322990 -0.867406 0.082945 0.490640
-0.648377120495 1.252411961555 0.510875105858 -0.857728 0.113502 0.501419
-0.646374166012 1.319537997246 0.499188989401 -0.859714 0.113385 0.498031
-0.707952499390 1.405760645866 0.371763437986 -0.862013 0.098312 0.497261
-0.751234292984 1.345198392868 0.303081691265 -0.886418 0.084885 0.455037
-0.767272830009 1.187231063843 0.299891650677 -0.908257 0.077851 0.411106
-0.739800691605 1.133529067039 0.367392063141 -0.873312 0.085784 0.479548
-0.698424577713 1.111971497536 0.446966648102 -0.877695 0.076746 0.473034
-0.782095015049 1.163030743599 0.270366936922 -0.930924 -0.037758 0.363256
-0.769553720951 0.364275515079 0.366280138493 -0.910660 0.011725 0.412989
-0.740528464317 0.434630841017 0.427357733250 -0.908175 0.025044 0.417840
-0.823303222656 0.724321901798 0.229633927345 -0.912108 0.017012 0.409598
-0.764370322227 1.084640502930 0.291613876820 -0.922062 0.024710 0.386252
-0.729503333569 1.092382311821 0.379540920258 -0.921426 -0.117072 0.370498
-0.654893875122 0.988384306431 0.544668436050 -0.889594 0.053130 0.453652
0.716197192669 0.421061903238 0.496598988771 0.880767 0.017428 0.473228
0.764855921268 0.410679489374 0.395486921072 0.909243 0.017057 0.415916
0.743496835232 0.384554445744 0.443079441786 0.910626 0.003886 0.413214
0.797313690186 0.376825720072 0.317768365145 0.946379 0.008728 0.322941
0.829957365990 0.362248420715 0.229606881738 0.285583 -0.021017 0.958124
0.699542045593 1.024956107140 0.470276564360 0.932723 -0.089659 0.349269
0.749700844288 1.092539072037 0.365102320910 0.919974 -0.123124 0.372140
0.776521921158 1.110359191895 0.295770496130 0.941422 -0.029380 0.335948
0.781931877136 1.087882161140 0.282267361879 0.921675 0.016852 0.387596
0.816852331161 0.851103067398 0.243901133537 -0.043047 -0.034647 0.998472
0.664780318737 0.978083848953 0.551648437977 0.890404 0.047579 0.452678
0.664469897747 0.675397038460 0.581173896790 0.864630 0.020296 0.501999
0.793465554714 1.269831418991 0.259434521198 0.907239 0.069369 0.414855
0.667642593384 1.089272022247 0.529879808426 0.867295 0.077062 0.491794
