0.866895616055 -1.871289849281 -0.011249218136 -0.207235 0.001158 0.978290
0.812257528305 -2.143067836761 -0.380423128605 -0.609379 -0.792878 0.001369
0.770820140839 -2.166766166687 -0.317021191120 -0.308835 0.001230 0.951115
0.667966246605 0.577222883701 0.860455989838 0.999999 0.000978 0.000978
0.667966246605 0.234415143728 0.840023577213 0.999999 0.000978 0.000978
0.667966246605 -0.043369095773 0.824059903622 0.999999 0.000978 0.000978
0.643582999706 0.986957430840 0.863073348999 0.000999 0.022971 0.999736
0.655205965042 1.091173052788 0.859889566898 0.001007 0.031203 0.999513
0.645669758320 0.238854050636 0.854909598827 0.001007 -0.031203 0.999513
0.649125039577 0.175545960665 0.851026296616 0.001085 -0.118289 0.992979
0.659022092819 1.116939067841 0.837875127792 0.001007 -0.031203 -0.999513
0.657539248466 0.857494890690 0.844870150089 0.000999 -0.022971 -0.999736
0.648341834545 0.532970070839 0.842592060566 0.001003 0.027071 -0.999633
0.655645132065 0.337816953659 0.836766123772 0.001007 0.031203 -0.999513
0.652031958103 0.319587647915 0.836204648018 0.001007 0.031203 -0.999513
0.657449066639 0.115604363382 0.822595834732 0.001085 0.118289 -0.992979
0.641471266747 0.786259949207 0.861910998821 -0.999999 0.000978 0.000978
0.711032211781 2.037307024002 -0.516688048840 -0.307907 0.060551 -0.949488
0.591767132282 2.023884296417 -0.498057901859 -0.049297 0.809879 -0.584522
0.732114374638 2.004858732224 -0.475205600262 0.677001 -0.453006 0.580048
0.700816869736 0.982175111771 0.775162220001 0.999999 0.000978 0.000978
0.712734222412 1.013824105263 0.735297441483 0.945148 0.001242 0.326641
0.161877319217 2.139228105545 0.454015791416 -0.070166 -0.591395 0.803324
0.362422138453 2.117150068283 0.456831693649 -0.103513 -0.590460 0.800401
0.320412576199 2.140069961548 0.450141400099 0.088393 0.798431 0.595563
0.001871380024 2.173333883286 0.441510051489 0.055233 0.803007 0.593404
0.002013815567 -0.209244549274 0.876598119736 0.703778 0.422267 -0.571302
0.003906516358 -0.539088547230 0.667599797249 0.001297 -0.421606 0.906778
-0.578544139862 -1.274481415749 0.205593645573 0.416866 0.642737 0.642737
-0.438852578402 -1.296625971794 0.203588694334 -0.020374 0.857075 0.514788
-0.208665847778 -1.308179020882 0.200386241078 0.001339 0.858436 0.512919
-0.196375265718 -1.307602524757 0.199425399303 0.001339 0.858436 0.512919
-0.171325370669 -1.326081514359 0.230223819613 0.001339 0.858436 0.512919
0.096409037709 -1.335790514946 0.241206750274 -0.057209 0.855349 0.514884
0.087072595954 -1.315273761749 0.205949738622 -0.057209 0.855349 0.514884
0.168381705880 -1.333954453468 0.243345379829 0.001339 0.858436 0.512919
0.625357687473 -1.264253020287 0.204807817936 -0.133552 0.700772 0.700772
0.761640489101 -1.184689879417 0.195965677500 0.999856 -0.016913 0.000995
0.761600196362 -1.159618973732 0.155435279012 0.999721 -0.005014 -0.023063
0.754810750484 -1.040482878685 -0.019668724388 0.001081 0.113516 -0.993536
0.452335059643 -1.279555916786 0.205304905772 0.027112 -0.199217 0.979580
0.330579608679 -1.258257508278 0.212368682027 -0.022246 -0.197869 0.979976
0.221896663308 -1.248147606850 0.212358668447 -0.003362 -0.158033 0.987428
0.182674378157 -1.285567283630 0.201603889465 -0.007660 -0.121472 0.992565
0.064604602754 -1.280038952827 0.203084304929 0.012020 -0.114740 0.993323
-0.113597773015 -1.288041234016 0.201638132334 -0.012023 -0.112583 0.993570
-0.612924993038 -1.206229925156 0.198381662369 0.035424 -0.147409 0.988441
-0.747747778893 -1.146789312363 0.189152464271 -0.139879 -0.147306 0.979150
-0.761507689953 -1.188831806183 0.174816265702 -0.999976 -0.006883 0.000983
-0.762222528458 -1.047613501549 0.032939888537 -0.999852 -0.016913 -0.002985
-0.761688649654 -1.072662591934 -0.011706244200 -0.999852 -0.016913 -0.002985
-0.661738872528 -1.089478969574 -0.020753070712 0.050996 0.118990 -0.991585
0.328461587429 -1.309375643730 0.213994696736 -0.051325 0.855873 0.514633
0.523321688175 -1.286426305771 0.209075719118 -0.092220 0.704094 0.704094
-0.036098949611 1.747974276543 0.756035804749 0.008454 -0.262086 -0.965007
-0.025971429422 1.738749861717 0.758585393429 0.006004 -0.255789 -0.966714
-0.065732821822 1.670263051987 0.776515662670 0.006004 -0.255789 -0.966714
0.070483438671 1.736186146736 0.758777320385 -0.008426 -0.256380 -0.966539
0.096130281687 1.714446067810 0.764309525490 -0.008426 -0.256380 -0.966539
0.119539484382 1.705891251564 0.766375422478 -0.006025 -0.261481 -0.965190
0.258390367031 1.690651893616 0.767052888870 -0.061413 -0.259438 -0.963805
0.345721751451 1.559332132339 0.797136783600 -0.061413 -0.259438 -0.963805
0.042297422886 1.561251997948 0.805683016777 -0.003607 -0.260877 -0.965365
0.068983860314 1.626557350159 0.788101434708 -0.006004 -0.255789 -0.966714
-0.149132564664 1.562648296356 0.804886281490 0.003592 -0.257437 -0.966288
-0.126749336720 1.630109667778 0.786842226982 0.006025 -0.261481 -0.965190
-0.245507612824 1.566700816154 0.801377058029 0.061413 -0.259438 -0.963805
-0.292889356613 1.624650359154 0.782724201679 0.061413 -0.259438 -0.963805
-0.231410145760 1.683269858360 0.770702958107 0.061413 -0.259438 -0.963805
-0.352673351765 1.631233930588 0.775221884251 0.177921 -0.368653 -0.912381
-0.552286982536 1.548332452774 0.769759416580 0.177921 -0.368653 -0.912381
-0.414912909269 1.659333825111 0.755665540695 0.054775 -0.150340 -0.987116
-0.554687917233 1.573311209679 0.760991990566 0.054775 -0.150340 -0.987116
-0.398627489805 1.663104772568 0.756004631519 0.054775 -0.150340 -0.987116
-0.632290959358 1.572939157486 0.746197462082 0.289200 -0.309752 -0.905769
-0.575237572193 1.676920413971 0.732658147812 0.103276 -0.038867 -0.993893
-0.686230003834 1.672930717468 0.697629153728 0.513371 -0.138947 -0.846843
-0.744525849819 1.711139917374 0.610493957996 0.757009 -0.369551 -0.538860
-0.737868130207 1.734348773956 0.604995489120 0.805639 -0.220280 -0.549930
-0.753803312778 1.808634400368 0.542980194092 0.781505 -0.389944 -0.487025
-0.735753118992 1.867373108864 0.525487065315 0.757332 -0.340719 -0.557099
-0.210811316967 1.696247816086 0.768394052982 0.008454 -0.262086 -0.965007
0.447894752026 1.596517920494 0.770780384541 -0.177921 -0.368653 -0.912381
0.555118560791 1.550759792328 0.768341720104 -0.177921 -0.368653 -0.912381
0.496408551931 1.632633924484 0.755203723907 -0.054775 -0.150340 -0.987116
0.283368349075 1.722476840019 0.753420591354 -0.054775 -0.150340 -0.987116
0.622037470341 1.567775011063 0.751405060291 -0.289200 -0.309752 -0.905769
0.626100718975 1.614350199699 0.729848206043 -0.103276 -0.038867 -0.993893
0.723268270493 1.663206696510 0.663588047028 -0.684432 -0.369298 -0.628627
0.723103106022 1.775169849396 0.608735918999 -0.815102 -0.269623 -0.512750
0.741475224495 1.890656471252 0.502521514893 -0.751437 -0.379794 -0.539535
0.770724773407 1.907617449760 0.438034713268 -0.763608 -0.550508 -0.337408
0.740902423859 1.948575735092 0.450263977051 -0.793752 -0.438099 -0.421933
0.729224920273 1.966963768005 0.444618731737 -0.738924 -0.646751 -0.188956
-0.791163682938 1.430851817131 0.431637257338 0.902878 -0.003920 0.429880
-0.785476267338 1.485509991646 0.445464342833 0.911477 -0.030339 -0.410231
-0.780645906925 1.442978858948 0.459264397621 0.911477 -0.030339 -0.410231
-0.785290062428 1.654049396515 0.433622241020 0.911477 -0.030339 -0.410231
-0.763889729977 1.644010782242 0.481995254755 0.985528 -0.059907 -0.158577
-0.767044782639 1.544623255730 0.482888311148 0.917969 -0.032832 -0.395291
-0.755653262138 1.639580011368 0.501537382603 0.917969 -0.032832 -0.395291
-0.772045731544 1.431005954742 0.485292255878 0.993812 -0.101273 -0.045629
-0.772442996502 1.383374214172 0.502923607826 0.948322 -0.063221 -0.310947
-0.767767488956 1.449447035789 0.503771245480 0.948322 -0.063221 -0.310947
-0.753018438816 1.504460692406 0.544923722744 0.973573 -0.194715 0.119341
-0.711392164230 1.659613609314 0.635346233845 0.939520 -0.094618 -0.329165
-0.732074677944 1.564397096634 0.620250582695 0.860770 -0.092175 -0.500579
-0.810264408588 1.820556402206 0.389145374298 0.778841 0.004135 -0.627208
-0.793771028519 1.682206153870 0.408506631851 0.778841 0.004135 -0.627208
-0.704450845718 0.331843405962 0.691393971443 0.618287 0.733318 -0.282783
-0.772785663605 0.246560707688 0.471694141626 0.075869 -0.993097 0.089458
-0.748492240906 0.250272810459 0.484429538250 0.132728 -0.990357 0.039705
-0.722146034241 0.257502764463 0.578098416328 -0.175270 -0.971021 0.162477
-0.628267049789 0.309880435467 0.761808633804 -0.029605 0.017354 0.999411
-0.724701881409 0.303688287735 0.519914865494 0.969472 -0.008368 -0.245058
-0.660183668137 0.306072890759 0.698749959469 0.831382 -0.009556 -0.555620
-0.742015540600 0.241322875023 0.368376255035 0.997778 -0.009423 -0.065960
-0.765027999878 0.256070941687 0.287374645472 0.916701 -0.006465 -0.399521
-0.748054981232 0.294920146465 0.329647660255 -0.044059 0.999003 0.007172
-0.742401719093 0.173463448882 0.365257740021 0.997991 -0.001038 -0.063348
-0.719977736473 0.206397369504 0.572194159031 -0.019540 -0.985032 0.171260
-0.732371032238 0.213664352894 0.492811739445 0.969616 -0.008348 -0.244491
-0.741908609867 0.209139242768 0.370838910341 0.997849 -0.001041 -0.065552
-0.738437294960 0.195623129606 0.425726413727 0.998053 -0.009406 -0.061660
-0.756256878376 0.203176230192 0.308393120766 0.916701 -0.006465 -0.399521
-0.819118618965 0.183932065964 0.227385818958 -0.690123 -0.012548 -0.723583
-0.754457831383 0.248331815004 0.474549800158 -0.131573 0.983781 -0.121916
-0.758898258209 0.235190734267 0.359518796206 -0.001075 0.994321 -0.106419
-0.815027773380 0.231532305479 0.225575163960 0.019281 0.999587 -0.021311
-0.813826441765 0.228503659368 0.301504850388 -0.441257 0.881057 0.170386
-0.743820607662 0.188301861286 0.462434768677 -0.019138 -0.989542 0.142971
-0.514456987381 -0.375316023827 0.694920241833 0.142854 0.271022 -0.951914
-0.623947858810 -0.039907816797 0.747474253178 0.190862 0.076588 -0.978625
-0.605607628822 -0.092612825334 0.746496021748 0.187874 0.193129 -0.963018
-0.513841807842 -0.257131278515 0.724339365959 0.114048 0.196764 -0.973795
-0.457008510828 -0.257711261511 0.730908930302 0.114048 0.196764 -0.973795
-0.434954583645 -0.386586248875 0.702971696854 0.114101 0.234612 -0.965370
-0.572753012180 -0.282248228788 0.712038397789 0.114101 0.234612 -0.965370
-0.297129452229 -0.383177489042 0.712987720966 0.060540 0.235981 -0.969870
-0.061808880419 -0.371580481529 0.720217287540 0.001168 0.220763 -0.975327
-0.027966812253 -0.410842835903 0.711384236813 0.001168 0.220763 -0.975327
0.013360515237 -0.399814903736 0.713865220547 0.001168 0.220763 -0.975327
0.011017527431 -0.408122837543 0.711996197701 0.001168 0.220763 -0.975327
0.150206118822 -0.422953754663 0.712017238140 0.000978 -0.999999 0.000978
0.355293631554 -0.370664179325 0.712443113327 -0.060540 0.235981 -0.969870
0.249831840396 -0.291782826185 0.736290812492 -0.049747 0.219616 -0.974317
0.228436604142 -0.281038194895 0.739777863026 -0.049747 0.219616 -0.974317
0.184789121151 -0.311056464911 0.733833611012 0.001168 0.220763 -0.975327
0.075038917363 -0.270109087229 0.742940723896 0.001149 0.196558 -0.980491
0.139134049416 -0.233491972089 0.750306069851 0.001149 0.196558 -0.980491
-0.001257954282 -0.119514748454 0.773232102394 0.001149 0.196558 -0.980491
-0.120732381940 -0.197829514742 0.757479429245 0.001149 0.196558 -0.980491
-0.087481074035 -0.293240249157 0.737841844559 0.001168 0.220763 -0.975327
-0.077982589602 -0.290715157986 0.738409936428 0.001168 0.220763 -0.975327
-0.224843859673 -0.325106471777 0.730013787746 0.049747 0.219616 -0.974317
-0.267018824816 -0.330801904202 0.726623713970 0.049747 0.219616 -0.974317
-0.362950086594 -0.181255400181 0.753248989582 0.049016 0.197260 -0.979125
-0.408339619637 -0.182375103235 0.750754237175 0.049016 0.197260 -0.979125
-0.597999751568 -0.094124466181 0.747226476669 0.114048 0.196764 -0.973795
-0.595587670803 -0.082177288830 0.749056398869 0.116692 0.077409 -0.990147
-0.504246413708 -0.044042211026 0.762780070305 0.116692 0.077409 -0.990147
-0.525491595268 -0.005764745176 0.763269364834 0.116692 0.077409 -0.990147
-0.453011006117 0.123444333673 0.781885325909 0.116692 0.077409 -0.990147
-0.445625752211 0.060185041279 0.777814805508 0.116692 0.077409 -0.990147
-0.590507864952 0.261062592268 0.773604571819 0.116481 0.025515 -0.992865
-0.532153308392 0.356156766415 0.782908082008 0.116481 0.025515 -0.992865
-0.582676410675 0.285719871521 0.775158166885 0.116481 0.025515 -0.992865
-0.594045042992 0.573330044746 0.781195223331 0.116481 0.025515 -0.992865
-0.609616816044 0.446476757526 0.775663673878 0.190656 0.024563 -0.981350
-0.634084105492 0.242807418108 0.768577814102 -0.999999 0.000978 0.000978
-0.634084105492 0.548697888851 0.775623023510 -0.999999 0.000978 0.000978
-0.620126426220 0.757616460323 0.777067005634 0.189908 -0.008057 -0.981769
-0.584999680519 0.839127361774 0.781857788563 0.116648 -0.007631 -0.993144
-0.431406170130 0.628628671169 0.801464021206 0.116648 -0.007631 -0.993144
-0.504232287407 0.458466082811 0.788816154003 0.116481 0.025515 -0.992865
-0.534692883492 0.586762070656 0.788522243500 0.116481 0.025515 -0.992865
-0.532922387123 0.487203538418 0.786177754402 0.116481 0.025515 -0.992865
-0.567933320999 0.556303322315 0.783830583096 0.116481 0.025515 -0.992865
-0.371518671513 0.337264657021 0.797797083855 0.049344 0.026247 -0.998437
-0.365552783012 0.499807238579 0.802263140678 0.049344 0.026247 -0.998437
-0.396077156067 0.403273761272 0.798261702061 0.049344 0.026247 -0.998437
-0.414638578892 0.383891820908 0.796836614609 0.049344 0.026247 -0.998437
-0.368328511715 0.400972664356 0.799590110779 0.049344 0.026247 -0.998437
-0.269463568926 0.010922756046 0.784264802933 0.049402 0.077946 -0.995733
-0.266964226961 0.104382023215 0.791687190533 0.049402 0.077946 -0.995733
-0.234851434827 0.117652937770 0.794329047203 0.049402 0.077946 -0.995733
-0.412402153015 0.181338995695 0.790424168110 0.049402 0.077946 -0.995733
-0.344011008739 0.036156952381 0.782507717609 0.049402 0.077946 -0.995733
-0.411005795002 -0.058599181473 0.771759271622 0.049402 0.077946 -0.995733
-0.249834194779 -0.153682723641 0.764450848103 0.049016 0.197260 -0.979125
-0.386030375957 -0.105258971453 0.767381250858 0.049016 0.197260 -0.979125
-0.194454520941 -0.249849781394 0.747015774250 0.001149 0.196558 -0.980491
-0.137314751744 -0.150694504380 0.766960442066 0.001149 0.196558 -0.980491
-0.020570868626 0.119459591806 0.795629441738 0.001050 0.078785 -0.996891
-0.191511839628 -0.064462944865 0.781268537045 0.001050 0.078785 -0.996891
-0.071777574718 -0.028015017509 0.784114420414 0.001050 0.078785 -0.996891
0.130474075675 -0.066448353231 0.781113505363 0.001050 0.078785 -0.996891
0.011075198650 -0.004823707044 0.785925209522 0.001050 0.078785 -0.996891
0.120190687478 -0.011075213552 0.785437107086 0.001050 0.078785 -0.996891
0.171793311834 -0.141924709082 0.768724441528 0.001149 0.196558 -0.980491
0.184103146195 -0.093934103847 0.778377473354 0.001149 0.196558 -0.980491
0.245275616646 -0.185612857342 0.758285641670 -0.049016 0.197260 -0.979125
0.255064785480 -0.154278486967 0.764098942280 -0.049016 0.197260 -0.979125
0.269874691963 -0.264364898205 0.741215109825 -0.049016 0.197260 -0.979125
0.374386817217 -0.232401192188 0.742418825626 -0.049016 0.197260 -0.979125
0.499516606331 -0.182558566332 0.741093933582 -0.114048 0.196764 -0.973795
0.427060246468 -0.237858682871 0.738494813442 -0.114048 0.196764 -0.973795
0.578584015369 -0.199074760079 0.728469729424 -0.114048 0.196764 -0.973795
0.530283212662 -0.215485587716 0.730851173401 -0.114048 0.196764 -0.973795
0.459028005600 -0.363588541746 0.705780565739 -0.114101 0.234612 -0.965370
0.492011189461 -0.391613900661 0.693740010262 -0.142854 0.271022 -0.951914
0.626695156097 -0.325649172068 0.689167082310 -0.181851 0.306787 -0.934244
0.608949184418 -0.176531463861 0.729081213474 -0.187874 0.193129 -0.963018
0.609270215034 -0.112613685429 0.741875708103 -0.187874 0.193129 -0.963018
0.604411602020 -0.013477034867 0.753449320793 -0.190862 0.076588 -0.978625
0.589265048504 0.143172577024 0.767465233803 -0.116692 0.077409 -0.990147
0.565818727016 0.021881520748 0.760753035545 -0.116692 0.077409 -0.990147
0.505305290222 0.060806035995 0.770911455154 -0.116692 0.077409 -0.990147
0.475942105055 0.050345703959 0.773549199104 -0.116692 0.077409 -0.990147
0.358882725239 0.072838678956 0.784657716751 -0.049402 0.077946 -0.995733
0.297025561333 -0.008581437171 0.781393229961 -0.049402 0.077946 -0.995733
0.332584321499 0.019570380449 0.781813383102 -0.049402 0.077946 -0.995733
0.365306586027 0.178811535239 0.792611062527 -0.049402 0.077946 -0.995733
0.269721686840 0.188055202365 0.798112094402 -0.049402 0.077946 -0.995733
0.310480594635 0.195024281740 0.796618282795 -0.049402 0.077946 -0.995733
0.081205412745 0.110025122762 0.794892787933 0.001050 0.078785 -0.996891
0.129645496607 0.194177001715 0.801463425159 0.001050 0.078785 -0.996891
0.160346657038 0.062441170216 0.791177392006 0.001050 0.078785 -0.996891
0.002769947052 0.495706081390 0.809852421284 0.001001 0.025017 -0.999686
0.031500369310 0.378075957298 0.806836247444 0.001001 0.025017 -0.999686
0.041267380118 0.241502806544 0.803334355354 0.001001 0.025017 -0.999686
0.070237599313 0.343108743429 0.805939674377 0.001001 0.025017 -0.999686
0.091031275690 0.356325864792 0.806278526783 0.001001 0.025017 -0.999686
-0.106537371874 0.249403744936 0.803536951542 0.001001 0.025017 -0.999686
-0.021298287436 0.516941428185 0.810396909714 0.001001 0.025017 -0.999686
-0.043675545603 0.458444505930 0.808896958828 0.001001 0.025017 -0.999686
-0.099521771073 0.226249217987 0.802943229675 0.001001 0.025017 -0.999686
-0.156330943108 0.047085821629 0.789978384972 0.001050 0.078785 -0.996891
-0.177352204919 0.154029145837 0.798328697681 0.001050 0.078785 -0.996891
-0.073998905718 0.106888040900 0.794647812843 0.001050 0.078785 -0.996891
-0.205272510648 0.273245692253 0.804148256779 0.001001 0.025017 -0.999686
-0.119729124010 0.400346875191 0.807407319546 0.001001 0.025017 -0.999686
-0.117892205715 0.516876280308 0.810395240784 0.001001 0.025017 -0.999686
-0.125002935529 0.453673303127 0.808774650097 0.001001 0.025017 -0.999686
-0.385198056698 0.557243943214 0.802753627300 0.049344 0.026247 -0.998437
-0.219511881471 0.341433167458 0.805504322052 0.049344 0.026247 -0.998437
-0.255820274353 0.491841137409 0.807545542717 0.049344 0.026247 -0.998437
-0.249726340175 0.559798836708 0.809592723846 0.049344 0.026247 -0.998437
-0.337364077568 0.676306009293 0.806344568729 0.050502 -0.007215 -0.998698
-0.386318683624 0.736469328403 0.803457736969 0.050502 -0.007215 -0.998698
-0.278074264526 0.677816748619 0.809298038483 0.050502 -0.007215 -0.998698
-0.468913823366 0.910352349281 0.794994950294 0.116648 -0.007631 -0.993144
-0.471428096294 0.733875811100 0.795987367630 0.116648 -0.007631 -0.993144
-0.451996922493 0.752182245255 0.798139750957 0.116648 -0.007631 -0.993144
-0.532972037792 0.987875521183 0.785323381424 0.116475 -0.027732 -0.992806
-0.464317321777 0.918750643730 0.795305609703 0.116475 -0.027732 -0.992806
-0.585107862949 1.070165872574 0.776921629906 0.116475 -0.027732 -0.992806
-0.634084105492 1.324164509773 0.759066641331 -0.999999 0.000978 0.000978
-0.597035408020 1.257274746895 0.768011927605 0.116506 -0.048638 -0.991998
-0.588013350964 1.244749903679 0.769687354565 0.116506 -0.048638 -0.991998
-0.465558648109 1.101426839828 0.790124714375 0.116475 -0.027732 -0.992806
-0.445462912321 1.045169711113 0.794039428234 0.116475 -0.027732 -0.992806
-0.357283890247 0.919846057892 0.803379833698 0.049342 -0.028345 -0.998380
-0.306616067886 0.931399643421 0.805594801903 0.049342 -0.028345 -0.998380
-0.281759202480 0.793574690819 0.808268845081 0.050502 -0.007215 -0.998698
-0.250680148602 0.747524857521 0.810158967972 0.050502 -0.007215 -0.998698
-0.241043463349 0.747673392296 0.810639679432 0.050502 -0.007215 -0.998698
-0.067318655550 0.846112787724 0.811390101910 0.000983 -0.006883 -0.999976
-0.108062922955 0.838697016239 0.811444222927 0.000983 -0.006883 -0.999976
-0.134636446834 0.903725206852 0.810969591141 0.000983 -0.006883 -0.999976
-0.101562678814 0.627094149590 0.812988758087 0.000983 -0.006883 -0.999976
-0.079601287842 0.771309614182 0.811936080456 0.000983 -0.006883 -0.999976
-0.098171822727 0.773863077164 0.811917483807 0.000983 -0.006883 -0.999976
0.107425674796 0.685395479202 0.812563240528 0.000983 -0.006883 -0.999976
0.135934233665 0.622120201588 0.813025057316 0.000983 -0.006883 -0.999976
0.128210216761 0.669703543186 0.812677741051 0.000983 -0.006883 -0.999976
0.185513585806 0.450397014618 0.808690607548 0.001001 0.025017 -0.999686
0.190517768264 0.252076834440 0.803605496883 0.001001 0.025017 -0.999686
0.170484751463 0.315326571465 0.805227279663 0.001001 0.025017 -0.999686
0.166200339794 0.300974249840 0.804859280586 0.001001 0.025017 -0.999686
0.293796926737 0.486503452063 0.805539250374 -0.049344 0.026247 -0.998437
0.245092496276 0.390686631203 0.805517673492 -0.049344 0.026247 -0.998437
0.293844491243 0.461430847645 0.804894030094 -0.049344 0.026247 -0.998437
0.217850878835 0.449405372143 0.808385372162 -0.049344 0.026247 -0.998437
0.381261974573 0.455864310265 0.800380349159 -0.049344 0.026247 -0.998437
0.415575981140 0.441446423531 0.798294961452 -0.049344 0.026247 -0.998437
0.370780915022 0.337649673223 0.797873258591 -0.049344 0.026247 -0.998437
0.423316180706 0.459686040878 0.798375666142 -0.049344 0.026247 -0.998437
0.279427587986 0.300390094519 0.801485598087 -0.049344 0.026247 -0.998437
0.512518942356 0.455310970545 0.787829697132 -0.116481 0.025515 -0.992865
0.563694655895 0.618023991585 0.785981178284 -0.116481 0.025515 -0.992865
0.472731560469 0.561406314373 0.795230984688 -0.116481 0.025515 -0.992865
0.433852761984 0.377858906984 0.795098602772 -0.116481 0.025515 -0.992865
0.577136278152 0.313171148300 0.776583075523 -0.116481 0.025515 -0.992865
0.520208120346 0.221829861403 0.780938446522 -0.116481 0.025515 -0.992865
0.557034492493 0.322507739067 0.779187440872 -0.116481 0.025515 -0.992865
0.558652341366 0.405677258968 0.781129658222 -0.116481 0.025515 -0.992865
0.634673237801 0.995945692062 0.771944582462 0.999999 0.000978 0.000978
0.634673237801 1.067021608353 0.772597193718 0.999999 0.000978 0.000978
0.634268283844 1.252865552902 0.762134552002 0.001022 -0.048051 -0.998844
0.634478449821 0.072854399681 0.754897654057 0.001050 0.078785 -0.996891
0.624321520329 0.405448377132 0.771868288517 -0.190656 0.024563 -0.981350
0.611586391926 0.816559791565 0.778411090374 -0.189908 -0.008057 -0.981769
0.442774057388 0.629336833954 0.800190806389 -0.116648 -0.007631 -0.993144
0.578805267811 0.664432704449 0.783930897713 -0.116648 -0.007631 -0.993144
0.465307414532 0.824083447456 0.796118319035 -0.116648 -0.007631 -0.993144
0.521020591259 0.853312611580 0.789350450039 -0.116648 -0.007631 -0.993144
0.454879701138 0.821596145630 0.797363221645 -0.116648 -0.007631 -0.993144
0.332425683737 0.656147599220 0.806768059731 -0.050502 -0.007215 -0.998698
0.419615268707 0.693053007126 0.802139222622 -0.050502 -0.007215 -0.998698
0.365181952715 0.726475477219 0.804616928101 -0.050502 -0.007215 -0.998698
0.271064162254 0.900114476681 0.808055400848 -0.050502 -0.007215 -0.998698
0.282683610916 0.749017119408 0.808577358723 -0.050502 -0.007215 -0.998698
0.367123097181 0.877777040005 0.803415477276 -0.050502 -0.007215 -0.998698
0.148289233446 0.739767849445 0.812166333199 0.000983 -0.006883 -0.999976
0.062255039811 0.851286053658 0.811352312565 0.000983 -0.006883 -0.999976
0.133740127087 0.792106151581 0.811784327030 0.000983 -0.006883 -0.999976
0.196426048875 0.921140015125 0.810625195503 0.001003 -0.027071 -0.999633
0.086173735559 0.951103806496 0.809799313545 0.001003 -0.027071 -0.999633
0.127813473344 0.935658276081 0.810225009918 0.001003 -0.027071 -0.999633
-0.034733220935 1.013645887375 0.808075487614 0.001003 -0.027071 -0.999633
-0.135437592864 0.976235210896 0.809106647968 0.001003 -0.027071 -0.999633
-0.109797291458 0.937921106815 0.810162663460 0.001003 -0.027071 -0.999633
-0.164113640785 1.130346775055 0.804858922958 0.001003 -0.027071 -0.999633
-0.058452632278 1.114190936089 0.805304229259 0.001003 -0.027071 -0.999633
-0.308922082186 1.145682096481 0.799573481083 0.049342 -0.028345 -0.998380
-0.243691310287 1.033768177032 0.805919587612 0.049342 -0.028345 -0.998380
-0.292955160141 1.222301363945 0.796803116798 0.050258 -0.045981 -0.997677
-0.392567873001 1.289311170578 0.788665533066 0.050258 -0.045981 -0.997677
-0.506753325462 1.314185500145 0.775970697403 0.118749 -0.046369 -0.991841
-0.533930957317 1.366790771484 0.770232737064 0.118749 -0.046369 -0.991841
-0.590697705746 1.439829349518 0.759518265724 0.119244 -0.053376 -0.991429
-0.518058180809 1.428909659386 0.768834054470 0.119244 -0.053376 -0.991429
-0.475648581982 1.472079038620 0.771769583225 0.121497 -0.051097 -0.991276
-0.549130797386 1.504654884338 0.761127829552 0.121497 -0.051097 -0.991276
-0.393743425608 1.387912273407 0.783975303173 0.052605 -0.050457 -0.997340
-0.381151616573 1.445583462715 0.781702339649 0.052605 -0.050457 -0.997340
-0.315580606461 1.345402002335 0.790044903755 0.052391 -0.045976 -0.997568
-0.266075164080 1.371935486794 0.791426420212 0.052391 -0.045976 -0.997568
-0.186299145222 1.337684154510 0.795824825764 0.001020 -0.045917 -0.998945
-0.185225650668 1.195605516434 0.802238464355 0.001020 -0.045917 -0.998945
-0.199740678072 1.289932847023 0.797970712185 0.001020 -0.045917 -0.998945
-0.205615580082 1.150652527809 0.804250717163 0.001018 -0.043791 -0.999040
-0.042491152883 1.275807261467 0.798679709435 0.001018 -0.043791 -0.999040
-0.096779085696 1.227986454964 0.800808310509 0.001018 -0.043791 -0.999040
0.009104214609 1.247264027596 0.799950242043 0.001018 -0.043791 -0.999040
0.112961567938 1.232063293457 0.800626873970 0.001018 -0.043791 -0.999040
0.193671345711 1.000396132469 0.808440685272 0.001003 -0.027071 -0.999633
0.191307932138 1.125156998634 0.805001974106 0.001003 -0.027071 -0.999633
0.187368869781 1.132806539536 0.804791152477 0.001003 -0.027071 -0.999633
0.253244817257 1.003149747849 0.806315243244 -0.049342 -0.028345 -0.998380
0.311009973288 1.107319235802 0.800555884838 -0.049342 -0.028345 -0.998380
0.306866347790 1.133917331696 0.800029933453 -0.049342 -0.028345 -0.998380
0.392277449369 0.918529987335 0.801695942879 -0.049342 -0.028345 -0.998380
0.329580575228 0.942767918110 0.804162740707 -0.049342 -0.028345 -0.998380
0.426166623831 1.107489228249 0.794661283493 -0.116475 -0.027732 -0.992806
0.455541551113 1.037887573242 0.793123722076 -0.116475 -0.027732 -0.992806
0.589386940002 0.956415355206 0.779622793198 -0.116475 -0.027732 -0.992806
0.564531505108 1.065260171890 0.779546916485 -0.116475 -0.027732 -0.992806
0.609540879726 0.905295670033 0.778160929680 -0.189908 -0.008057 -0.981769
0.623186886311 1.021713972092 0.772403836250 -0.190644 -0.026901 -0.981291
0.613823711872 1.150131344795 0.770633876324 -0.191758 -0.048833 -0.980227
0.510123610497 1.206718206406 0.780784487724 -0.116506 -0.048638 -0.991998
0.495161980391 1.196660518646 0.783037722111 -0.116506 -0.048638 -0.991998
0.492057740688 1.326361656189 0.777230203152 -0.118749 -0.046369 -0.991841
0.426864743233 1.360965728760 0.783418774605 -0.118749 -0.046369 -0.991841
0.369332194328 1.183086514473 0.794861376286 -0.050258 -0.045981 -0.997677
0.370125174522 1.166205048561 0.795617103577 -0.050258 -0.045981 -0.997677
0.310903370380 1.240640878677 0.795071184635 -0.050258 -0.045981 -0.997677
0.396327704191 1.353242158890 0.785514950752 -0.052391 -0.045976 -0.997568
0.236963257194 1.192621469498 0.801067292690 -0.052391 -0.045976 -0.997568
0.258256435394 1.378128528595 0.791584968567 -0.052391 -0.045976 -0.997568
0.191816508770 1.197637200356 0.802142500877 -0.001020 -0.045917 -0.998945
0.201100766659 1.369157910347 0.794394314289 -0.001020 -0.045917 -0.998945
0.139765530825 1.240256190300 0.800255298615 -0.001020 -0.045917 -0.998945
0.092378027737 1.404914021492 0.792739629745 -0.001026 -0.050296 -0.998734
-0.108350701630 1.392381787300 0.793363749981 0.001026 -0.050296 -0.998734
-0.008892556652 1.466365218163 0.789680480957 0.001026 -0.050296 -0.998734
-0.063430152833 1.540641188622 0.785861015320 0.001026 -0.050296 -0.998734
-0.192421644926 1.492071986198 0.788228869438 0.001026 -0.050296 -0.998734
-0.364902049303 1.509761452675 0.779290199280 0.052605 -0.050457 -0.997340
0.616670191288 1.281130552292 0.763659119606 -0.191758 -0.048833 -0.980227
0.584383964539 1.386088013649 0.763212502003 -0.119244 -0.053376 -0.991429
0.511040210724 1.453158259392 0.768475949764 -0.121497 -0.051097 -0.991276
0.507511794567 1.472532868385 0.767922282219 -0.121497 -0.051097 -0.991276
0.350930124521 1.379312872887 0.786685168743 -0.052605 -0.050457 -0.997340
0.301457256079 1.503746747971 0.782949030399 -0.052605 -0.050457 -0.997340
0.077067717910 1.534052848816 0.786185741425 -0.001026 -0.050296 -0.998734
0.061361730099 1.537649512291 0.786015212536 -0.001026 -0.050296 -0.998734
0.786006689072 1.337076902390 0.418781429529 -0.902878 -0.003920 0.429880
0.791016161442 1.420658230782 0.410495102406 -0.778841 0.004135 -0.627208
0.816247403622 1.659142851830 0.381099313498 -0.778841 0.004135 -0.627208
0.790413975716 1.489372134209 0.411814004183 -0.778841 0.004135 -0.627208
0.781113088131 1.424769639969 0.460858941078 -0.911477 -0.030339 -0.410231
0.780475437641 1.556917905807 0.452663540840 -0.911477 -0.030339 -0.410231
0.787459552288 1.601882815361 0.433912366629 -0.911477 -0.030339 -0.410231
0.751583814621 1.775856614113 0.501145124435 -0.917969 -0.032832 -0.395291
0.762283325195 1.660729527473 0.485763490200 -0.917969 -0.032832 -0.395291
0.747386336327 1.574185132980 0.542474210262 -0.948322 -0.063221 -0.310947
0.741494774818 1.653423547745 0.544359683990 -0.948322 -0.063221 -0.310947
0.771856486797 1.391137123108 0.507618427277 -0.973573 -0.194715 0.119341
0.749225437641 1.507433176041 0.597343027592 -0.943946 -0.293883 0.150327
0.702463388443 1.610826015472 0.663611829281 -0.860770 -0.092175 -0.500579
0.732130706310 1.557584047318 0.635368287563 -0.096270 -0.533080 0.840570
0.758881390095 0.244350090623 0.444462031126 -0.001075 -0.994321 0.106419
0.736806571484 0.290144979954 0.449688553810 -0.997558 -0.001042 -0.069839
0.711850285530 0.269498944283 0.574360847473 -0.969472 -0.008368 -0.245058
0.717936992645 0.257920354605 0.572683274746 -0.132728 -0.990357 0.039705
0.833048224449 0.198200672865 0.246083050966 0.992394 0.001089 -0.123096
0.774442434311 0.167075365782 0.295039206743 0.090200 -0.994428 0.054565
0.762988865376 0.177568987012 0.390203177929 0.088372 -0.981772 0.168269
0.764132976532 0.245423063636 0.454422414303 0.001075 0.994321 -0.106419
0.756995558739 0.166428029537 0.308692544699 -0.916701 -0.006465 -0.399521
0.780561447144 0.193958356977 0.254313528538 -0.916701 -0.006465 -0.399521
0.708946108818 0.228833138943 0.587488353252 -0.969616 -0.008348 -0.244491
0.741717696190 0.190606161952 0.478700190783 0.019138 -0.989542 0.142971
0.690121889114 0.236073821783 0.701310336590 -0.710469 -0.698798 -0.083156
0.713823080063 0.215922594070 0.655053853989 -0.784215 -0.610599 -0.110349
0.821397781372 0.239268094301 0.228730097413 0.701451 -0.012551 -0.712607
-0.032108604908 -0.447207510471 0.639712631702 -0.007102 -0.033483 -0.999414
-0.110612817109 -0.432292997837 0.596872985363 0.581124 0.063938 0.811300
0.014085172676 -0.473198622465 0.572360873222 -0.025565 -0.118931 -0.992573
0.023351883516 -0.476150661707 0.579822063446 -0.207821 -0.978048 0.015264
-0.068962402642 -0.435445070267 0.648197293282 0.025565 0.118931 0.992573
0.130529299378 -0.486283928156 0.611612558365 0.978236 -0.200941 0.051739
0.037861246616 -0.478570312262 0.640000462532 -0.207705 -0.978185 0.003481
-0.819214940071 1.174524068832 0.261552482843 0.009132 -0.909253 0.416143
-0.771811842918 1.156899571419 0.226506724954 0.009616 -0.811835 0.583807
-0.833507061005 1.131580114365 0.192229375243 0.009616 -0.811835 0.583807
-0.781584084034 1.010267019272 0.022356487811 0.020714 -0.813372 0.581375
-0.794307291508 0.978968143463 -0.021003931761 0.020714 -0.813372 0.581375
-0.838907778263 0.930698513985 -0.092680901289 0.024082 -0.944274 0.328278
-0.835456252098 0.837606132030 -0.360418468714 0.024082 -0.944274 0.328278
-0.747204601765 0.901024699211 -0.184592574835 0.018953 -0.943866 0.329785
-0.732068479061 0.828472673893 -0.392568737268 0.018953 -0.943866 0.329785
-0.838902711868 0.917481541634 -0.458320468664 -0.578123 -0.412472 -0.704018
-0.774929523468 0.793314516544 -0.473836421967 0.129925 -0.037283 0.990823
-0.792884886265 0.857034504414 -0.469120055437 0.129925 -0.037283 0.990823
-0.818956732750 0.840826332569 -0.466327041388 0.129925 -0.037283 0.990823
-0.806425988674 0.540432512760 -0.470956325531 0.099609 0.003213 0.995021
-0.886800467968 0.533568024635 -0.462961226702 0.099609 0.003213 0.995021
-0.767310976982 -0.036160707474 -0.473134845495 0.099609 0.003213 0.995021
-0.813138902187 0.545976877213 -0.470306634903 0.099609 0.003213 0.995021
-0.764331400394 0.531709551811 -0.475107222795 0.099609 0.003213 0.995021
-0.758519351482 0.565374732018 -0.475783318281 0.099609 0.003213 0.995021
-0.757448494434 0.487248361111 -0.475658863783 0.099609 0.003213 0.995021
-0.780426323414 0.169527843595 -0.472440838814 0.099609 0.003213 0.995021
-0.866075038910 0.661447703838 -0.465395241976 0.099609 0.003213 0.995021
-0.877649068832 0.609693527222 -0.464094012976 0.099609 0.003213 0.995021
-0.861842870712 0.512830257416 -0.465376317501 0.099609 0.003213 0.995021
-0.838339567184 0.527358651161 -0.467751234770 0.099609 0.003213 0.995021
-0.678129673004 0.481881141663 -0.479179441929 0.000978 0.000978 0.999999
-0.700911343098 -0.009597718716 -0.479179441929 0.000978 0.000978 0.999999
-0.656504690647 0.137484669685 -0.479179441929 0.000978 0.000978 0.999999
-0.668508768082 0.728350937366 -0.479179471731 0.000978 0.000978 0.999999
-0.704657971859 0.149359524250 -0.479179441929 0.000978 0.000978 0.999999
-0.613370239735 0.662967681885 -0.479179471731 0.000978 0.000978 0.999999
-0.667871534824 0.371491581202 -0.479179441929 0.000978 0.000978 0.999999
-0.707622587681 0.401847422123 -0.479179441929 0.000978 0.000978 0.999999
-0.625769138336 0.672321259975 -0.479179471731 0.000978 0.000978 0.999999
-0.601852953434 0.728617191315 -0.479179471731 0.000978 0.000978 0.999999
-0.684350371361 0.807892024517 -0.459155589342 0.001203 -0.963362 0.268202
-0.634403347969 0.884735643864 -0.232009142637 0.001244 -0.944109 0.329630
-0.662172019482 0.823054075241 -0.408088684082 0.001244 -0.944109 0.329630
-0.622399866581 0.889679133892 -0.217897176743 0.001244 -0.944109 0.329630
-0.676650464535 0.884825229645 -0.231753349304 0.001244 -0.944109 0.329630
-0.694356143475 0.869977712631 -0.274137854576 0.001244 -0.944109 0.329630
-0.655117988586 0.876152276993 -0.256511658430 0.001244 -0.944109 0.329630
-0.730868339539 0.939905464649 -0.078068241477 0.001362 -0.813364 0.581753
-0.719753980637 0.992719769478 -0.004100177437 0.001362 -0.813364 0.581753
-0.631384730339 0.978615641594 -0.023853346705 0.001362 -0.813364 0.581753
-0.637653291225 1.058500766754 0.088028118014 0.001362 -0.813364 0.581753
-0.643206715584 1.065881133080 0.098364517093 0.001362 -0.813364 0.581753
-0.579530000687 1.036656022072 0.057433888316 0.001362 -0.813364 0.581753
-0.679263293743 1.115267038345 0.167531073093 0.001362 -0.813364 0.581753
-0.352502286434 1.141060113907 0.203655064106 0.001362 -0.813364 0.581753
-0.549578070641 1.072777271271 0.108022913337 0.001362 -0.813364 0.581753
-0.436731338501 1.158614039421 0.228239953518 0.001362 -0.813364 0.581753
-0.428575217724 1.093208551407 0.136637479067 0.001362 -0.813364 0.581753
-0.439234435558 1.066624403000 0.099405571818 0.001362 -0.813364 0.581753
-0.400559037924 1.108662962914 0.158281892538 0.001362 -0.813364 0.581753
-0.416593670845 1.099176645279 0.144995957613 0.001362 -0.813364 0.581753
-0.239956796169 1.089914798737 0.132024496794 0.001362 -0.813364 0.581753
-0.327135562897 0.942405045033 -0.074567586184 0.001362 -0.813364 0.581753
-0.321080654860 1.071445107460 0.106157042086 0.001362 -0.813364 0.581753
-0.369981825352 0.952330768108 -0.060666248202 0.001362 -0.813364 0.581753
-0.433093369007 0.999125838280 0.004871651530 0.001362 -0.813364 0.581753
-0.303350925446 1.017362952232 0.030413381755 0.001362 -0.813364 0.581753
-0.203329220414 0.990052521229 -0.007835701108 0.001362 -0.813364 0.581753
-0.383773714304 0.923561394215 -0.121175095439 0.001244 -0.944109 0.329630
-0.362567692995 0.879586577415 -0.246707975864 0.001244 -0.944109 0.329630
-0.313233345747 0.893934905529 -0.205748349428 0.001244 -0.944109 0.329630
-0.310599982738 0.905595660210 -0.172461032867 0.001244 -0.944109 0.329630
-0.289978981018 0.890895247459 -0.214425623417 0.001244 -0.944109 0.329630
-0.466031491756 0.930355489254 -0.101780250669 0.001244 -0.944109 0.329630
-0.265723317862 0.935164153576 -0.088053189218 0.001244 -0.944109 0.329630
-0.429172694683 0.819801628590 -0.417373299599 0.001244 -0.944109 0.329630
-0.324461758137 0.851803421974 -0.326019138098 0.001244 -0.944109 0.329630
-0.424426376820 0.822501242161 -0.409666895866 0.001244 -0.944109 0.329630
-0.419787287712 0.884576737881 -0.232462733984 0.001244 -0.944109 0.329630
-0.509999990463 0.888685286045 -0.220734298229 0.001244 -0.944109 0.329630
-0.489289611578 0.840718090534 -0.357664018869 0.001244 -0.944109 0.329630
-0.437064707279 0.878310322762 -0.250351190567 0.001244 -0.944109 0.329630
-0.284739434719 0.811615824699 -0.445709377527 0.001203 -0.963362 0.268202
-0.221409589052 0.802416682243 -0.478926390409 0.001203 -0.963362 0.268202
-0.365579903126 0.779205620289 -0.479179471731 0.000978 0.000978 0.999999
-0.315394937992 0.484513193369 -0.479179441929 0.000978 0.000978 0.999999
-0.554751515388 0.536562800407 -0.479179471731 0.000978 0.000978 0.999999
-0.352493077517 0.482477158308 -0.479179441929 0.000978 0.000978 0.999999
-0.506862044334 0.277545750141 -0.479179441929 0.000978 0.000978 0.999999
-0.550915837288 0.717401504517 -0.479179471731 0.000978 0.000978 0.999999
-0.580061435699 0.100584149361 -0.479179441929 0.000978 0.000978 0.999999
-0.475952744484 0.029245436192 -0.479179441929 0.000978 0.000978 0.999999
-0.455564856529 0.061291754246 -0.479179441929 0.000978 0.000978 0.999999
-0.402499496937 0.547639369965 -0.479179471731 0.000978 0.000978 0.999999
-0.326089382172 0.508139967918 -0.479179471731 0.000978 0.000978 0.999999
-0.555052042007 0.184761524200 -0.479179441929 0.000978 0.000978 0.999999
-0.465220808983 0.535382509232 -0.479179471731 0.000978 0.000978 0.999999
-0.577020883560 0.278004467487 -0.479179441929 0.000978 0.000978 0.999999
-0.484027922153 0.162128508091 -0.479179441929 0.000978 0.000978 0.999999
-0.411059051752 0.189415872097 -0.479179441929 0.000978 0.000978 0.999999
-0.395681679249 0.245443761349 -0.479179441929 0.000978 0.000978 0.999999
-0.431208252907 0.391282677650 -0.479179441929 0.000978 0.000978 0.999999
-0.440757751465 0.649085819721 -0.479179471731 0.000978 0.000978 0.999999
-0.501483917236 0.460003554821 -0.479179441929 0.000978 0.000978 0.999999
-0.515925645828 0.628780484200 -0.479179471731 0.000978 0.000978 0.999999
-0.495565772057 0.359256207943 -0.479179441929 0.000978 0.000978 0.999999
-0.482122063637 0.668144762516 -0.479179471731 0.000978 0.000978 0.999999
-0.680917441845 -0.288213908672 -0.479179412127 0.000978 0.000978 0.999999
-0.639633417130 -0.355299651623 -0.479179412127 0.000978 0.000978 0.999999
-0.631622970104 -0.219350785017 -0.479179412127 0.000978 0.000978 0.999999
-0.600648164749 -0.163915693760 -0.479179412127 0.000978 0.000978 0.999999
-0.596496880054 0.427299678326 -0.479179471731 0.000978 0.000978 0.999999
-0.622352361679 0.283232390881 -0.479179441929 0.000978 0.000978 0.999999
-0.614291071892 -0.488115102053 -0.479179382324 0.000978 0.000978 0.999999
-0.500857114792 -0.424685657024 -0.479179412127 0.000978 0.000978 0.999999
-0.583633482456 -0.442201852798 -0.479179412127 0.000978 0.000978 0.999999
-0.534618139267 -0.597000956535 -0.479179382324 0.000978 0.000978 0.999999
-0.461641192436 -0.478594392538 -0.479179412127 0.000978 0.000978 0.999999
-0.249206215143 0.065880000591 -0.479179441929 0.000978 0.000978 0.999999
-0.237929672003 -0.125136911869 -0.479179441929 0.000978 0.000978 0.999999
-0.435829460621 -0.211193978786 -0.479179412127 0.000978 0.000978 0.999999
-0.391961872578 -0.090757399797 -0.479179412127 0.000978 0.000978 0.999999
-0.211915895343 0.557432770729 -0.479179471731 0.000978 0.000978 0.999999
-0.440738737583 0.049398176372 -0.479179441929 0.000978 0.000978 0.999999
-0.376428067684 -0.281414568424 -0.479179412127 0.000978 0.000978 0.999999
-0.488286316395 -0.374800473452 -0.479179412127 0.000978 0.000978 0.999999
-0.246774762869 0.182903707027 -0.479179441929 0.000978 0.000978 0.999999
-0.283893585205 -0.207907259464 -0.479179441929 0.000978 0.000978 0.999999
-0.320251584053 0.312535196543 -0.479179441929 0.000978 0.000978 0.999999
-0.196274012327 -0.380225062370 -0.479179412127 0.000978 0.000978 0.999999
-0.488102614880 -0.235949680209 -0.479179441929 0.000978 0.000978 0.999999
-0.304286867380 0.029936432838 -0.479179412127 0.000978 0.000978 0.999999
-0.217847168446 -0.159323811531 -0.479179441929 0.000978 0.000978 0.999999
-0.352039366961 0.023207366467 -0.479179412127 0.000978 0.000978 0.999999
-0.241395607591 0.395707845688 -0.479179471731 0.000978 0.000978 0.999999
-0.345360249281 -0.342756837606 -0.479179412127 0.000978 0.000978 0.999999
-0.278645694256 0.407651484013 -0.479179471731 0.000978 0.000978 0.999999
-0.258862525225 0.252197384834 -0.479179441929 0.000978 0.000978 0.999999
-0.333478778601 -0.032435327768 -0.479179412127 0.000978 0.000978 0.999999
-0.324536949396 -0.083345979452 -0.479179412127 0.000978 0.000978 0.999999
-0.539349317551 -0.334588140249 -0.479179412127 0.000978 0.000978 0.999999
-0.216280996799 0.685996532440 -0.479179471731 0.000978 0.000978 0.999999
-0.192996874452 0.163531601429 -0.479179441929 0.000978 0.000978 0.999999
-0.179278358817 0.804716348648 -0.470622658730 0.001203 -0.963362 0.268202
-0.162613466382 0.879132270813 -0.254957944155 0.231428 -0.918525 0.320550
-0.161182805896 0.876895010471 -0.262380570173 0.231428 -0.918525 0.320550
-0.180003464222 0.822539925575 -0.409556388855 0.001244 -0.944109 0.329630
-0.164477244020 0.977536916733 -0.020431347191 -0.347170 -0.763775 0.544169
-0.156799525023 0.978532910347 -0.014142163098 -0.347170 -0.763775 0.544169
-0.119195371866 0.891351103783 -0.266367942095 0.589335 -0.787302 0.181217
-0.112118184566 0.393439531326 -0.282033592463 -0.965974 -0.015756 0.258159
-0.153323620558 0.529684782028 -0.426570713520 -0.965974 -0.015756 0.258159
-0.109489478171 -0.112010359764 -0.305091142654 -0.965974 -0.015756 0.258159
-0.122185334563 -0.117113530636 -0.352683961391 -0.965974 -0.015756 0.258159
-0.107756190002 -0.317172646523 -0.311969906092 -0.965974 -0.015756 0.258159
-0.117817513645 0.317233204842 -0.308201462030 -0.965974 -0.015756 0.258159
-0.136111855507 0.552489519119 -0.361016929150 -0.965974 -0.015756 0.258159
-0.144963115454 0.560330033302 -0.393456935883 -0.965974 -0.015756 0.258159
-0.135968253016 0.675740242004 -0.352473765612 -0.965974 -0.015756 0.258159
-0.134603053331 0.690877914429 -0.346408128738 -0.965974 -0.015756 0.258159
-0.119542591274 0.865724444389 -0.278983265162 -0.965974 -0.015756 0.258159
-0.149511113763 0.622717976570 -0.406333297491 -0.965974 -0.015756 0.258159
-0.166820377111 0.703014433384 -0.465550750494 -0.965974 -0.015756 0.258159
-0.136959880590 0.591290950775 -0.361652523279 -0.965974 -0.015756 0.258159
-0.117110580206 0.638961851597 -0.284664571285 -0.965974 -0.015756 0.258159
-0.133844152093 0.163961470127 -0.377820998430 -0.965974 -0.015756 0.258159
-0.153461784124 0.328326940536 -0.432000696659 -0.929435 0.001268 0.368984
-0.169598206878 -0.346663743258 -0.472595423460 -0.929435 0.001268 0.368984
-0.129653245211 -0.247166097164 -0.372104942799 -0.929435 0.001268 0.368984
-0.162807568908 -0.261574745178 -0.455512076616 -0.929435 0.001268 0.368984
-0.139044463634 0.125252962112 -0.395730674267 -0.929435 0.001268 0.368984
-0.141700327396 0.038039565086 -0.402412086725 -0.929435 0.001268 0.368984
-0.122023791075 -0.154112279415 -0.352911353111 -0.929435 0.001268 0.368984
-0.135545730591 -0.109599292278 -0.386928856373 -0.929435 0.001268 0.368984
-0.132429599762 -0.030205428600 -0.379089474678 -0.929435 0.001268 0.368984
-0.140617623925 -0.273256331682 -0.399688303471 -0.929435 0.001268 0.368984
-0.178228378296 -0.069257706404 -0.479179412127 0.000978 0.000978 0.999999
-0.220511674881 -0.542812824249 -0.479179382324 0.000978 0.000978 0.999999
-0.331570208073 -0.608175992966 -0.479179382324 0.000978 0.000978 0.999999
-0.333030104637 -0.525176525116 -0.479179412127 0.000978 0.000978 0.999999
-0.281076610088 -0.484421312809 -0.479179412127 0.000978 0.000978 0.999999
-0.387499511242 -0.713038921356 -0.479179382324 0.000978 0.000978 0.999999
-0.482541561127 -0.891789972782 -0.479179352522 0.000978 0.000978 0.999999
-0.395013451576 -0.791332006454 -0.479179352522 0.000978 0.000978 0.999999
-0.475651681423 -0.834311723709 -0.479179352522 0.000978 0.000978 0.999999
-0.241880893707 -0.662842273712 -0.479179382324 0.000978 0.000978 0.999999
-0.529162526131 -0.803861975670 -0.479179352522 0.000978 0.000978 0.999999
-0.574908852577 -0.838324189186 -0.479179352522 0.000978 0.000978 0.999999
-0.773887932301 -0.779347658157 -0.466866791248 0.065825 0.005224 0.997818
-0.774445176125 -0.837511718273 -0.466478794813 0.065825 0.005224 0.997818
-0.604252398014 -0.906038761139 -0.477147251368 0.065825 0.005224 0.997818
-0.644920408726 -0.910130620003 -0.474474221468 0.065825 0.005224 0.997818
-0.593378543854 -0.920972466469 -0.477765053511 0.065825 0.005224 0.997818
-0.832800030708 -0.772145211697 -0.462717801332 0.069985 -0.001045 0.997548
-0.805217921734 -0.785517632961 -0.464684367180 0.069985 -0.001045 0.997548
-0.846417069435 -0.742008626461 -0.461732119322 0.069985 -0.001045 0.997548
-0.864580452442 -0.624156534672 -0.460368722677 0.069985 -0.001045 0.997548
-0.672703444958 -0.619753658772 -0.473989814520 0.070131 0.003140 0.997533
-0.870054304600 -0.231112301350 -0.460975378752 0.070131 0.003140 0.997533
-0.776870489120 0.046166300774 -0.468302130699 0.070131 0.003140 0.997533
-0.735299885273 -0.430278480053 -0.470031648874 0.070131 0.003140 0.997533
-0.837631642818 0.051373481750 -0.464001715183 0.070131 0.003140 0.997533
-0.727677106857 -0.581535518169 -0.470184922218 0.070131 0.003140 0.997533
-0.856925606728 0.232020080090 -0.463095158339 0.070131 0.003140 0.997533
-0.821106135845 -0.030335605145 -0.464965403080 0.070131 0.003140 0.997533
-0.861261725426 -0.276602089405 -0.461482942104 0.070131 0.003140 0.997533
-0.877441704273 -0.569260299206 -0.459583729506 0.070131 0.003140 0.997533
-0.828023254871 0.164942085743 -0.464975088835 0.070131 0.003140 0.997533
-0.789701282978 -0.410961657763 -0.466218888760 0.070131 0.003140 0.997533
-0.787840723991 -0.178625434637 -0.466946840286 0.070131 0.003140 0.997533
-0.805143475533 -0.480323523283 -0.464944660664 0.070131 0.003140 0.997533
-0.856445014477 -0.327414602041 -0.461694628000 0.070131 0.003140 0.997533
-0.904187083244 0.294723153114 -0.459900587797 0.070131 0.003140 0.997533
-0.758112192154 -0.357383757830 -0.468598991632 0.070131 0.003140 0.997533
-0.876161396503 -0.486745297909 -0.459886223078 0.070131 0.003140 0.997533
-0.840862631798 0.249461352825 -0.466558665037 0.093844 0.040850 -0.994748
-0.860143125057 0.347802102566 -0.464370816946 0.093844 0.040850 -0.994748
-0.682662010193 -0.412485778332 -0.478584140539 0.093844 0.040850 -0.994748
-0.885481357574 -0.892455935478 -0.459025025368 0.063217 0.001036 0.997999
-0.624854505062 -0.932746529579 -0.475694477558 0.063217 0.001036 0.997999
-0.600541472435 -0.947586238384 -0.392710626125 0.183394 0.983039 0.001139
-0.625931680202 -0.942874193192 -0.390654742718 0.183394 0.983039 0.001139
