-0.891165316105 -0.527181565762 -0.235995918512 -0.997329 0.007372 0.072667
-0.889708161354 -0.780665278435 -0.191827386618 -0.997329 0.007372 0.072667
-0.883577108383 -0.762122154236 -0.117241621017 -0.995725 0.013964 0.091302
-0.883394658566 -0.610789656639 -0.137022837996 -0.995725 0.013964 0.091302
-0.884706318378 -0.572314739227 -0.156826913357 -0.995725 0.013964 0.091302
-0.893488228321 -0.187270402908 -0.307753294706 -0.995725 0.013964 0.091302
-0.898192763329 -0.040960472077 -0.379981100559 -0.995725 0.013964 0.091302
-0.896878123283 -0.083603553474 -0.359544754028 -0.995725 0.013964 0.091302
-0.891213655472 -0.468197345734 -0.242600217462 -0.995725 0.013964 0.091302
-0.876028537750 -0.801240503788 -0.069869734347 -0.982460 0.024416 0.184865
-0.880149304867 -0.677735567093 -0.107305414975 -0.982460 0.024416 0.184865
-0.873445391655 -0.684717535973 -0.076830580831 -0.941493 0.053097 0.332825
-0.869192838669 -0.700870275497 -0.062254123390 -0.941493 0.053097 0.332825
-0.870827674866 -0.430255323648 -0.117729678750 -0.704478 0.156046 0.692358
-0.858815789223 -0.766013503075 -0.029775705189 -0.756020 0.142787 0.638784
-0.766005098820 -0.668217062950 0.011001284234 -0.988852 -0.135634 0.061441
-0.825416505337 -0.463664472103 -0.084584906697 -0.425457 0.214952 0.879080
-0.813482582569 -0.703066825867 -0.016105296090 -0.369635 0.242987 0.896843
-0.838713943958 -0.754405021667 -0.013686301187 -0.463020 0.221707 0.858171
-0.744997680187 -0.800651550293 0.057306759059 -0.987609 -0.114454 0.107374
-0.754175961018 -0.850314378738 0.040379524231 -0.313713 0.230629 0.921083
-0.809440016747 -0.213288336992 0.157644689083 -0.994927 -0.095434 0.031811
-0.815774857998 -0.168665334582 0.095900580287 -0.994927 -0.095434 0.031811
-0.798550128937 -0.322528481483 0.167496070266 -0.994927 -0.095434 0.031811
-0.811462044716 -0.263068974018 -0.051574196666 -0.994927 -0.095434 0.031811
-0.804078638554 -0.256951302290 0.192447423935 -0.994927 -0.095434 0.031811
-0.797985196114 -0.341954916716 0.127278909087 -0.994927 -0.095434 0.031811
-0.818485021591 -0.172012418509 -0.009316774085 -0.997083 -0.073582 0.020262
-0.824850618839 -0.053215742111 0.101320356131 -0.997083 -0.073582 0.020262
-0.819826543331 -0.113869391382 0.127793729305 -0.997083 -0.073582 0.020262
-0.835645854473 0.297207564116 -0.121918909252 -0.000978 0.999999 -0.000978
-0.782319009304 0.297209411860 0.050931856036 -0.000978 0.999999 0.000978
-0.764036357403 0.297210097313 -0.185332879424 -0.000978 0.999999 0.000978
-0.725739300251 0.297211199999 0.098927311599 -0.000978 0.999999 0.000978
-0.714663267136 0.297211498022 0.200844898820 -0.000978 0.999999 0.000978
-0.804101884365 0.297208368778 0.059598065913 -0.000978 0.999999 0.000978
-0.823320090771 0.297207474709 0.199508696795 -0.000978 0.999999 0.000978
-0.892261922359 0.100126802921 -0.423748522997 0.002938 0.000979 -0.999995
-0.878819942474 -0.840566813946 -0.394909083843 0.999987 -0.000983 -0.004916
-0.878262162209 -0.255179911852 -0.373262256384 0.999987 -0.000983 -0.004916
-0.878411412239 -0.867182314396 -0.316175282001 0.999987 -0.000983 -0.004916
-0.878431439400 -0.205968737602 -0.411163955927 0.999987 -0.000983 -0.004916
-0.878621637821 -0.500056028366 -0.405496031046 0.999987 -0.000983 -0.004916
-0.878419637680 -0.805329442024 -0.326226204634 0.999987 -0.000983 -0.004916
-0.878401994705 -0.076976716518 -0.423560380936 0.999987 -0.000983 -0.004916
-0.878297567368 -0.658150434494 -0.321648359299 0.999987 -0.000981 -0.004907
-0.878210544586 -0.235426336527 -0.364749044180 0.999987 -0.000981 -0.004907
-0.877805829048 0.212181538343 -0.340222656727 0.999987 -0.000981 -0.004907
-0.878020882607 0.072086691856 -0.367752909660 0.999987 -0.000981 -0.004907
-0.877992093563 0.130551502109 -0.369945764542 0.999987 -0.000981 -0.004907
-0.878182172775 -0.428594022989 -0.329758077860 0.999987 -0.000981 -0.004907
-0.874876320362 -0.425935924053 -0.312378048897 0.000978 0.000978 -0.999999
-0.825354933739 0.220294758677 -0.312374830246 0.000978 0.000978 -0.999999
-0.783323645592 0.293678313494 -0.312372058630 0.000978 0.000978 -0.999999
-0.851509630680 -0.384717285633 -0.312376558781 0.000978 0.000978 -0.999999
-0.741245269775 0.246344923973 -0.312369346619 0.000978 0.000978 -0.999999
-0.813505768776 -0.395010948181 -0.312374085188 0.000978 0.000978 -0.999999
-0.815058231354 0.274190455675 -0.312374144793 0.000978 0.000978 -0.999999
-0.840914130211 0.275810271502 -0.312375843525 0.000978 0.000978 -0.999999
-0.849230170250 -0.481699854136 -0.312376379967 0.000978 0.000978 -0.999999
-0.832628190517 0.212310880423 -0.312375307083 0.000978 0.000978 -0.999999
-0.657513856888 -0.507260859013 -0.312367469072 0.000978 0.000978 -0.999999
-0.790328562260 -0.420868903399 -0.312372982502 0.000978 0.000978 -0.999999
-0.805233538151 -0.842338919640 -0.312374919653 0.000978 0.000978 -0.999999
-0.722798287868 -0.253706574440 -0.312369555235 0.000978 0.000978 -0.999999
-0.682446241379 -0.432177126408 -0.312368333340 0.000978 0.000978 -0.999999
-0.695879817009 -0.786061346531 -0.312370002270 0.000978 0.000978 -0.999999
-0.788418292999 -0.472036212683 -0.312373071909 0.000978 0.000978 -0.999999
-0.681306064129 -0.283843815327 -0.312367826700 0.000978 0.000978 -0.999999
-0.717879176140 -0.625215888023 -0.312370479107 0.000978 0.000978 -0.999999
-0.683082759380 -0.621880412102 -0.312368959188 0.000978 0.000978 -0.999999
-0.674124121666 -0.444204121828 -0.312368005514 0.000978 0.000978 -0.999999
-0.739663779736 -0.593206763268 -0.312371283770 0.000978 0.000978 -0.999999
-0.724282085896 -0.282057642937 -0.312369704247 0.000978 0.000978 -0.999999
-0.738550126553 -0.001671254635 -0.312369436026 0.000978 0.000978 -0.999999
-0.721930027008 -0.436732470989 -0.312370061874 0.000978 0.000978 -0.999999
-0.865778565407 -0.906403183937 -0.288947701454 -0.007089 -0.999544 -0.029369
-0.792545795441 -0.907612323761 -0.240692943335 -0.000983 -0.999987 -0.004916
-0.854538977146 -0.907212436199 -0.156598985195 0.013140 -0.999688 0.021227
-0.815018296242 -0.904962241650 -0.131575226784 0.055997 -0.995877 0.071369
-0.686741292477 -0.906291782856 -0.166897833347 -0.027126 -0.999627 -0.003014
-0.644546151161 -0.903241991997 -0.060008578002 0.001055 -0.996523 0.083307
-0.707071065903 -0.833616971970 0.104931071401 0.001333 -0.867668 0.497143
-0.724464476109 -0.878757774830 0.036974422634 0.006900 -0.636224 0.771473
-0.875572025776 0.297208011150 -0.293025493622 -0.000978 0.999999 0.000978
-0.709586501122 0.285021394491 0.136241093278 0.993804 0.111142 0.001079
-0.691775739193 0.127009883523 -0.114911124110 0.993804 0.111142 0.001079
-0.690658688545 0.117099225521 -0.007567688823 0.993804 0.111142 0.001079
-0.704365015030 0.238697811961 -0.195452511311 0.993804 0.111142 0.001079
-0.709221303463 0.281781464815 -0.011854797602 0.993804 0.111142 0.001079
-0.686862647533 0.083422020078 -0.082923144102 0.993804 0.111142 0.001079
-0.700795829296 0.207033112645 -0.005290597677 0.993804 0.111142 0.001079
-0.705587387085 0.249542355537 0.050755705684 0.993804 0.111142 0.001079
-0.700582861900 0.205143600702 0.179006993771 0.993804 0.111142 0.001079
-0.710788309574 0.295683383942 0.189486175776 0.993804 0.111142 0.001079
-0.676558971405 -0.007989227772 0.021475315094 0.993804 0.111142 0.001079
-0.708627998829 0.276518017054 0.141038984060 0.993804 0.111142 0.001079
-0.659167408943 -0.215820893645 0.071927785873 0.995704 0.082154 0.042720
-0.680587291718 0.008186668158 0.141223669052 0.995704 0.082154 0.042720
-0.655816555023 -0.239870265126 0.040453247726 0.995704 0.082154 0.042720
-0.671776831150 -0.103962510824 0.143446877599 0.995103 0.069890 0.069890
-0.644552528858 -0.412191152573 0.068888530135 0.995963 0.088983 0.011793
-0.681202948093 -0.026796072721 0.220630645752 0.995979 0.087215 0.020458
-0.664207398891 -0.228524506092 0.250397562981 0.995979 0.087215 0.020458
-0.657718122005 -0.299441456795 0.235686063766 0.995979 0.087215 0.020458
-0.672224402428 -0.127245157957 0.210214942694 0.995979 0.087215 0.020458
-0.686641693115 0.032557621598 0.233313560486 0.995979 0.087215 0.020458
-0.692755401134 0.094327054918 0.268710762262 0.995979 0.087215 0.020458
-0.630097389221 -0.602640926838 0.178830742836 0.995979 0.087215 0.020458
-0.645160317421 -0.435536861420 0.202342450619 0.995979 0.087215 0.020458
-0.689010858536 0.059591859579 0.233803793788 0.995979 0.087215 0.020458
-0.692684948444 0.077900230885 0.283700108528 0.874060 0.050929 0.483142
-0.634471297264 -0.616898179054 0.258409142494 0.961744 0.082799 0.261136
-0.681375384331 -0.100481465459 0.283585011959 0.951080 0.070976 0.300681
-0.637432277203 -0.550949871540 0.251794099808 0.951080 0.070976 0.300681
-0.712119996548 -0.004523973912 0.289067447186 0.027126 0.003014 0.999627
-0.634124875069 -0.777213215828 0.180781751871 0.570140 -0.607360 0.553222
-0.623282074928 -0.903100371361 -0.285385787487 0.671622 -0.740862 -0.006924
-0.670553684235 -0.195242285728 -0.302026093006 0.841104 0.057571 -0.537801
-0.629053533077 -0.855476856232 -0.307960599661 0.841104 0.057571 -0.537801
-0.625750660896 -0.665910840034 -0.129747360945 0.996181 0.084896 -0.020418
-0.621670007706 -0.732184231281 -0.207174226642 0.996181 0.084896 -0.020418
-0.659534037113 -0.285438477993 -0.208051115274 0.996181 0.084896 -0.020418
-0.672867655754 -0.126658231020 -0.202110439539 0.996181 0.084896 -0.020418
-0.653283417225 -0.369120746851 -0.250383496284 0.996181 0.084896 -0.020418
-0.693697869778 0.104008361697 -0.267177909613 0.996181 0.084896 -0.020418
-0.676201403141 -0.088034883142 -0.205223828554 0.996181 0.084896 -0.020418
-0.644566893578 -0.419593214989 -0.026216382161 0.996181 0.084896 -0.020418
-0.652081787586 -0.391584187746 -0.285791069269 0.996181 0.084896 -0.020418
-0.619364440441 -0.775400757790 -0.275606989861 0.996181 0.084896 -0.020418
-0.670954287052 -0.147153213620 -0.193166688085 0.996181 0.084896 -0.020418
-0.678401887417 -0.078978031874 -0.277572840452 0.996181 0.084896 -0.020418
-0.662493586540 -0.255218982697 -0.228216454387 0.996181 0.084896 -0.020418
-0.628950238228 -0.623998045921 -0.112023897469 0.996181 0.084896 -0.020418
-0.633600533009 -0.603709995747 -0.260010540485 0.996181 0.084896 -0.020418
-0.640939891338 -0.519533991814 -0.270523369312 0.996181 0.084896 -0.020418
-0.682171523571 -0.014657694846 -0.192799687386 0.996181 0.084896 -0.020418
-0.641752243042 -0.456198722124 -0.040676206350 0.996181 0.084896 -0.020418
-0.647517442703 -0.416186153889 -0.160590350628 0.996181 0.084896 -0.020418
-0.640597164631 -0.455734491348 0.019952893257 0.995981 0.088793 -0.011768
-0.644990146160 -0.407175719738 0.015566028655 0.995888 0.090535 -0.003195
-0.643439948559 -0.423549771309 0.027392864227 0.995428 0.095364 0.005358
-0.684859693050 0.030662983656 -0.170601516962 0.994707 0.049902 -0.089823
-0.652266263962 -0.308383345604 0.003082111478 0.994707 0.049902 -0.089823
-0.643456637859 -0.416720926762 0.041002631187 0.994707 0.049902 -0.089823
-0.701211929321 0.209711074829 -0.252331942320 0.995838 0.073562 -0.053799
-0.602980613708 -0.246604725718 0.014449650422 0.950127 -0.008694 -0.311741
-0.651401937008 -0.138700798154 -0.015030023642 -0.112124 -0.962722 0.246158
-0.656195223331 -0.233048722148 0.031321603805 0.997353 0.072516 0.005255
-0.658203363419 -0.203594461083 0.002201071940 0.997548 0.069985 0.001045
-0.630984663963 -0.312429249287 0.052217431366 0.050072 -0.157202 0.986296
-0.631307363510 -0.205504238605 -0.002768814564 -0.994173 0.047765 0.096640
-0.627453446388 -0.591172933578 0.106848865747 0.990606 0.122537 0.060696
-0.625996649265 -0.720906674862 0.170687019825 0.999639 -0.025269 -0.009097
-0.624103784561 -0.767836630344 0.143973216414 0.988852 0.061441 0.135634
-0.622608602047 -0.640573978424 0.034252759069 0.998840 0.048149 0.001024
-0.614426553249 -0.799861311913 -0.151008844376 0.998840 0.048149 0.001024
-0.610932350159 -0.870592534542 -0.165395095944 0.998840 0.048149 0.001024
-0.612734258175 -0.834424078465 -0.150646671653 0.998840 0.048149 0.001024
-0.617657780647 -0.744386434555 0.043794441968 0.998690 0.048742 0.015556
-0.625845909119 -0.628993213177 -0.033985763788 0.991706 0.114733 -0.057935
-0.636478781700 -0.511360228062 0.010344135575 0.997558 0.069839 -0.001042
0.812128007412 0.072940841317 0.240493550897 0.926810 -0.032588 0.374113
0.844056546688 0.276738137007 0.097389861941 0.998522 -0.030385 0.045054
0.841334819794 0.212892770767 0.114416375756 0.998190 -0.030632 0.051758
0.811706483364 -0.168985068798 0.219529211521 0.893046 -0.070178 0.444459
0.805042386055 -0.052893608809 0.244185164571 0.804347 -0.075990 0.589281
0.756865382195 -0.342362642288 0.272100299597 0.767286 -0.067659 0.637726
0.737504601479 0.051137983799 0.288921415806 0.153992 -0.010116 0.988020
0.723062038422 -0.207660004497 0.291894614697 0.048941 0.019785 0.998606
0.872558653355 -0.683452248573 -0.074527397752 0.941493 0.053097 0.332825
0.872840046883 -0.540772795677 -0.097997643054 0.941493 0.053097 0.332825
0.872997939587 -0.354385226965 -0.136992558837 0.704478 0.156046 0.692358
0.835843861103 -0.202813312411 -0.145351052284 0.560188 0.134504 0.817372
0.881736457348 0.025328505784 -0.221122249961 0.995154 0.018449 0.096585
0.881406068802 0.055450778455 -0.223228007555 0.995154 0.018449 0.096585
0.892405450344 0.068035379052 -0.338069409132 0.995154 0.018449 0.096585
0.891675531864 -0.090961858630 -0.301882624626 0.995725 0.013964 0.091302
0.889338135719 -0.447764247656 -0.225131735206 0.995725 0.013964 0.091302
0.890134036541 -0.485094457865 -0.228421553969 0.995725 0.013964 0.091302
0.884317338467 -0.254672139883 -0.198280587792 0.995725 0.013964 0.091302
0.890041708946 -0.478708565235 -0.228335514665 0.995725 0.013964 0.091302
0.885829567909 -0.487079024315 -0.181304544210 0.995725 0.013964 0.091302
0.884571671486 -0.730447173119 -0.132614135742 0.995725 0.013964 0.091302
0.893034040928 -0.071005217731 -0.319533258677 0.995725 0.013964 0.091302
0.874436676502 -0.873140692711 -0.052360042930 0.982460 0.024416 0.184865
0.889963805676 -0.722359299660 -0.200902864337 0.997329 0.007372 0.072667
0.891617655754 -0.597706735134 -0.235364332795 0.997329 0.007372 0.072667
0.899533927441 -0.014141187072 -0.399059623480 0.997329 0.007372 0.072667
0.891913950443 -0.751014053822 -0.253071844578 0.999618 -0.005033 0.027180
0.896690964699 -0.273243337870 -0.338271379471 0.999618 -0.005033 0.027180
0.891763806343 -0.761181175709 -0.249437838793 0.999618 -0.005033 0.027180
0.899463176727 -0.059291638434 -0.400208920240 0.999618 -0.005033 0.027180
0.896558880806 -0.354859709740 -0.408750385046 0.999941 -0.010858 0.000987
0.895591497421 -0.451678991318 -0.398686319590 0.999941 -0.010858 0.000987
0.894653856754 -0.540609359741 -0.341764539480 0.999941 -0.010858 0.000987
0.894856691360 -0.518984556198 -0.331147879362 0.999941 -0.010858 0.000987
0.895400166512 -0.473403185606 -0.421438157558 0.999941 -0.010858 0.000987
0.891395688057 -0.865313291550 -0.294683963060 0.999941 -0.010858 0.000987
0.893676519394 -0.638826131821 -0.335463047028 0.999941 -0.010858 0.000987
0.896441698074 -0.361124128103 -0.355056911707 0.999941 -0.010858 0.000987
0.892804443836 0.111351206899 -0.330216050148 0.994278 -0.036416 0.100421
0.888611972332 0.182885423303 -0.263649314642 0.994278 -0.036416 0.100421
0.885589778423 0.178239300847 -0.245907843113 0.961130 0.018366 0.275483
0.882748544216 0.280386149883 -0.249824315310 0.891379 0.050353 0.450453
0.835393071175 0.242080703378 -0.189118728042 0.983281 -0.005723 0.182004
0.835058212280 0.280486971140 -0.140320688486 0.995212 0.016244 -0.096381
0.835664093494 0.151256531477 -0.090168990195 0.998426 -0.053208 0.017736
0.826603770256 -0.033609706908 -0.123333737254 0.998426 -0.053208 0.017736
0.833306014538 0.076245993376 -0.176127865911 0.998426 -0.053208 0.017736
0.831283628941 0.021956771612 0.010298693553 0.998656 -0.046959 -0.021914
0.838362395763 0.123697616160 0.109160751104 0.998656 -0.046959 -0.021914
0.833352327347 0.093945354223 -0.047903858125 0.998656 -0.046959 -0.021914
0.834046363831 0.091943502426 -0.013526197523 0.998656 -0.046959 -0.021914
0.820796072483 -0.160629689693 -0.070515632629 0.998656 -0.046959 -0.021914
0.841669142246 0.250624686480 -0.007277809083 0.999075 -0.040128 -0.015434
0.831178128719 0.186482056975 0.164724200964 0.930982 -0.363847 0.029781
0.834426283836 0.061523165554 0.080721244216 0.995910 -0.083809 0.033741
0.825049579144 -0.060381740332 0.067376784980 0.997083 -0.073582 0.020262
0.820437014103 -0.137132421136 0.019278138876 0.997083 -0.073582 0.020262
0.821746289730 -0.086514770985 0.132029950619 0.997083 -0.073582 0.020262
0.804543614388 -0.301104575396 0.047521993518 0.994927 -0.095434 0.031811
0.795687198639 -0.359031379223 0.147043675184 0.994927 -0.095434 0.031811
0.793265461922 -0.382393091917 0.151991561055 0.994927 -0.095434 0.031811
0.805435180664 -0.250437557697 0.170219764113 0.994927 -0.095434 0.031811
0.808216094971 -0.278032720089 0.003445670009 0.994927 -0.095434 0.031811
0.786701917648 -0.438224911690 0.187558025122 0.994927 -0.095434 0.031811
0.782457232475 -0.517468988895 0.066989123821 0.994545 -0.100004 0.029671
0.803047418594 -0.331553906202 0.002947081812 0.994545 -0.100004 0.029671
0.786173760891 -0.487579584122 0.043298136443 0.994545 -0.100004 0.029671
0.807568192482 -0.301858693361 -0.047906205058 0.994545 -0.100004 0.029671
0.811236798763 -0.282138913870 -0.103651963174 0.994545 -0.100004 0.029671
0.782777845860 -0.478624016047 0.183404430747 0.990748 -0.126551 0.049024
0.778333127499 -0.523982107639 0.155281558633 0.990748 -0.126551 0.049024
0.728725612164 -0.456037968397 0.284973919392 0.584574 -0.034879 0.810590
0.755568683147 -0.139969006181 0.280090540648 0.458253 -0.030909 0.888284
0.852846205235 -0.694039165974 -0.038688085973 0.756020 0.142787 0.638784
0.851991534233 -0.615055203438 -0.056768968701 0.463020 0.221707 0.858171
0.830174565315 -0.600367307663 -0.050792049617 0.369635 0.242987 0.896843
0.802228093147 -0.505877733231 -0.063043236732 0.425457 0.214952 0.879080
0.774159252644 -0.620493113995 -0.014397179708 0.988852 -0.135634 0.061441
0.771162807941 -0.620621800423 0.042118802667 0.988523 -0.141877 0.051906
0.763972401619 -0.630906522274 0.150701820850 0.988523 -0.141877 0.051906
0.769828677177 -0.634307265282 0.030162468553 0.988523 -0.141877 0.051906
0.757239758968 -0.666743695736 0.178149908781 0.986919 -0.146688 0.066890
0.754985153675 -0.672276079655 0.192126214504 0.980290 -0.155816 0.121463
0.754466831684 -0.752887904644 0.028702791780 0.956649 -0.075761 0.281216
0.799258530140 -0.318724781275 0.208546206355 0.990903 -0.104973 -0.084209
0.844855844975 0.028445776552 -0.188906252384 0.583603 0.125585 0.802269
0.862359464169 0.126909703016 -0.212667152286 0.586450 0.046410 0.808654
0.894348859787 0.293045163155 -0.368673652411 0.996984 0.044286 -0.063729
0.824745237827 0.297207683325 0.229948490858 0.000978 0.999999 0.000978
0.759538769722 -0.886974513531 -0.312373131514 -0.000978 0.000978 -0.999999
0.717482566833 -0.347547292709 -0.312369644642 -0.000978 0.000978 -0.999999
0.659301459789 -0.603001356125 -0.312367886305 -0.000978 0.000978 -0.999999
0.784537255764 -0.628255844116 -0.312373429537 -0.000978 0.000978 -0.999999
0.807688415051 -0.745655715466 -0.312374800444 -0.000978 0.000978 -0.999999
0.756585896015 -0.346703052521 -0.312371313572 -0.000978 0.000978 -0.999999
0.834520757198 -0.595475316048 -0.312375515699 -0.000978 0.000978 -0.999999
0.813425719738 -0.627616405487 -0.312374681234 -0.000978 0.000978 -0.999999
0.775666713715 -0.200856924057 -0.312371730804 -0.000978 0.000978 -0.999999
0.835111856461 -0.696308314800 -0.312375843525 -0.000978 0.000978 -0.999999
0.767075419426 -0.871024549007 -0.312373399734 -0.000978 0.000978 -0.999999
0.785643756390 -0.595656037331 -0.312373369932 -0.000978 0.000978 -0.999999
0.784355998039 -0.852084517479 -0.312374085188 -0.000978 0.000978 -0.999999
0.825841009617 -0.856316506863 -0.312375932932 -0.000978 0.000978 -0.999999
0.713622987270 -0.531029701233 -0.312370032072 -0.000978 0.000978 -0.999999
0.848249018192 -0.906103610992 -0.303279042244 0.007089 -0.999544 -0.029369
0.753615736961 -0.907539904118 -0.261602759361 0.000983 -0.999987 -0.004916
0.718089163303 -0.907428979874 -0.255470067263 -0.013140 -0.999688 0.021227
0.798799633980 -0.906663894653 -0.167991712689 -0.055997 -0.995877 0.071369
0.672198712826 -0.906744956970 -0.145009607077 0.027126 -0.999627 -0.003014
0.651433467865 -0.907180130482 -0.183104127645 0.027126 -0.999627 -0.003014
0.631539106369 -0.907732248306 -0.164267599583 0.013140 -0.999688 0.021227
0.681681454182 -0.902283430099 -0.048310156912 -0.001055 -0.996523 0.083307
0.755492031574 -0.900363087654 -0.031745582819 -0.001106 -0.989771 0.142660
0.878479659557 -0.320119738579 -0.404235094786 -0.999987 -0.000983 -0.004916
0.878276944160 -0.212000206113 -0.381909608841 -0.999987 -0.000983 -0.004916
0.878507196903 -0.513221740723 -0.382615208626 -0.999987 -0.000983 -0.004916
0.878389716148 -0.546286106110 -0.356457650661 -0.999987 -0.000983 -0.004916
0.878184735775 0.137459933758 -0.413252174854 -0.999987 -0.000983 -0.004916
0.878478586674 -0.605739235878 -0.364569634199 -0.999987 -0.000983 -0.004916
0.878558278084 -0.762666404247 -0.357541978359 -0.999987 -0.000983 -0.004916
0.884489059448 -0.854000687599 -0.423736184835 -0.004907 -0.000981 -0.999987
0.895117878914 -0.092954598367 -0.423760980368 -0.002938 0.000979 -0.999995
0.864913046360 0.297208040953 -0.246543005109 0.000978 0.999999 0.000978
0.845265209675 0.297208696604 -0.271897852421 0.000978 0.999999 0.000978
0.754702210426 0.139238908887 -0.312370240688 -0.000978 0.000978 -0.999999
0.757074594498 0.196139276028 -0.312370389700 -0.000978 0.000978 -0.999999
0.770735383034 -0.024504542351 -0.312371313572 -0.000978 0.000978 -0.999999
0.811319410801 -0.292038619518 -0.312373965979 -0.000978 0.000978 -0.999999
0.823875188828 0.245790421963 -0.312374740839 -0.000978 0.000978 -0.999999
0.848804056644 0.131668746471 -0.312376379967 -0.000978 0.000978 -0.999999
0.770445048809 -0.101899310946 -0.312371283770 -0.000978 0.000978 -0.999999
0.876507580280 -0.020487725735 -0.312378197908 -0.000978 0.000978 -0.999999
0.788425326347 0.198049932718 -0.312372416258 -0.000978 0.000978 -0.999999
0.824867606163 -0.074599325657 -0.312374860048 -0.000978 0.000978 -0.999999
0.877911090851 0.201793476939 -0.362300068140 -0.999987 -0.000981 -0.004907
0.878194689751 -0.518956601620 -0.319104909897 -0.999987 -0.000981 -0.004907
0.878030598164 0.036247152835 -0.364574730396 -0.999987 -0.000981 -0.004907
0.878205776215 -0.426052570343 -0.335374712944 -0.999987 -0.000981 -0.004907
0.877887368202 0.271664828062 -0.367334067822 -0.999987 -0.000981 -0.004907
0.877967238426 -0.031949236989 -0.340243518353 -0.999987 -0.000981 -0.004907
0.877861618996 0.248637422919 -0.358127862215 -0.999987 -0.000981 -0.004907
0.697202324867 -0.692347049713 0.269767493010 0.001362 -0.578659 0.815569
0.703763186932 -0.762943863869 0.200295075774 -0.001374 -0.773712 0.633537
0.640070259571 -0.858541548252 0.061340469867 -0.001333 -0.867668 0.497143
0.818203508854 -0.894104301929 0.006159823388 -0.001199 -0.964929 0.262509
0.724982857704 -0.812427580357 0.138350144029 -0.001351 -0.838844 0.544370
0.648354411125 -0.863121211529 0.053400740027 -0.001330 -0.871255 0.490829
0.675244033337 -0.863641679287 0.052486877888 -0.001329 -0.873026 0.487672
0.706128776073 -0.875339865685 0.040233090520 0.015337 -0.720829 0.692944
0.764600813389 0.297210067511 -0.245651751757 0.000978 0.999999 -0.000978
0.737956225872 0.297210842371 0.101328246295 0.000978 0.999999 0.000978
0.758038997650 0.297210276127 0.052762486041 0.000978 0.999999 0.000978
0.785034120083 0.297209441662 0.059779383242 0.000978 0.999999 0.000978
0.735729634762 0.297211021185 -0.114985451102 0.000978 0.999999 0.000978
0.775643169880 0.297208130360 0.187883108854 0.000978 0.999999 0.000978
0.806801021099 0.297207713127 0.106984168291 0.000978 0.999999 0.000978
0.649395585060 -0.589501202106 0.303663790226 -0.899391 0.137387 0.414995
0.666886627674 -0.399157047272 0.255916804075 -0.981458 0.172630 0.083297
0.654931962490 -0.465335398912 0.252339243889 -0.981458 0.172630 0.083297
0.646137237549 -0.494203031063 0.208630070090 -0.981458 0.172630 0.083297
0.641444623470 -0.484572201967 0.133419856429 -0.981458 0.172630 0.083297
0.646925270557 -0.409671366215 0.084775522351 -0.983181 0.080235 0.164063
0.650808513165 -0.390656650066 0.098951503634 -0.983181 0.080235 0.164063
0.679268300533 -0.274597376585 0.213059544563 -0.981192 0.108480 0.159672
0.660926997662 -0.190861225128 0.043368455023 -0.981192 0.108480 0.159672
0.683399438858 0.088428288698 0.082663476467 -0.994554 0.103260 -0.014130
0.673874080181 0.017346739769 0.226765811443 -0.994554 0.103260 -0.014130
0.681247591972 0.052692420781 -0.023279249668 -0.994554 0.103260 -0.014130
0.669102430344 -0.045055046678 0.110372945666 -0.994554 0.103260 -0.014130
0.671136260033 -0.012654036283 0.200826734304 -0.994554 0.103260 -0.014130
0.669514477253 -0.041574373841 0.106996178627 -0.994554 0.103260 -0.014130
0.687112689018 0.090569898486 -0.153460592031 -0.994554 0.103260 -0.014130
0.709208071232 0.283733755350 -0.288673490286 -0.994554 0.103260 -0.014130
0.681262135506 0.032058984041 -0.135762825608 -0.994384 0.047775 -0.094439
0.682133257389 0.008006229997 -0.157063826919 -0.994384 0.047775 -0.094439
0.682851433754 0.001753729302 -0.167748540640 -0.994384 0.047775 -0.094439
0.678671717644 -0.043771758676 -0.147809892893 -0.995222 0.097487 0.005356
0.664735317230 -0.190913170576 -0.088287875056 -0.995666 0.092843 -0.005336
0.680325925350 -0.032645612955 -0.186950206757 -0.996181 0.084896 -0.020418
0.698640406132 0.161520391703 -0.275123655796 -0.996181 0.084896 -0.020418
0.653751730919 -0.330461621284 -0.128918915987 -0.996181 0.084896 -0.020418
0.632601737976 -0.610093533993 -0.267925798893 -0.996181 0.084896 -0.020418
0.630805552006 -0.592093467712 -0.098264753819 -0.996181 0.084896 -0.020418
0.656917810440 -0.315024971962 -0.222966372967 -0.996181 0.084896 -0.020418
0.642654418945 -0.474034756422 -0.188168406487 -0.996181 0.084896 -0.020418
0.630224943161 -0.630986154079 -0.237771213055 -0.996181 0.084896 -0.020418
0.641868352890 -0.498417586088 -0.254147022963 -0.996181 0.084896 -0.020418
0.636513531208 -0.526505470276 -0.103692263365 -0.996181 0.084896 -0.020418
0.669872403145 -0.177445352077 -0.284301102161 -0.996181 0.084896 -0.020418
0.660145342350 -0.282330870628 -0.245127841830 -0.996181 0.084896 -0.020418
0.643941044807 -0.431818991899 -0.070157036185 -0.996181 0.084896 -0.020418
0.632178843021 -0.567827641964 -0.062683701515 -0.996181 0.084896 -0.020418
0.627921342850 -0.646830320358 -0.189393520355 -0.996181 0.084896 -0.020418
0.643628060818 -0.475484102964 -0.244026869535 -0.996181 0.084896 -0.020418
0.645839452744 -0.459279716015 -0.286142855883 -0.996181 0.084896 -0.020418
0.679673075676 -0.053503707051 -0.244386106730 -0.996181 0.084896 -0.020418
0.651375651360 -0.374853253365 -0.200943484902 -0.996181 0.084896 -0.020418
0.622635900974 -0.852842092514 -0.298231124878 -0.831314 0.057672 -0.552803
0.673389196396 -0.231436103582 -0.310415297747 -0.831314 0.057672 -0.552803
0.649686694145 -0.449233859777 -0.297269374132 -0.831314 0.057672 -0.552803
0.610306441784 -0.870815515518 -0.146383941174 -0.997558 0.069839 -0.001042
0.612273693085 -0.842934846878 -0.125976577401 -0.997558 0.069839 -0.001042
0.611040055752 -0.860421478748 -0.240237280726 -0.997558 0.069839 -0.001042
0.619882881641 -0.735101699829 -0.041777316481 -0.997558 0.069839 -0.001042
0.612132430077 -0.844934582710 -0.070234939456 -0.997558 0.069839 -0.001042
0.626111090183 -0.646838486195 0.014917338267 -0.997558 0.069839 -0.001042
0.628952324390 -0.606577336788 -0.021762046963 -0.997558 0.069839 -0.001042
0.624476969242 -0.670000672340 -0.087161257863 -0.997558 0.069839 -0.001042
0.628055810928 -0.619281649590 -0.075601175427 -0.997558 0.069839 0.001042
0.643737316132 -0.626785755157 0.036133326590 -0.004080 0.556264 0.830996
0.628503799438 -0.612928211689 0.096776627004 -0.997558 0.069839 -0.001042
0.622432291508 -0.698964893818 0.186676532030 -0.997558 0.069839 -0.001042
0.631589949131 -0.725370347500 0.212277442217 -0.909196 -0.245847 0.336039
0.633257567883 -0.804456114769 0.145950183272 -0.750247 -0.500712 0.431761
0.628845095634 -0.893474280834 0.007493514568 -0.476964 -0.845735 0.239244
0.687204062939 0.099559634924 0.274429976940 -0.834265 0.048910 0.549190
0.688706994057 0.129897430539 0.021249415353 -0.991141 0.132811 0.001098
0.699487984180 0.210955038667 0.025492638350 -0.991141 0.132811 0.001098
0.709580838680 0.286838501692 0.197937875986 -0.991141 0.132811 0.001098
0.706878364086 0.266519784927 0.075512200594 -0.991141 0.132811 0.001098
0.698509335518 0.203596815467 0.259498357773 -0.991141 0.132811 0.001098
0.710237562656 0.291776090860 -0.122643068433 -0.991141 0.132811 0.001098
0.702840566635 0.236161321402 0.025466561317 -0.991141 0.132811 0.001098
0.684053838253 0.094912149012 0.101435616612 -0.991141 0.132811 0.001098
0.705097496510 0.253130376339 0.199861824512 -0.991141 0.132811 0.001098
0.672856688499 -0.107925876975 0.170712977648 -0.995106 -0.065307 0.074162
0.675031363964 -0.093242302537 0.212875872850 -0.995106 -0.065307 0.074162
0.674683511257 -0.174546450377 0.137055367231 -0.995106 -0.065307 0.074162
0.674055933952 -0.082648828626 0.208994150162 -0.995106 -0.065307 0.074162
0.632341861725 -0.558534979820 0.151415258646 -0.997558 0.069839 -0.001042
0.632405817509 -0.557628035545 0.170409590006 -0.997558 0.069839 0.001042
0.645605742931 -0.470904618502 0.067413456738 -0.001357 -0.555013 -0.831841
0.649468958378 -0.302596241236 0.047244820744 0.160743 0.963153 -0.215631
0.619405567646 -0.125940904021 -0.017283523455 -0.590420 0.184602 -0.785701
0.622638761997 -0.903640091419 -0.151451393962 -0.601533 -0.798847 -0.001370
0.678199708462 -0.410042852163 0.298855155706 0.098020 0.036345 0.994521
-0.523362040520 0.943611800671 -0.397636353970 0.001038 0.065416 -0.997858
-0.682754397392 0.731837034225 -0.378682315350 0.789131 -0.613769 -0.023660
-0.593884348869 0.846659600735 -0.393621772528 0.789131 -0.613769 -0.023660
-0.541890680790 0.913352131844 -0.356268137693 0.792878 -0.609379 -0.001369
-0.629640817642 0.799538910389 -0.351885139942 0.792878 -0.609379 -0.001369
-0.490930199623 0.959756612778 -0.325835227966 0.000978 0.000978 -0.999999
-0.287460207939 0.827639758587 -0.325835227966 0.000978 0.000978 -0.999999
-0.374397397041 0.861809432507 -0.325835257769 0.000978 0.000978 -0.999999
-0.533329963684 0.814228832722 -0.325835227966 -0.000978 0.000978 -0.999999
-0.551533818245 0.802977085114 -0.325835227966 -0.000978 0.000978 -0.999999
-0.361005038023 0.827829599380 -0.325835257769 -0.000978 0.000978 -0.999999
-0.588253855705 0.747861564159 -0.325835227966 -0.000978 0.000978 -0.999999
-0.244354248047 0.643811464310 -0.325835287571 -0.000978 0.000978 -0.999999
-0.128172695637 0.639430105686 -0.325835287571 -0.000978 0.000978 -0.999999
-0.586748838425 0.843431770802 -0.325835227966 -0.000978 0.000978 -0.999999
-0.660146355629 0.637677669525 -0.325835227966 -0.000978 0.000978 -0.999999
-0.625064969063 0.691332817078 -0.325835257769 -0.000978 0.000978 -0.999999
-0.242322579026 0.746610879898 -0.325835257769 -0.000978 0.000978 -0.999999
-0.498939424753 0.818066477776 -0.325835257769 -0.000978 0.000978 -0.999999
-0.383150547743 0.831833720207 -0.325835257769 -0.000978 0.000978 -0.999999
-0.692243576050 0.631038010120 -0.389246255159 0.000978 0.999999 0.000978
-0.718082606792 0.631038010120 -0.359103322029 0.000978 0.999999 0.000978
-0.582247376442 0.631038010120 -0.333520591259 0.000978 0.999999 0.000978
-0.220589891076 0.631038010120 -0.374316871166 0.000978 0.999999 0.000978
-0.318651080132 0.631038010120 -0.378628015518 0.000978 0.999999 0.000978
-0.096602812409 0.631038010120 -0.415785849094 0.000978 0.999999 0.000978
-0.115756645799 0.631038010120 -0.375281572342 0.000978 0.999999 0.000978
-0.053293108940 0.627039432526 -0.392777323723 0.999999 -0.000978 -0.000978
-0.053293105215 0.694819092751 -0.307475239038 0.999999 0.000978 0.000978
-0.011843986809 0.978630006313 -0.297835797071 -0.000979 0.002938 -0.999995
-0.021750692278 0.810484528542 -0.298289328814 -0.000979 0.002938 -0.999995
0.045444261283 0.588438332081 -0.298888325691 -0.000979 0.002938 -0.999995
0.036090228707 0.668902218342 -0.298671275377 -0.000979 0.002938 -0.999995
0.046749819070 0.539699971676 -0.405268400908 -0.999999 0.000978 0.000978
0.046749819070 0.605493307114 -0.413603901863 -0.999999 0.000978 0.000978
0.046749819070 0.421836316586 -0.349777877331 -0.999999 0.000978 0.000978
0.046749819070 0.179079309106 -0.330590337515 -0.999999 0.000978 0.000978
0.046749819070 0.232497870922 -0.396473228931 -0.999999 0.000978 0.000978
0.046749819070 -0.000890344381 -0.373377501965 -0.999999 0.000978 0.000978
0.046749819070 0.050397507846 -0.417276263237 -0.999999 0.000978 0.000978
0.046749819070 0.586167693138 -0.415869981050 -0.999999 0.000978 0.000978
0.471229374409 0.261759757996 -0.434927582741 -0.015252 0.027453 -0.999507
0.099760532379 0.115537978709 -0.433503448963 -0.015252 0.027453 -0.999507
0.078510403633 0.483685791492 -0.422950178385 -0.015252 0.027453 -0.999507
0.077532470226 0.575419068336 -0.420384377241 -0.015252 0.027453 -0.999507
0.404199153185 0.371340930462 -0.430889040232 -0.015252 0.027453 -0.999507
0.751495063305 0.343512952328 -0.436796635389 -0.015252 0.027453 -0.999507
0.652361750603 0.213420540094 -0.438949495554 -0.015252 0.027453 -0.999507
0.572463035583 0.331597924232 -0.434481620789 -0.015252 0.027453 -0.999507
0.376591593027 0.365178406239 -0.430652320385 -0.015252 0.027453 -0.999507
0.223563194275 0.343502521515 -0.428993195295 -0.015252 0.027453 -0.999507
0.107171073556 0.119572207332 -0.433500796556 -0.015252 0.027453 -0.999507
0.075641095638 0.391790866852 -0.425463616848 -0.015252 0.027453 -0.999507
0.629035055637 0.330609738827 -0.435345321894 -0.015252 0.027453 -0.999507
0.274717152119 0.457603752613 -0.426575869322 -0.015252 0.027453 -0.999507
0.303228706121 0.222552463412 -0.433534711599 -0.015252 0.027453 -0.999507
0.154444336891 0.212743788958 -0.431608200073 -0.015252 0.027453 -0.999507
0.494930237532 0.220169410110 -0.436434686184 -0.015252 0.027453 -0.999507
0.230390310287 0.464353680611 -0.425732910633 -0.015252 0.027453 -0.999507
0.075726628304 0.581783771515 -0.420180648565 -0.015252 0.027453 -0.999507
0.157310664654 0.227764129639 -0.431232869625 -0.015252 0.027453 -0.999507
0.194964230061 0.539654850960 -0.423114895821 -0.015252 0.027453 -0.999507
0.091186225414 -0.046188399196 -0.437874764204 -0.015252 0.027453 -0.999507
0.135648816824 0.023757610470 -0.436586618423 -0.015252 0.027453 -0.999507
0.106712751091 -0.002680111676 -0.436894178391 -0.015252 0.027453 -0.999507
0.339149683714 0.270774275064 -0.432724505663 -0.015252 0.027453 -0.999507
0.180680215359 0.482383668423 -0.424496650696 -0.015252 0.027453 -0.999507
0.295370191336 0.173291996121 -0.434788644314 -0.015252 0.027453 -0.999507
0.271013170481 0.278935402632 -0.431490361691 -0.015252 0.027453 -0.999507
0.407563656569 0.461606442928 -0.428428232670 -0.015252 0.027453 -0.999507
0.385057181120 0.098717451096 -0.438188433647 -0.015252 0.027453 -0.999507
0.286734282970 0.151589676738 -0.435264557600 -0.015252 0.027453 -0.999507
0.381858855486 -0.163670986891 -0.439292371273 -0.000978 0.000978 -0.999999
0.793368756771 -0.101812958717 -0.439292401075 -0.000978 0.000978 -0.999999
0.866877496243 -0.851995348930 -0.439292430878 -0.000978 0.000978 -0.999999
0.870813906193 0.049055099487 -0.439292401075 -0.000978 0.000978 -0.999999
0.604578197002 -0.581289589405 -0.439292430878 -0.000978 0.000978 -0.999999
0.726831078529 -0.337619185448 -0.439292401075 -0.000978 0.000978 -0.999999
0.699136376381 -0.152431011200 -0.439292371273 -0.000978 0.000978 -0.999999
0.583778321743 -0.293194919825 -0.439292401075 -0.000978 0.000978 -0.999999
0.823759913445 0.257666707039 -0.439292371273 -0.000978 0.000978 -0.999999
0.663589298725 -0.179823458195 -0.439292401075 -0.000978 0.000978 -0.999999
0.840439558029 -1.049588918686 -0.439292460680 -0.000978 0.000978 -0.999999
0.839967966080 -0.648476481438 -0.439292430878 -0.000978 0.000978 -0.999999
0.567522108555 -0.213961482048 -0.439292401075 -0.000978 0.000978 -0.999999
0.708664238453 -0.103863298893 -0.439292371273 -0.000978 0.000978 -0.999999
0.767723739147 -0.927407503128 -0.439292430878 -0.000978 0.000978 -0.999999
0.565846323967 -0.209110915661 -0.439292401075 -0.000978 0.000978 -0.999999
0.781066536903 -0.194904088974 -0.439292401075 -0.000978 0.000978 -0.999999
0.463354706764 -0.081160664558 -0.439292371273 -0.000978 0.000978 -0.999999
0.722403824329 0.144380688667 -0.439292371273 -0.000978 0.000978 -0.999999
0.593358635902 -0.750684022903 -0.439292430878 -0.000978 0.000978 -0.999999
0.808628439903 -0.538937151432 -0.439292430878 -0.000978 0.000978 -0.999999
0.802539229393 -0.856420457363 -0.439292460680 -0.000978 0.000978 -0.999999
0.848923087120 -1.045192360878 -0.439292460680 -0.000978 0.000978 -0.999999
0.715983927250 -0.225035309792 -0.439292401075 -0.000978 0.000978 -0.999999
0.413618087769 -0.053291022778 -0.439292371273 -0.000978 0.000978 -0.999999
0.461748361588 -0.179679155350 -0.439292371273 -0.000978 0.000978 -0.999999
0.570347487926 -0.381022244692 -0.439292401075 -0.000978 0.000978 -0.999999
0.492697894573 0.067968010902 -0.439292341471 -0.000978 0.000978 -0.999999
0.749633729458 0.220064997673 -0.439292371273 -0.000978 0.000978 -0.999999
0.429782241583 -0.162750661373 -0.439292371273 -0.000978 0.000978 -0.999999
0.387792855501 -0.310701429844 -0.439292401075 -0.000978 0.000978 -0.999999
0.846124351025 -1.016210198402 -0.439292460680 -0.000978 0.000978 -0.999999
0.385420858860 -0.218536406755 -0.439292371273 -0.000978 0.000978 -0.999999
0.548015296459 -0.606943488121 -0.439292401075 -0.000978 0.000978 -0.999999
0.758502781391 -0.876675724983 -0.439292430878 -0.000978 0.000978 -0.999999
0.496376574039 -0.206352144480 -0.439292371273 -0.000978 0.000978 -0.999999
0.799533367157 -0.449705779552 -0.439292430878 -0.000978 0.000978 -0.999999
0.564306557178 -0.734539926052 -0.439292401075 -0.000978 0.000978 -0.999999
0.542771458626 -0.145782589912 -0.439292371273 -0.000978 0.000978 -0.999999
0.862552940845 0.211158275604 -0.439292371273 -0.000978 0.000978 -0.999999
0.709458172321 -0.213872671127 -0.439292401075 -0.000978 0.000978 -0.999999
0.381563633680 -0.527803361416 -0.439292401075 -0.000978 0.000978 -0.999999
0.186933457851 -0.143130734563 -0.439292371273 -0.000978 0.000978 -0.999999
0.410833716393 -0.181877523661 -0.439292371273 -0.000978 0.000978 -0.999999
0.850734591484 0.097829580307 -0.439292401075 -0.000978 0.000978 -0.999999
0.813348531723 -0.354936897755 -0.439292430878 -0.000978 0.000978 -0.999999
0.409695386887 -0.006342589855 -0.439292371273 -0.000978 0.000978 -0.999999
0.866529524326 -0.702146232128 -0.439292430878 -0.000978 0.000978 -0.999999
0.464671194553 -0.251811802387 -0.439292371273 -0.000978 0.000978 -0.999999
0.315419763327 0.005987048149 -0.439292341471 -0.000978 0.000978 -0.999999
0.131182283163 -0.174853324890 -0.439292341471 -0.000978 0.000978 -0.999999
0.777552485466 -0.924930632114 -0.439292460680 -0.000978 0.000978 -0.999999
0.585531711578 -0.067221760750 -0.439292401075 -0.000978 0.000978 -0.999999
0.454226374626 -0.337587893009 -0.439292371273 -0.000978 0.000978 -0.999999
0.778359830379 0.049987554550 -0.439292401075 -0.000978 0.000978 -0.999999
0.757548749447 -0.853328287601 -0.439292430878 -0.000978 0.000978 -0.999999
0.653840422630 -0.396290987730 -0.439292401075 -0.000978 0.000978 -0.999999
0.265868455172 -0.286440074444 -0.439292371273 -0.000978 0.000978 -0.999999
0.806176066399 0.148556709290 -0.439292401075 -0.000978 0.000978 -0.999999
0.840089559555 -0.253768384457 -0.439292401075 -0.000978 0.000978 -0.999999
0.335821568966 -0.778016209602 -0.439292371273 -0.000978 0.000978 -0.999999
0.266020953655 -0.785373270512 -0.439292371273 -0.000978 0.000978 -0.999999
0.224678888917 -0.868611156940 -0.439292371273 -0.000978 0.000978 -0.999999
0.082999631763 -0.653093457222 -0.439292341471 -0.000978 0.000978 -0.999999
0.552519083023 -1.000347137451 -0.439292401075 -0.000978 0.000978 -0.999999
0.640670359135 -0.849159598351 -0.439292430878 -0.000978 0.000978 -0.999999
0.316343665123 -0.848229944706 -0.439292401075 -0.000978 0.000978 -0.999999
0.064608320594 -0.715066134930 -0.439292341471 -0.000978 0.000978 -0.999999
0.166983187199 -0.308278858662 -0.439292371273 -0.000978 0.000978 -0.999999
0.684634387493 -0.977819681168 -0.439292460680 -0.000978 0.000978 -0.999999
0.334979146719 -0.604521274567 -0.439292371273 -0.000978 0.000978 -0.999999
0.116435810924 -0.709855377674 -0.439292341471 -0.000978 0.000978 -0.999999
0.517876446247 -0.848359465599 -0.439292401075 -0.000978 0.000978 -0.999999
0.506469488144 -0.773966073990 -0.439292401075 -0.000978 0.000978 -0.999999
0.168629318476 -0.616664409637 -0.439292371273 -0.000978 0.000978 -0.999999
0.849056959152 -1.116755366325 -0.439292460680 -0.000978 0.000978 -0.999999
0.769902586937 -1.016929864883 -0.439292460680 -0.000978 0.000978 -0.999999
0.137197315693 -0.418673336506 -0.439292371273 -0.000978 0.000978 -0.999999
0.567873895168 -0.933649003506 -0.439292430878 -0.000978 0.000978 -0.999999
0.111447185278 -0.434194862843 -0.439292371273 -0.000978 0.000978 -0.999999
0.274343252182 -0.432127118111 -0.439292371273 -0.000978 0.000978 -0.999999
0.152590453625 -0.727701783180 -0.439292341471 -0.000978 0.000978 -0.999999
0.592568337917 -0.840130925179 -0.439292430878 -0.000978 0.000978 -0.999999
0.401900947094 -0.717965126038 -0.439292401075 -0.000978 0.000978 -0.999999
0.057444572449 -0.160828173161 -0.439292341471 -0.000978 0.000978 -0.999999
0.056693285704 -0.566937923431 -0.439292341471 -0.000978 0.000978 -0.999999
0.358679115772 -0.793711900711 -0.439292371273 -0.000978 0.000978 -0.999999
0.619028031826 -0.999992191792 -0.439292430878 -0.000978 0.000978 -0.999999
0.153553485870 -0.644195556641 -0.439292371273 -0.000978 0.000978 -0.999999
0.145871639252 -0.881569921970 -0.439328134060 0.000978 0.000978 -0.999999
0.673156321049 -1.123194098473 -0.439359664917 0.000978 0.000978 -0.999999
0.730047523975 -1.086445331573 -0.439303368330 0.000978 0.000978 -0.999999
0.088649749756 -0.824760437012 -0.439295619726 0.000978 0.000978 -0.999999
0.168764650822 -0.937985479832 -0.439373135567 0.000978 0.000978 -0.999999
0.442062616348 -1.126706004143 -0.439449787140 0.000978 0.000978 -0.999999
0.305115073919 -1.021806240082 -0.439401566982 0.000978 0.000978 -0.999999
0.263904571533 -0.913207292557 -0.439313858747 0.000978 0.000978 -0.999999
0.254528552294 -1.012062549591 -0.439411282539 0.000978 0.000978 -0.999999
0.309621244669 -1.034875631332 -0.439412295818 0.000978 0.000978 -0.999999
0.339483141899 -0.938586890697 -0.439309597015 0.000978 0.000978 -0.999999
0.573478579521 -1.191526055336 -0.224601522088 0.005994 -0.967460 -0.252954
0.605320870876 -1.139653444290 -0.421726256609 0.005994 -0.967460 -0.252954
0.756015360355 -1.182368040085 -0.254610687494 0.005994 -0.967460 -0.252954
0.702660620213 -1.171852111816 -0.296193003654 0.005994 -0.967460 -0.252954
0.613480925560 -1.185514092445 -0.246464297175 0.005994 -0.967460 -0.252954
0.432522028685 -1.143640160561 -0.411191284657 0.005994 -0.967460 -0.252954
0.699218273163 -1.204328656197 -0.172329768538 0.005994 -0.967460 -0.252954
0.859015583992 -1.169546842575 -0.300756126642 0.005994 -0.967460 -0.252954
0.662825107574 -1.171709060669 -0.297818511724 0.005994 -0.967460 -0.252954
0.444557189941 -1.170795321465 -0.307219237089 0.005994 -0.967460 -0.252954
0.737164914608 -1.206566572189 -0.162760108709 0.005994 -0.967460 -0.252954
0.858593523502 -1.216067314148 -0.123207762837 0.005994 -0.967460 -0.252954
0.843342125416 -1.207356095314 -0.156869962811 0.005994 -0.967460 -0.252954
0.646411895752 -1.158440947533 -0.348905026913 0.005994 -0.967460 -0.252954
0.706931829453 -1.182691454887 -0.254706174135 0.005994 -0.967460 -0.252954
0.582000017166 -1.238844990730 -0.038407962769 -0.001186 -0.969369 -0.245605
0.473840028048 -1.192399859428 -0.222260251641 -0.001186 -0.969369 -0.245605
0.706561744213 -1.225354552269 -0.091809593141 -0.001186 -0.969369 -0.245605
0.422141522169 -1.206396818161 -0.166853383183 -0.001186 -0.969369 -0.245605
0.477136284113 -1.223774433136 -0.098064556718 -0.001186 -0.969369 -0.245605
0.638046562672 -1.239852666855 -0.034419499338 -0.001186 -0.969369 -0.245605
0.340501904488 -1.162443399429 -0.340842366219 -0.001186 -0.969369 -0.245605
0.641444921494 -1.245661497116 -0.011425142176 -0.001186 -0.969369 -0.245605
0.307496607304 -1.635100245476 -0.285537004471 0.842385 -0.066318 -0.534780
0.404726058245 -1.473892927170 -0.152619630098 0.842385 -0.066318 -0.534780
0.440278708935 -1.442212343216 -0.100567601621 0.842385 -0.066318 -0.534780
0.492742329836 -1.341154336929 -0.030627805740 0.842385 -0.066318 -0.534780
0.375702172518 -1.232591509819 -0.228916093707 0.842385 -0.066318 -0.534780
0.283705562353 -1.743330240250 -0.309357583523 0.842385 -0.066318 -0.534780
0.281630575657 -1.619170546532 -0.328338801861 0.842385 -0.066318 -0.534780
0.417973011732 -1.240960121155 -0.161203369498 0.842385 -0.066318 -0.534780
0.295777142048 -1.305844306946 -0.345675885677 0.842385 -0.066318 -0.534780
0.358654439449 -1.431430339813 -0.230639263988 0.842385 -0.066318 -0.534780
0.397273570299 -1.231539011002 -0.195034891367 0.842385 -0.066318 -0.534780
0.414863735437 -1.398326158524 -0.146195381880 0.842385 -0.066318 -0.534780
0.317057132721 -1.349409341812 -0.306608855724 0.842385 -0.066318 -0.534780
0.314073741436 -1.618216872215 -0.277302175760 0.842385 -0.066318 -0.534780
0.313323199749 -1.726093530655 -0.264836549759 0.842385 -0.066318 -0.534780
0.273013085127 -1.504445433617 -0.356442779303 0.842385 -0.066318 -0.534780
0.271162539721 -1.263800382614 -0.389808505774 0.842385 -0.066318 -0.534780
0.263591140509 -1.783117294312 -0.336040556431 0.842385 -0.066318 -0.534780
0.454350501299 -1.262935757637 -0.101061820984 0.842385 -0.066318 -0.534780
0.378294795752 -1.268876552582 -0.220237001777 0.842385 -0.066318 -0.534780
0.364091604948 -1.205941438675 -0.250595927238 0.842385 -0.066318 -0.534780
0.392786979675 -1.638838052750 -0.073783859611 0.940046 -0.299665 -0.162832
0.378723442554 -1.705160737038 -0.033028386533 0.940046 -0.299665 -0.162832
0.431580334902 -1.537370562553 -0.035801190883 0.940046 -0.299665 -0.162832
0.341389328241 -1.760313034058 -0.148031175137 0.940046 -0.299665 -0.162832
0.334523886442 -1.834359407425 -0.051216624677 0.940046 -0.299665 -0.162832
0.316466450691 -1.844543337822 -0.137282624841 0.940046 -0.299665 -0.162832
0.319622725248 -1.803374290466 -0.194948360324 0.940046 -0.299665 -0.162832
0.421969562769 -1.561770319939 -0.046573314816 0.940046 -0.299665 -0.162832
0.492714226246 -1.357343912125 -0.013094624504 0.940046 -0.299665 -0.162832
0.394375592470 -1.665654420853 -0.015057533979 0.940046 -0.299665 -0.162832
0.418023705482 -1.535657167435 -0.117691367865 0.940046 -0.299665 -0.162832
0.422660768032 -1.556888818741 -0.051570456475 0.940046 -0.299665 -0.162832
0.403810292482 -1.803550958633 0.019069608301 -0.000978 0.000978 -0.999999
0.454720526934 -1.825893402100 0.019069595262 -0.000978 0.000978 -0.999999
0.614242136478 -1.830922961235 0.019069561735 -0.000978 0.000978 -0.999999
0.404990911484 -1.835625171661 0.019069606438 -0.000978 0.000978 -0.999999
0.426629424095 -1.656800508499 0.019069606438 -0.000978 0.000978 -0.999999
0.571024656296 -1.427294611931 0.019069580361 -0.000978 0.000978 -0.999999
0.530703425407 -1.331263780594 0.019069591537 -0.000978 0.000978 -0.999999
0.520792603493 -1.721180438995 0.019069584087 -0.000978 0.000978 -0.999999
0.733122408390 -1.814756512642 0.019069537520 -0.000978 0.000978 -0.999999
0.463058412075 -1.477559924126 0.019069602713 -0.000978 0.000978 -0.999999
