0.846316218376 2.061829090118 -0.042560238391 0.995532 0.086330 -0.038248
0.837276399136 2.159210681915 -0.057659268379 0.995532 0.086330 -0.038248
0.827855348587 2.171966552734 -0.091627053916 0.576548 0.810086 -0.106552
0.812713623047 2.136394023895 -0.415071338415 0.454887 0.876347 -0.158411
0.848237156868 1.891796708107 -0.411596417427 0.995708 0.086157 0.033808
0.843826830387 1.843827843666 -0.444157004356 0.958944 0.023449 -0.282623
0.835163712502 1.838704586029 -0.474116683006 0.958944 0.023449 -0.282623
0.803207695484 1.775984883308 -0.591824650764 0.956751 0.070255 -0.282299
0.838253974915 1.755578875542 -0.476470708847 0.959249 0.056872 -0.276779
0.866924524307 1.683130860329 -0.396157532930 0.922398 0.357551 0.146081
0.819652020931 2.018344163895 -0.505230128765 0.945149 0.050151 -0.322765
0.542427361012 2.158252000809 -0.420942276716 0.058119 0.806571 0.588273
0.243959769607 2.170113563538 -0.384276956320 0.032749 0.990388 -0.134386
0.298873066902 2.167896032333 -0.387060225010 0.032749 0.990388 -0.134386
0.340207546949 2.173633337021 -0.332661628723 0.032370 0.992314 -0.119435
0.264002650976 2.175832986832 -0.334348738194 0.032370 0.992314 -0.119435
0.381869494915 2.172351598740 -0.332397550344 0.032370 0.992314 -0.119435
0.037713617086 2.192206382751 -0.257432758808 0.032370 0.992314 -0.119435
0.289047658443 2.182301998138 -0.275430470705 0.030308 0.991170 -0.129088
0.135654181242 2.199002742767 -0.147670894861 0.031430 0.996016 -0.083453
0.123386465013 2.195233821869 -0.197002053261 0.031430 0.996016 -0.083453
0.254761815071 2.197860479355 -0.117389254272 0.031430 0.996016 -0.083453
0.046061653644 2.206319093704 -0.093673989177 0.031430 0.996016 -0.083453
0.231292247772 2.193304300308 -0.180205017328 0.031430 0.996016 -0.083453
0.094676211476 2.210283279419 -0.028635250404 0.031430 0.996016 -0.083453
0.025447824970 2.206319570541 -0.101260758936 0.031430 0.996016 -0.083453
0.633133590221 2.198421716690 -0.014270428568 0.025016 0.995199 -0.094625
0.308031678200 2.204128742218 -0.036732360721 0.025016 0.995199 -0.094625
0.643277227879 2.202253341675 0.028752967715 0.025016 0.995199 -0.094625
0.580502688885 2.190780162811 -0.108322486281 0.025016 0.995199 -0.094625
0.425929099321 2.194063663483 -0.112983778119 0.025016 0.995199 -0.094625
0.102676644921 2.216698646545 0.043713442981 0.025016 0.995199 -0.094625
0.465299963951 2.196681261063 -0.075340077281 0.025016 0.995199 -0.094625
0.781532943249 2.198548078537 0.024813674390 0.025016 0.995199 -0.094625
0.458668708801 2.198614120483 -0.056624427438 0.025016 0.995199 -0.094625
0.703932225704 2.199151515961 0.011443931609 0.025016 0.995199 -0.094625
0.484124600887 2.198069334030 -0.055898055434 0.025016 0.995199 -0.094625
0.281612634659 2.201191902161 -0.074453964829 0.025016 0.995199 -0.094625
0.440957397223 2.204405784607 0.076427787542 0.030375 0.991130 0.129376
0.651620686054 2.200938463211 0.054593361914 0.030375 0.991130 0.129376
0.610157966614 2.199518203735 0.074913866818 0.030375 0.991130 0.129376
0.138754904270 2.211133718491 0.121772922575 0.035348 0.997237 0.065340
0.179173722863 2.210841655731 0.103950552642 0.035348 0.997237 0.065340
0.105112008750 2.214624643326 0.086327522993 0.035348 0.997237 0.065340
0.147359699011 2.214199542999 0.069551177323 0.035348 0.997237 0.065340
0.515151679516 2.185627698898 0.170483410358 0.038490 0.962250 0.269430
0.618666172028 2.184200763702 0.160890758038 0.038490 0.962250 0.269430
0.603583455086 2.166442632675 0.226445898414 0.038490 0.962250 0.269430
0.304263025522 2.193538188934 0.172157227993 0.038490 0.962250 0.269430
0.567527949810 2.167588472366 0.227469950914 0.038490 0.962250 0.269430
0.550520122051 2.158771991730 0.261366039515 0.038490 0.962250 0.269430
0.790775299072 2.168590307236 0.188147246838 0.054593 0.956013 0.288200
0.789729654789 2.148838520050 0.247158765793 0.356829 0.883793 0.302627
0.239076808095 2.163744926453 0.282883644104 0.033655 0.958544 0.282951
0.109534963965 2.189301967621 0.212257504463 0.033655 0.958544 0.282951
0.353624403477 2.174534320831 0.232271775603 0.033655 0.958544 0.282951
0.114729210734 2.167193174362 0.286486476660 0.033655 0.958544 0.282951
0.189417660236 2.181005477905 0.230536058545 0.033655 0.958544 0.282951
-0.138655528426 2.185706138611 0.219081982970 -0.038726 0.958167 0.283577
-0.204261317849 2.179543972015 0.230984836817 -0.038726 0.958167 0.283577
-0.331262469292 2.190418243408 0.176810413599 -0.038726 0.958167 0.283577
-0.069131731987 2.201640129089 0.174624264240 -0.038726 0.958167 0.283577
-0.319771647453 2.178944587708 0.217233687639 -0.038726 0.958167 0.283577
-0.469743609428 2.188198566437 0.165406793356 -0.038726 0.958167 0.283577
-0.002256340580 2.172975540161 0.280826985836 -0.038726 0.958167 0.283577
-0.096719637513 2.213518381119 0.108172841370 -0.035348 0.997237 0.065340
-0.464126378298 2.199939966202 0.113404050469 -0.035348 0.997237 0.065340
-0.067724086344 2.212846517563 0.134750813246 -0.035348 0.997237 0.065340
-0.482042253017 2.204569816589 0.064798682928 -0.030375 0.991130 0.129376
-0.351618289948 2.208325624466 0.066383287311 -0.030375 0.991130 0.129376
-0.787129342556 2.187787771225 0.122027389705 -0.030375 0.991130 0.129376
-0.755634963512 2.194597959518 0.077428936958 -0.030375 0.991130 0.129376
-0.381012260914 2.205556631088 -0.002038907260 -0.025016 0.995199 -0.094625
-0.306471705437 2.199603557587 -0.084099724889 -0.025016 0.995199 -0.094625
-0.172549754381 2.207094669342 -0.039554823190 -0.025016 0.995199 -0.094625
-0.228575110435 2.212153911591 0.028294697404 -0.025016 0.995199 -0.094625
-0.217821091413 2.209350585938 -0.004070839845 -0.025016 0.995199 -0.094625
-0.124714106321 2.212014675140 0.000041741994 -0.025016 0.995199 -0.094625
-0.135981887579 2.215722084045 0.042082972825 -0.025016 0.995199 -0.094625
-0.377367973328 2.194389104843 -0.120859250426 -0.025016 0.995199 -0.094625
-0.449669063091 2.196730852127 -0.077497132123 -0.025016 0.995199 -0.094625
-0.510553061962 2.203666925430 0.011416914873 -0.025016 0.995199 -0.094625
-0.409690260887 2.200891733170 -0.043884623796 -0.025016 0.995199 -0.094625
-0.304362982512 2.196313619614 -0.119370147586 -0.025016 0.995199 -0.094625
-0.025156319141 2.196277856827 -0.221048265696 -0.031430 0.996016 -0.083453
-0.380602359772 2.183736324310 -0.237877249718 -0.031430 0.996016 -0.083453
-0.222595974803 2.200145006180 -0.101584643126 -0.031430 0.996016 -0.083453
-0.076702021062 2.204112529755 -0.108708888292 -0.031430 0.996016 -0.083453
-0.098707832396 2.197098255157 -0.183918073773 -0.031430 0.996016 -0.083453
-0.006838176399 2.203926563263 -0.136921212077 -0.031430 0.996016 -0.083453
-0.437257260084 2.181530714035 -0.243015199900 -0.031430 0.996016 -0.083453
-0.270947694778 2.181926727295 -0.281994819641 -0.030308 0.991170 -0.129088
-0.226758956909 2.185977935791 -0.261076956987 -0.030308 0.991170 -0.129088
-0.296370178461 2.175539016724 -0.327758520842 -0.032370 0.992314 -0.119435
-0.112012580037 2.189091205597 -0.263828217983 -0.032370 0.992314 -0.119435
-0.327475994825 2.177835464478 -0.300393402576 -0.032370 0.992314 -0.119435
-0.281986176968 2.179181814194 -0.301249116659 -0.032370 0.992314 -0.119435
-0.369576215744 2.166952133179 -0.375818490982 -0.032749 0.990388 -0.134386
-0.368771106005 2.171117782593 -0.345127463341 -0.032749 0.990388 -0.134386
-0.278629004955 2.161637067795 -0.412455260754 -0.009549 0.833478 -0.552469
0.220168456435 2.160866737366 -0.419261038303 -0.001356 0.833922 -0.551880
-0.590459764004 2.153684854507 -0.430916488171 -0.005836 0.976906 -0.213589
-0.817836105824 2.135135650635 -0.408685922623 -0.454887 0.876347 -0.158411
-0.818448364735 2.137466430664 -0.393744885921 -0.452985 0.878472 -0.151960
-0.833051085472 2.163735151291 -0.129427552223 -0.576548 0.810086 -0.106552
-0.815335035324 2.190147161484 0.047630224377 -0.394014 0.914822 0.088619
-0.805640459061 2.153776884079 0.214448004961 -0.356829 0.883793 0.302627
-0.776435017586 2.123239755630 0.314199239016 -0.321981 0.847727 0.421530
-0.763456344604 2.089836597443 0.391158759594 -0.307896 0.852517 0.422391
-0.711004734039 2.016916275024 0.570045769215 -0.063291 0.914351 0.399945
-0.705802261829 2.073155403137 0.442390918732 -0.063291 0.914351 0.399945
-0.664637386799 1.940463662148 0.747369349003 0.046549 0.916351 0.397662
-0.621183276176 1.935563802719 0.761207401752 -0.071574 0.965627 0.249883
-0.368447124958 1.928434729576 0.799418628216 -0.036823 0.874207 0.484155
-0.332598149776 1.937649846077 0.785469055176 -0.036823 0.874207 0.484155
-0.219154417515 1.916804552078 0.808569133282 0.017208 0.443437 0.896140
-0.536903023720 1.869067430496 0.838008522987 0.017208 0.443437 0.896140
-0.496255993843 1.881243944168 0.831234216690 0.017208 0.443437 0.896140
-0.604534387589 1.817439556122 0.893562734127 0.645327 0.709380 0.283432
-0.551358103752 1.805773854256 0.918313145638 -0.037996 0.923684 0.381265
-0.150788530707 1.834714531898 0.888397991657 -0.037996 0.923684 0.381265
-0.352405995131 1.805765271187 0.938385844231 -0.037996 0.923684 0.381265
-0.101181879640 1.832688450813 0.898318707943 -0.037996 0.923684 0.381265
-0.094760127366 1.809129834175 0.938918232918 0.001350 0.840871 0.541234
-0.581612765789 1.771345496178 0.997794091702 0.001350 0.840871 0.541234
-0.117072135210 1.782362818718 0.980509281158 0.001350 0.840871 0.541234
-0.200993180275 1.790894865990 0.967285275459 0.001350 0.840871 0.541234
-0.078122429550 1.794619798660 0.961453616619 0.001350 0.840871 0.541234
-0.366836011410 1.759693622589 1.011154413223 -0.064739 -0.358049 0.931456
-0.603118479252 1.770626544952 0.998026490211 -0.152127 0.760636 0.631102
-0.731111526489 1.891846656799 0.736506998539 -0.805483 0.134989 0.577040
-0.759870111942 1.961383700371 0.593040466309 -0.902627 0.299891 0.308755
-0.795846402645 1.939201831818 0.487231999636 -0.961996 0.090948 0.257472
-0.833681821823 2.084867000580 0.243829458952 -0.952623 0.233103 0.195375
-0.858365893364 1.941796541214 0.157177090645 -0.994833 0.095636 0.034077
-0.843046605587 2.095499515533 0.175215244293 -0.994833 0.095636 0.034077
-0.850722014904 2.016464710236 0.171718969941 -0.994833 0.095636 0.034077
-0.866272091866 1.869436621666 0.051038462669 -0.995395 0.095566 -0.007516
-0.865294873714 1.884627580643 0.110711462796 -0.995395 0.095566 -0.007516
-0.850601077080 2.045364379883 0.064363755286 -0.995613 0.086337 0.036065
-0.834891259670 2.148779392242 -0.169901579618 -0.995532 0.086330 -0.038248
-0.845322906971 2.074136018753 -0.065795809031 -0.995532 0.086330 -0.038248
-0.838212072849 2.156434774399 -0.065398320556 -0.995532 0.086330 -0.038248
-0.836023569107 2.092185974121 -0.268746316433 -0.995532 0.086330 -0.038248
-0.841103136539 2.044960737228 -0.242762863636 -0.995532 0.086330 -0.038248
-0.858656525612 1.908341407776 -0.092608764768 -0.995532 0.086330 -0.038248
-0.854311823845 1.978529334068 -0.047154959291 -0.995532 0.086330 -0.038248
-0.867643296719 1.838181972504 -0.016221728176 -0.995532 0.086330 -0.038248
-0.843906044960 2.037622213364 -0.185903623700 -0.995532 0.086330 -0.038248
-0.861450076103 1.833849072456 -0.197265088558 -0.995423 0.088506 -0.036058
-0.861790835857 1.825517773628 -0.208286017179 -0.995423 0.088506 -0.036058
-0.859699130058 1.868088722229 -0.161638304591 -0.995423 0.088506 -0.036058
-0.857629835606 1.887539982796 -0.171007022262 -0.995423 0.088506 -0.036058
-0.865266442299 1.801292300224 -0.171864211559 -0.995423 0.088506 -0.036058
-0.863039135933 1.860178947449 -0.088988184929 -0.995423 0.088506 -0.036058
-0.854718625546 1.925241231918 -0.158870145679 -0.995423 0.088506 -0.036058
-0.837990999222 2.044897794724 -0.326656132936 -0.995423 0.088506 -0.036058
-0.832772612572 2.005376815796 -0.424785524607 -0.969748 0.094333 -0.225143
-0.847330510616 1.896343946457 -0.407358050346 -0.969748 0.094333 -0.225143
-0.816267907619 1.968477725983 -0.510627865791 -0.969748 0.094333 -0.225143
-0.808120608330 2.034241914749 -0.526398539543 0.891220 -0.291102 0.347830
-0.828543961048 1.841952085495 -0.495903551579 -0.958129 0.046462 -0.282541
-0.808832883835 1.966680526733 -0.542758703232 -0.958129 0.046462 -0.282541
-0.821025311947 1.779749393463 -0.533198058605 -0.956919 0.067713 -0.282349
-0.860754907131 1.727486133575 -0.407331019640 -0.959249 0.056872 -0.276779
-0.832278907299 1.720385670662 -0.510224521160 -0.801179 0.585760 -0.122464
-0.882102906704 1.527189493179 -0.270736932755 -0.865397 0.077142 0.495114
-0.817486584187 0.909620165825 -0.601798415184 -0.933103 -0.282036 -0.223103
-0.812484562397 0.900285005569 -0.612525284290 -0.947931 0.003717 -0.318455
-0.876030802727 0.933617770672 -0.423006176949 -0.947931 0.003717 -0.318455
-0.869327187538 0.774003624916 -0.444303482771 -0.947931 0.003717 -0.318455
-0.850126922131 0.741472125053 -0.501753568649 -0.947931 0.003717 -0.318455
-0.811912596226 0.671763598919 -0.624023735523 -0.952459 0.016143 -0.304240
-0.822241663933 0.749773621559 -0.587964832783 -0.952459 0.016143 -0.304240
-0.821077048779 0.469323396683 -0.595871984959 -0.952066 -0.001228 -0.305890
-0.872268497944 0.496372163296 -0.436349749565 -0.952066 -0.001228 -0.305890
-0.856867074966 0.631601989269 -0.485314190388 -0.952066 -0.001228 -0.305890
-0.868257522583 -0.026145100594 -0.445324867964 -0.952066 -0.001228 -0.305890
-0.827512443066 0.584149599075 -0.576572597027 -0.952066 -0.001228 -0.305890
-0.831869006157 0.301912814379 -0.561069846153 -0.952066 -0.001228 -0.305890
-0.865355610847 0.329231023788 -0.456784397364 -0.952066 -0.001228 -0.305890
-0.868156611919 0.580940723419 -0.449750304222 -0.952066 -0.001228 -0.305890
-0.870823144913 -0.115804433823 -0.436713457108 -0.952066 -0.001228 -0.305890
-0.842055797577 0.627499639988 -0.531494200230 -0.952066 -0.001228 -0.305890
-0.836227416992 0.258565783501 -0.547179281712 -0.952066 -0.001228 -0.305890
-0.846004247665 0.609828710556 -0.519056320190 -0.952066 -0.001228 -0.305890
-0.843122661114 0.367331266403 -0.526403963566 -0.952066 -0.001228 -0.305890
-0.840906798840 0.263934999704 -0.532617032528 -0.952066 -0.001228 -0.305890
-0.831685125828 0.340446889400 -0.561904489994 -0.952066 -0.001228 -0.305890
-0.815679132938 0.208874642849 -0.612879395485 -0.956644 0.001219 -0.291258
-0.823842167854 -0.185219615698 -0.586598932743 -0.956644 0.001219 -0.291258
-0.805381715298 -0.144584953785 -0.647008180618 -0.956644 0.001219 -0.291258
-0.841783583164 -0.419113069773 -0.528111100197 -0.956644 0.001219 -0.291258
-0.846214950085 -0.367722332478 -0.513539910316 -0.956644 0.001219 -0.291258
-0.821111619473 -0.066046655178 -0.595404207706 -0.956644 0.001219 -0.291258
-0.856064856052 -0.569702088833 -0.481514424086 -0.956644 0.001219 -0.291258
-0.811573863029 -0.165334358811 -0.626753330231 -0.956644 0.001219 -0.291258
-0.806442260742 -0.334301233292 -0.643752694130 -0.956644 0.001219 -0.291258
-0.834274053574 0.080310106277 -0.552130579948 -0.956644 0.001219 -0.291258
-0.831054329872 -0.061145931482 -0.562837421894 -0.956644 0.001219 -0.291258
-0.812206506729 0.306514382362 -0.624139785767 -0.956644 0.001219 -0.291258
-0.811481237411 0.459886252880 -0.626338958740 -0.956644 0.001219 -0.291258
-0.821569740772 -0.025861054659 -0.593857944012 -0.956644 0.001219 -0.291258
-0.808662354946 -0.332054942846 -0.636479616165 -0.956644 0.001219 -0.291258
-0.828423142433 -0.084984928370 -0.571481406689 -0.956644 0.001219 -0.291258
-0.880708813667 0.189592212439 -0.356560379267 -0.997037 -0.003159 -0.076857
-0.876217901707 0.227735891938 -0.416373968124 -0.997037 -0.003159 -0.076857
-0.874417960644 -0.323270559311 -0.417303264141 -0.997037 -0.003159 -0.076857
-0.878569245338 0.058705136180 -0.378991603851 -0.997037 -0.003159 -0.076857
-0.874936759472 -0.635013520718 -0.397887527943 -0.997037 -0.003159 -0.076857
-0.878241658211 0.325440108776 -0.394095152617 -0.997037 -0.003159 -0.076857
-0.877807021141 -0.045933589339 -0.384621381760 -0.997037 -0.003159 -0.076857
-0.880258858204 -0.032492548227 -0.353360742331 -0.997037 -0.003159 -0.076857
-0.879900097847 -0.131946563721 -0.353967666626 -0.997037 -0.003159 -0.076857
-0.877689719200 -0.244119167328 -0.378078818321 -0.997037 -0.003159 -0.076857
-0.877819597721 -0.143237844110 -0.380498647690 -0.997037 -0.003159 -0.076857
-0.877798974514 -0.120673596859 -0.381685018539 -0.997037 -0.003159 -0.076857
-0.877141356468 0.125238656998 -0.400223314762 -0.997037 -0.003159 -0.076857
-0.879831314087 0.166817754507 -0.367017507553 -0.997037 -0.003159 -0.076857
-0.876260280609 0.192941218615 -0.414408564568 -0.997037 -0.003159 -0.076857
-0.874976217747 -0.480582237244 -0.403659522533 -0.997037 -0.003159 -0.076857
-0.891783177853 -0.099031478167 -0.097252175212 -0.999356 0.005073 -0.035510
-0.884417951107 0.632108569145 -0.213089108467 -0.999356 0.005073 -0.035510
-0.886485517025 -0.027994910255 -0.239415556192 -0.999356 0.005073 -0.035510
-0.887796044350 -0.294738620520 -0.236480817199 -0.999356 0.005073 -0.035510
-0.884831011295 0.630430161953 -0.201505228877 -0.999356 0.005073 -0.035510
-0.891894638538 0.299789190292 -0.042475521564 -0.999356 0.005073 -0.035510
-0.890502870083 -0.350223869085 -0.166325867176 -0.999356 0.005073 -0.035510
-0.878531873226 0.567728340626 -0.389580219984 -0.999356 0.005073 -0.035510
-0.890993654728 0.001191408839 -0.106844037771 -0.999356 0.005073 -0.035510
-0.884289681911 0.499060422182 -0.233966559172 -0.999356 0.005073 -0.035510
-0.887807011604 0.216979399323 -0.169967904687 -0.999356 0.005073 -0.035510
-0.891094028950 -0.390679746866 -0.154670149088 -0.999356 0.005073 -0.035510
-0.886511623859 0.546512186527 -0.164346650243 -0.999356 0.005073 -0.035510
-0.888606131077 -0.155600488186 -0.195336997509 -0.999356 0.005073 -0.035510
-0.886470854282 0.359996318817 -0.189641550183 -0.999356 0.005073 -0.035510
-0.889720797539 0.190555185080 -0.118710115552 -0.999356 0.005073 -0.035510
-0.886136054993 0.125291585922 -0.229570060968 -0.999356 0.005073 -0.035510
-0.891850352287 0.005114015192 -0.081860199571 -0.999356 0.005073 -0.035510
-0.889976203442 -0.438010275364 -0.192729324102 -0.999356 0.005073 -0.035510
-0.887877285480 0.237486720085 -0.165308415890 -0.999356 0.005073 -0.035510
-0.883665323257 0.580592751503 -0.241257414222 -0.999356 0.005073 -0.035510
-0.889308571815 -0.439930111170 -0.212051868439 -0.999356 0.005073 -0.035510
-0.881885409355 0.306807279587 -0.327526628971 -0.999356 0.005073 -0.035510
-0.887397527695 0.066648691893 -0.201114580035 -0.999356 0.005073 -0.035510
-0.891987085342 0.190950930119 -0.053913384676 -0.999356 0.005073 -0.035510
-0.885373353958 0.045610249043 -0.261666178703 -0.999356 0.005073 -0.035510
-0.886624991894 0.351008474827 -0.186399906874 -0.999356 0.005073 -0.035510
-0.884431064129 -0.020203178748 -0.297101885080 -0.999356 0.005073 -0.035510
-0.888317346573 -0.305995494127 -0.223044827580 -0.999356 0.005073 -0.035510
-0.885255277157 0.143668174744 -0.252354830503 -0.999356 0.005073 -0.035510
-0.891675055027 -0.144394844770 -0.035144682974 -0.999995 -0.000981 0.002944
-0.891421675682 -0.551181256771 -0.165575712919 -0.999995 -0.000981 0.002944
-0.891514599323 -0.406723558903 -0.120190508664 -0.999995 -0.000981 0.002944
-0.891608476639 -0.346802473068 -0.119014777243 -0.999995 -0.000981 0.002944
-0.891454875469 -0.264743208885 -0.027427865192 -0.999995 -0.000981 0.002944
-0.891508877277 -0.325992792845 -0.076445996761 -0.999995 -0.000981 0.002944
-0.891599297523 -0.342157959938 -0.113664522767 -0.999995 -0.000981 0.002944
-0.891438364983 -0.313438653946 -0.047453064471 -0.999995 -0.000981 0.002944
-0.890910506248 -0.594734907150 -0.025187173858 -0.999995 -0.000981 0.002944
-0.890764474869 -0.638625323772 -0.001395100262 -0.999995 -0.000981 0.002944
-0.891062438488 -0.414199292660 0.020104942843 -0.999995 -0.000981 0.002944
-0.891669213772 -0.287042379379 -0.107361517847 -0.999995 -0.000981 0.002944
-0.892366766930 0.341003656387 -0.003679054789 -0.999995 -0.000981 0.002944
-0.893030762672 0.351952224970 0.050377421081 -0.999573 -0.001007 -0.029192
-0.891923129559 0.107774056494 0.024510826916 -0.999573 -0.001007 -0.029192
-0.892871439457 0.329626798630 0.046007089317 -0.999573 -0.001007 -0.029192
-0.893117070198 0.567161083221 0.042413122952 -0.999573 -0.001007 -0.029192
-0.892156898975 0.179505631328 0.028942186385 -0.999573 -0.001007 -0.029192
-0.892237842083 -0.372538357973 0.046312861145 -0.995906 0.003189 -0.090344
-0.894809007645 -0.592403769493 0.068473353982 -0.995906 0.003189 -0.090344
-0.895095765591 -0.568432807922 0.072385482490 -0.995906 0.003189 -0.090344
-0.894953191280 -0.109851807356 0.084418766201 -0.995906 0.003189 -0.090344
-0.893407404423 -0.170188799500 0.065376773477 -0.995906 0.003189 -0.090344
-0.892917454243 -0.288011938334 0.140313073993 -0.992979 0.001085 0.118289
-0.881025791168 0.485415548086 0.229940772057 -0.992979 0.001085 0.118289
-0.880948424339 0.633200109005 0.228546246886 -0.992979 0.001085 0.118289
-0.895217895508 -0.449214488268 0.123134702444 -0.992979 0.001085 0.118289
-0.892410635948 0.497747927904 0.133701741695 -0.992979 0.001085 0.118289
-0.890313565731 0.485777616501 0.151563391089 -0.992979 0.001085 0.118289
-0.887944400311 0.615955173969 0.169751152396 -0.992979 0.001085 0.118289
-0.886611104012 0.299785166979 0.185382872820 -0.992979 0.001085 0.118289
-0.887098729610 0.146536320448 0.183391392231 -0.992979 0.001085 0.118289
-0.888468265533 -0.609075009823 0.166888087988 -0.988993 -0.001112 0.147960
-0.882896602154 -0.227299004793 0.208891645074 -0.988993 -0.001112 0.147960
-0.885540783405 -0.112967878580 0.192698061466 -0.988993 -0.001112 0.147960
-0.885529279709 -0.171125918627 0.192039027810 -0.988993 -0.001112 0.147960
-0.885561883450 0.161494463682 0.196031540632 -0.988993 -0.001112 0.147960
-0.890135288239 -0.442202389240 0.157879129052 -0.988993 -0.001112 0.147960
-0.884234189987 -0.191493630409 0.200420781970 -0.988993 -0.001112 0.147960
-0.885019600391 0.090121850371 0.198745861650 -0.988993 -0.001112 0.147960
-0.884578764439 0.059619724751 0.201300874352 -0.988993 -0.001112 0.147960
-0.872945070267 0.272610336542 0.249968871474 -0.565648 -0.006815 0.824619
-0.874122083187 -0.183028101921 0.245504528284 -0.565648 -0.006815 0.824619
-0.868237435818 0.755429148674 0.255954623222 -0.566240 0.001358 0.824239
-0.864190578461 0.876024246216 0.258569866419 -0.566240 0.001358 0.824239
-0.842155277729 1.690470576286 0.272079527378 -0.627208 0.004135 0.778841
-0.852247297764 1.524359226227 0.264929503202 -0.627208 0.004135 0.778841
-0.837883591652 1.798562884331 0.275767892599 -0.638907 -0.012473 0.769183
-0.846918642521 1.997266888618 0.267721861601 -0.649768 0.001380 0.760132
-0.794237971306 1.913877844810 0.472937345505 -0.951271 -0.282595 0.123387
-0.772622585297 1.872097969055 0.543565750122 -0.951271 -0.282595 0.123387
-0.800966262817 1.886368989944 0.358791649342 -0.951271 -0.282595 0.123387
-0.754465758801 1.817182898521 0.555860936642 -0.949312 -0.288921 0.123823
-0.744692027569 1.795930743217 0.581250250340 -0.949312 -0.288921 0.123823
-0.737825095654 1.750677108765 0.605860292912 -0.931179 0.229625 0.283157
-0.777613162994 1.760130167007 0.466590285301 -0.931179 0.229625 0.283157
-0.784725368023 1.837747573853 0.380001306534 -0.931179 0.229625 0.283157
-0.734594643116 1.667089581490 0.694589734077 -0.922630 0.265453 0.279802
-0.806556165218 1.740939974785 0.388242810965 -0.922630 0.265453 0.279802
-0.773432374001 1.730939149857 0.506626188755 -0.922630 0.265453 0.279802
-0.811831176281 1.718849778175 0.385294824839 -0.975002 0.025061 0.220778
-0.832087635994 1.724868178368 0.294897139072 -0.975798 0.022582 0.217504
-0.836277902126 1.589234709740 0.283916831017 -0.981469 0.012746 0.191195
-0.808099627495 0.672633051872 0.466674923897 -0.971381 -0.065417 0.228342
-0.828345835209 0.599849641323 0.378035694361 -0.972209 0.050139 0.228683
-0.836866557598 0.630726873875 0.335100650787 -0.972209 0.050139 0.228683
-0.850813865662 0.093168631196 0.279659777880 -0.971989 0.001181 0.235025
-0.852799892426 -0.059577077627 0.269533008337 -0.992690 0.001087 0.120688
-0.861916661263 -0.051484480500 0.256021499634 -0.693136 -0.001384 0.720806
-0.866908192635 -0.329001158476 0.250449955463 -0.693136 -0.001384 0.720806
-0.797793745995 -0.627419948578 0.515335738659 -0.974157 -0.037329 0.222768
-0.823314964771 -0.662201106548 0.397633075714 -0.974157 -0.037329 0.222768
-0.822548329830 -0.665206432343 0.400504797697 -0.974157 -0.037329 0.222768
-0.766176462173 -0.608973383904 0.655072748661 -0.973545 -0.020257 0.227597
-0.760149955750 -0.592749476433 0.682353854179 -0.973545 -0.020257 0.227597
-0.787935137749 -0.557056248188 0.566619515419 -0.973545 -0.020257 0.227597
-0.747106492519 -0.491186231375 0.726222813129 -0.952980 0.011124 0.302828
-0.746175765991 -0.301538169384 0.727588653564 -0.938428 0.001256 0.345472
-0.775662362576 0.577225923538 0.610923528671 -0.970852 0.081008 0.225577
-0.745417177677 -0.096082806587 0.739158391953 -0.959707 0.003649 -0.280979
-0.744103193283 0.370869487524 0.741829276085 -0.959707 0.003649 -0.280979
-0.749934971333 0.822833418846 0.773090362549 -0.959269 0.010998 -0.282282
-0.750495612621 0.760304570198 0.772562086582 -0.959269 0.010998 -0.282282
-0.740931510925 0.766173005104 0.740134477615 -0.962603 0.010925 -0.270694
-0.739898920059 0.851966202259 0.739787817001 -0.962603 0.010925 -0.270694
-0.774778723717 1.637407183647 0.557181239128 -0.976071 0.008222 0.217296
-0.764101803303 0.673769533634 0.647912144661 -0.971242 -0.013141 0.237733
-0.727070212364 1.737030506134 0.722854316235 -0.909505 -0.033097 -0.414374
-0.728520989418 1.866102218628 0.764416396618 -0.953410 0.060148 0.295621
-0.719169795513 1.843549370766 0.793200552464 -0.911677 0.057735 0.406831
-0.737870395184 1.626673102379 0.781097531319 -0.890965 0.047464 0.451585
-0.737847745419 1.273774743080 0.789519608021 -0.896224 0.009212 0.443506
-0.735307991505 1.227890610695 0.795506954193 -0.896224 0.009212 0.443506
-0.733961105347 0.893106520176 0.803553760052 -0.888235 0.006619 0.459341
-0.735530614853 0.958862245083 0.799470663071 -0.888235 0.006619 0.459341
-0.752150058746 -0.121102377772 0.775677859783 -0.887734 0.001319 0.460355
-0.744243621826 0.290496021509 0.789298951626 -0.887734 0.001319 0.460355
-0.750203192234 0.075293712318 0.778656721115 -0.887734 0.001319 0.460355
-0.750890612602 -0.506026387215 0.752096891403 -0.963008 0.003625 -0.269449
-0.749370694160 -0.166748076677 0.751642882824 -0.963008 0.003625 -0.269449
-0.752048850060 -0.108919709921 0.762023687363 -0.963008 0.003625 -0.269449
-0.745880663395 -0.354476690292 0.787075042725 -0.848828 -0.001345 0.528668
-0.744423508644 -0.575884282589 0.789000570774 -0.848828 -0.001345 0.528668
-0.737222909927 -0.528471469879 0.800637423992 -0.848828 -0.001345 0.528668
-0.730607748032 -0.353666216135 0.814974963665 -0.961751 -0.001207 0.273924
-0.715058267117 0.113960087299 0.871460556984 -0.961751 -0.001207 0.273924
-0.722567319870 -0.312817454338 0.843473076820 -0.961751 -0.001207 0.273924
-0.713763535023 -0.136842548847 0.875140547752 -0.961751 -0.001207 0.273924
-0.718177974224 -0.231417685747 0.859239220619 -0.961751 -0.001207 0.273924
-0.693520307541 -0.458819627762 0.945389509201 -0.961751 -0.001207 0.273924
-0.714184463024 -0.290599673986 0.873113214970 -0.961751 -0.001207 0.273924
-0.727978706360 -0.398996531963 0.824085950851 -0.961751 -0.001207 0.273924
-0.717359840870 -0.459966242313 0.861317276955 -0.961751 -0.001207 0.273924
-0.720824539661 -0.584603607655 0.848658919334 -0.961751 -0.001207 0.273924
-0.722229003906 0.223235696554 0.846559524536 -0.961751 -0.001207 0.273924
-0.714959621429 -0.098673731089 0.871057331562 -0.961751 -0.001207 0.273924
-0.724456310272 -0.673673689365 0.834414720535 -0.961042 -0.035962 0.274052
-0.677520930767 -0.844264149666 0.967583537102 -0.966872 -0.079211 0.242661
-0.689803183079 -0.790171384811 0.936306178570 -0.966872 -0.079211 0.242661
-0.664588212967 -1.127402424812 0.927416086197 -0.966872 -0.079211 0.242661
-0.721334755421 -0.698691129684 0.840693473816 -0.966872 -0.079211 0.242661
-0.715461730957 -0.774772763252 0.839419424534 -0.966872 -0.079211 0.242661
-0.684183776379 -1.227383852005 0.863134741783 -0.927881 -0.043188 0.370367
-0.685275375843 -1.365143537521 0.844283044338 -0.927881 -0.043188 0.370367
-0.684441685677 -1.340563774109 0.849249660969 -0.927881 -0.043188 0.370367
-0.686525225639 -1.057565689087 0.877122282982 -0.927881 -0.043188 0.370367
-0.683158457279 -1.311958074570 0.855815351009 -0.927881 -0.043188 0.370367
-0.678846120834 -1.232358694077 0.875945389271 -0.927881 -0.043188 0.370367
-0.692567884922 -1.465889096260 0.814202070236 -0.927881 -0.043188 0.370367
-0.692252933979 -1.321679592133 0.831859588623 -0.927881 -0.043188 0.370367
-0.627154350281 -1.501567959785 0.826495587826 -0.155686 -0.648440 0.745176
-0.662676393986 -1.443617939949 0.869404852390 -0.155686 -0.648440 0.745176
-0.652172923088 -1.430141687393 0.883288204670 -0.155686 -0.648440 0.745176
-0.562151014805 -1.408039093018 0.921207010746 -0.155686 -0.648440 0.745176
-0.578521668911 -1.378442883492 0.943417370319 -0.149057 -0.642901 0.751306
-0.563751816750 -1.380417704582 0.944644629955 -0.149057 -0.642901 0.751306
-0.436275511980 -1.448600769043 0.911528170109 -0.149057 -0.642901 0.751306
-0.565619766712 -1.533940196037 0.799322724342 -0.123022 -0.781116 0.612146
-0.363661408424 -1.551380753517 0.816428840160 -0.047050 -0.904698 0.423447
-0.314111053944 -0.959952831268 1.001072525978 -0.063072 -0.035277 0.997385
-0.622713267803 -1.068142652512 0.977992713451 -0.063072 -0.035277 0.997385
-0.477982223034 -0.868797302246 0.994003832340 -0.063072 -0.035277 0.997385
-0.500792443752 -1.098323941231 0.984565615654 -0.063072 -0.035277 0.997385
-0.513010919094 -0.837247669697 0.992913901806 -0.063072 -0.035277 0.997385
-0.600440979004 -0.933023095131 0.984102070332 -0.063072 -0.035277 0.997385
-0.444680541754 -0.830427587032 0.997426211834 -0.063072 -0.035277 0.997385
-0.213069319725 -0.798596084118 1.013024806976 -0.063072 -0.035277 0.997385
-0.501331627369 -1.215306043625 0.980448663235 -0.063072 -0.035277 0.997385
-0.541445612907 -0.864641845226 0.990179121494 -0.063072 -0.035277 0.997385
-0.147825062275 -0.871139168739 1.014573931694 -0.063072 -0.035277 0.997385
-0.417019724846 -0.826732397079 0.999285340309 -0.063072 -0.035277 0.997385
-0.297201871872 -0.864964187145 1.005445718765 -0.063072 -0.035277 0.997385
-0.651847302914 -0.826500952244 0.984604597092 -0.063072 -0.035277 0.997385
-0.222049430013 -0.958842158318 1.006869912148 -0.063072 -0.035277 0.997385
-0.288015723228 -0.799115777016 1.008318662643 -0.063072 -0.035277 0.997385
-0.487932890654 -0.807806849480 0.995510160923 -0.063072 -0.035277 0.997385
-0.376477301121 -0.795582115650 1.002908587456 -0.063072 -0.035277 0.997385
-0.223103046417 -0.952029407024 1.007041811943 -0.063072 -0.035277 0.997385
-0.575846433640 -0.779860198498 0.990518569946 -0.063479 -0.003122 0.997978
-0.350339204073 -0.766242265701 1.004691123962 -0.063479 -0.003122 0.997978
-0.046389572322 -0.771525144577 1.023696541786 -0.063479 -0.003122 0.997978
-0.475234866142 -0.781877398491 0.996808528900 -0.063479 -0.003122 0.997978
-0.570309162140 -0.703440785408 0.991313099861 -0.061405 -0.005204 0.998099
-0.519910931587 -0.705957412720 0.994434952736 -0.061405 -0.005204 0.998099
-0.238885983825 -0.683460354805 1.012061476707 -0.061405 -0.005204 0.998099
-0.650020956993 -0.679756939411 0.986493170261 -0.061405 -0.005204 0.998099
-0.209314972162 -0.121247574687 1.019165277481 -0.061660 -0.009406 0.998053
-0.198147192597 -0.094383217394 1.020115494728 -0.061660 -0.009406 0.998053
-0.138673558831 -0.390556812286 1.021012544632 -0.061660 -0.009406 0.998053
-0.088204205036 -0.587958574295 1.022284984589 -0.061660 -0.009406 0.998053
-0.128944888711 0.072592303157 1.026008486748 -0.061660 -0.009406 0.998053
-0.046862903982 0.004496702924 1.030475497246 -0.061660 -0.009406 0.998053
-0.059815336019 0.193078279495 1.031456232071 -0.061660 -0.009406 0.998053
-0.142300516367 -0.498341619968 1.019765019417 -0.061660 -0.009406 0.998053
-0.244032487273 0.077352076769 1.018885493279 -0.061660 -0.009406 0.998053
-0.297596395016 -0.292319953442 1.012045264244 -0.061660 -0.009406 0.998053
-0.263732075691 -0.319619983435 1.013895630836 -0.061660 -0.009406 0.998053
-0.526988446712 -0.548342108727 0.995330810547 -0.061660 -0.009406 0.998053
-0.289594173431 -0.363960653543 1.011864542961 -0.061660 -0.009406 0.998053
-0.130553781986 -0.363233625889 1.021777272224 -0.061660 -0.009406 0.998053
-0.135032370687 0.253685832024 1.027345776558 -0.061660 -0.009406 0.998053
-0.210041180253 -0.089199230075 1.019423842430 -0.061660 -0.009406 0.998053
-0.397640079260 -0.126189410686 1.007388710976 -0.061660 -0.009406 0.998053
-0.107190750539 0.370848923922 1.030190467834 -0.061660 -0.009406 0.998053
-0.505774557590 -0.463160753250 0.997459530830 -0.061660 -0.009406 0.998053
-0.173082783818 0.216970086098 1.024627923965 -0.061660 -0.009406 0.998053
-0.000610376243 0.577714622021 1.038789629936 -0.061660 -0.009406 0.998053
-0.294195145369 -0.118973910809 1.013900160789 -0.061660 -0.009406 0.998053
-0.330111891031 -0.405239492655 1.008949637413 -0.061660 -0.009406 0.998053
-0.557522892952 -0.488555788994 0.993995666504 -0.061660 -0.009406 0.998053
-0.497825324535 -0.476418018341 0.997829079628 -0.061660 -0.009406 0.998053
-0.442785114050 -0.293464243412 1.002991199493 -0.061660 -0.009406 0.998053
-0.358127474785 -0.282820045948 1.008365035057 -0.061660 -0.009406 0.998053
-0.183560609818 -0.417696774006 1.017959594727 -0.061660 -0.009406 0.998053
-0.205011263490 -0.096756882966 1.019665479660 -0.061660 -0.009406 0.998053
-0.094038121402 0.169012024999 1.029096603394 -0.061660 -0.009406 0.998053
-0.185136497021 -0.574191331863 1.016378045082 -0.061660 -0.009406 0.998053
-0.358058959246 -0.547306001186 1.005862355232 -0.061660 -0.009406 0.998053
-0.381237208843 -0.361276626587 1.006182074547 -0.061660 -0.009406 0.998053
-0.271143049002 -0.337588399649 1.013263821602 -0.061660 -0.009406 0.998053
-0.400684505701 -0.654191255569 1.002194404602 -0.061660 -0.009406 0.998053
-0.571302652359 -0.602706551552 0.992055475712 -0.061660 -0.009406 0.998053
-0.544759750366 -0.482851356268 0.994844675064 -0.061660 -0.009406 0.998053
-0.424791842699 -0.492577850819 1.002224802971 -0.061660 -0.009406 0.998053
-0.443421810865 -0.310465544462 1.002790570259 -0.061660 -0.009406 0.998053
-0.008660580963 -0.197545751929 1.030939936638 -0.061660 -0.009406 0.998053
-0.621664345264 -0.630688667297 0.988653421402 -0.061660 -0.009406 0.998053
-0.175342157483 0.264722377062 1.024939775467 -0.061660 -0.009406 0.998053
-0.251618832350 -0.612917482853 1.011870145798 -0.061660 -0.009406 0.998053
-0.031855136156 0.447674512863 1.035610914230 -0.061660 -0.009406 0.998053
-0.335957020521 -0.006962954998 1.012356042862 -0.065961 -0.007329 0.997795
-0.569197177887 0.456748068333 1.000232577324 -0.065961 -0.007329 0.997795
-0.639911949635 0.269266933203 0.994172096252 -0.065961 -0.007329 0.997795
-0.279448866844 0.434499621391 1.019319295883 -0.065961 -0.007329 0.997795
-0.433094203472 -0.016704142094 1.005832195282 -0.065961 -0.007329 0.997795
-0.480890899897 -0.018228411674 1.002645969391 -0.065961 -0.007329 0.997795
-0.562950968742 -0.140061438084 0.996308922768 -0.065961 -0.007329 0.997795
-0.561680197716 -0.084625005722 0.996796309948 -0.065961 -0.007329 0.997795
-0.540014088154 0.586882889271 1.003117322922 -0.065961 -0.007329 0.997795
-0.551883578300 0.416186660528 1.001087903976 -0.065961 -0.007329 0.997795
-0.415761709213 0.159923225641 1.008267760277 -0.065961 -0.007329 0.997795
-0.216965943575 0.434447348118 1.023469686508 -0.065961 -0.007329 0.997795
-0.488857448101 0.291039824486 1.004365086555 -0.065961 -0.007329 0.997795
-0.500334501266 0.271057099104 1.003457307816 -0.065961 -0.007329 0.997795
-0.593708336353 -0.186188578606 0.993930399418 -0.065961 -0.007329 0.997795
-0.580213308334 -0.079505980015 0.995602428913 -0.065961 -0.007329 0.997795
-0.576218843460 -0.416435301304 0.993418335915 -0.065961 -0.007329 0.997795
-0.415470838547 0.004517555237 1.007157325745 -0.065961 -0.007329 0.997795
-0.260046839714 0.272868901491 1.019433140755 -0.065961 -0.007329 0.997795
-0.556670486927 -0.067781984806 0.997251510620 -0.065961 -0.007329 0.997795
-0.483417153358 0.127805709839 1.003539800644 -0.065961 -0.007329 0.997795
-0.438894003630 -0.161655068398 1.004393100739 -0.065961 -0.007329 0.997795
-0.632628798485 -0.218464016914 0.991110086441 -0.065961 -0.007329 0.997795
-0.536753237247 -0.111412703991 0.998257577419 -0.065961 -0.007329 0.997795
-0.497531086206 0.526438653469 1.005500197411 -0.065961 -0.007329 0.997795
-0.066916845739 0.620668590069 1.034791469574 -0.065961 -0.007329 0.997795
-0.433165132999 0.310284763575 1.008204698563 -0.065961 -0.007329 0.997795
-0.438521683216 0.106383681297 1.006366491318 -0.065961 -0.007329 0.997795
-0.156365096569 0.439397513866 1.027531504631 -0.065961 -0.007329 0.997795
-0.629797101021 0.609655141830 0.997318506241 -0.065961 -0.007329 0.997795
-0.403041630983 0.502928495407 1.011606216431 -0.065961 -0.007329 0.997795
-0.195179551840 0.510626614094 1.025470733643 -0.065961 -0.007329 0.997795
-0.298303127289 0.413124710321 1.017911314964 -0.065961 -0.007329 0.997795
-0.424385815859 -0.123749911785 1.005632519722 -0.065961 -0.007329 0.997795
-0.492173761129 -0.183969080448 1.000691533089 -0.065961 -0.007329 0.997795
-0.533139586449 0.087520658970 0.999943852425 -0.065961 -0.007329 0.997795
-0.507806181908 0.010414004326 1.001066207886 -0.065961 -0.007329 0.997795
-0.516299843788 0.079895019531 1.001006960869 -0.065961 -0.007329 0.997795
-0.284213095903 0.122022569180 1.016731142998 -0.065961 -0.007329 0.997795
-0.595383226871 0.422780334949 0.998246192932 -0.065961 -0.007329 0.997795
-0.482337445021 0.091502785683 1.003347516060 -0.065961 -0.007329 0.997795
-0.380869626999 0.072196066380 1.009947896004 -0.065961 -0.007329 0.997795
-0.462770491838 -0.052668213844 1.003599286079 -0.065961 -0.007329 0.997795
-0.463513821363 -0.112359285355 1.003116011620 -0.065961 -0.007329 0.997795
-0.421364456415 0.843128979206 1.011288285255 -0.065416 -0.001038 0.997858
-0.171724364161 1.132643342018 1.027853012085 -0.065416 -0.001038 0.997858
-0.119560219347 0.752883911133 1.031309485435 -0.065416 -0.001038 0.997858
-0.449402898550 0.712432801723 1.009426712990 -0.065416 -0.001038 0.997858
-0.198582112789 1.073386669159 1.026070594788 -0.065416 -0.001038 0.997858
-0.329858601093 0.883839607239 1.017359375954 -0.065416 -0.001038 0.997858
-0.269911110401 1.002933144569 1.021337747574 -0.065416 -0.001038 0.997858
-0.588180303574 0.630260050297 1.000218987465 -0.065416 -0.001038 0.997858
-0.472707867622 0.713532507420 1.007880568504 -0.065416 -0.001038 0.997858
-0.283329308033 0.761152923107 1.020444869995 -0.065416 -0.001038 0.997858
-0.056616917253 1.400885701180 1.035492420197 -0.065416 -0.001038 0.997858
-0.066164255142 1.189581036568 1.034856677055 -0.065416 -0.001038 0.997858
-0.161576926708 1.161189794540 1.028526544571 -0.065416 -0.001038 0.997858
-0.105957224965 1.274803757668 1.032217621803 -0.065416 -0.001038 0.997858
-0.560789823532 0.685122668743 1.002036809921 -0.065416 -0.001038 0.997858
-0.001796259894 0.907417953014 1.039123892784 -0.065416 -0.001038 0.997858
-0.110351316631 1.200076222420 1.031925320625 -0.065416 -0.001038 0.997858
-0.284192591906 0.701902151108 1.020386934280 -0.065416 -0.001038 0.997858
-0.385520726442 0.689485013485 1.013664484024 -0.065416 -0.001038 0.997858
-0.571821928024 0.661964416504 1.001304626465 -0.065416 -0.001038 0.997858
-0.160805031657 1.098020434380 1.028577089310 -0.065416 -0.001038 0.997858
-0.085786126554 1.133388161659 1.033554315567 -0.065416 -0.001038 0.997858
-0.019020825624 1.063433885574 1.037982940674 -0.065416 -0.001038 0.997858
-0.250144779682 1.120694518089 1.022650361061 -0.065416 -0.001038 0.997858
-0.258027017117 0.908717632294 1.022125124931 -0.065416 -0.001038 0.997858
-0.303323924541 1.044127702713 1.019121408463 -0.065416 -0.001038 0.997858
-0.247417405248 0.640479564667 1.022826075554 -0.065416 -0.001038 0.997858
-0.070236131549 0.837873458862 1.034582734108 -0.065416 -0.001038 0.997858
-0.268101930618 0.846171379089 1.021456003189 -0.065416 -0.001038 0.997858
0.160262435675 0.742701470852 1.028572797775 0.065416 0.001038 0.997858
0.221659705043 1.159530758858 1.024495005608 0.065416 0.001038 0.997858
0.265020608902 0.668548464775 1.021623730659 0.065416 0.001038 0.997858
0.069096326828 0.722228586674 1.034621119499 0.065416 0.001038 0.997858
0.117928400636 1.079361915588 1.031377553940 0.065416 0.001038 0.997858
0.462190151215 0.706908345222 1.008542656898 0.065416 0.001038 0.997858
0.051890969276 1.094808340073 1.035758495331 0.065416 0.001038 0.997858
0.030369400978 0.655690431595 1.037191033363 0.065416 0.001038 0.997858
0.388691037893 0.815671980381 1.013417482376 0.065416 0.001038 0.997858
0.140036642551 1.138303518295 1.029910206795 0.065416 0.001038 0.997858
0.047005325556 0.805284678936 1.036085724831 0.065416 0.001038 0.997858
0.353089630604 1.002714514732 1.015777349472 0.065416 0.001038 0.997858
0.134298980236 0.628177702427 1.030296444893 0.065416 0.001038 0.997858
0.331230938435 0.683224320412 1.017230987549 0.065416 0.001038 0.997858
0.135475695133 0.913867175579 1.030215263367 0.065416 0.001038 0.997858
0.360196173191 0.715832233429 1.015309095383 0.065416 0.001038 0.997858
0.234381198883 0.748624801636 1.023655533791 0.065416 0.001038 0.997858
0.105464577675 1.131868600845 1.032203912735 0.065416 0.001038 0.997858
0.075385570526 0.767697930336 1.034203410149 0.065416 0.001038 0.997858
0.278380423784 0.881251215935 1.020735144615 0.065416 0.001038 0.997858
0.127108067274 0.720485806465 1.030772447586 0.065416 0.001038 0.997858
0.249177247286 1.148044705391 1.022669553757 0.065416 0.001038 0.997858
0.256113111973 0.848093628883 1.022212743759 0.065416 0.001038 0.997858
0.098559364676 1.241330385208 1.032660841942 0.065416 0.001038 0.997858
0.315958946943 0.654777467251 1.018244504929 0.065416 0.001038 0.997858
0.147202640772 0.804706990719 1.029438495636 0.065416 0.001038 0.997858
0.396567583084 0.756292283535 1.012895703316 0.065416 0.001038 0.997858
0.096183389425 1.027376294136 1.032820820808 0.065416 0.001038 0.997858
0.245413780212 0.816392958164 1.022922873497 0.065416 0.001038 0.997858
-0.138159319758 1.409918308258 1.031240820885 -0.052882 -0.011406 0.998536
-0.099740348756 1.442147731781 1.033620715141 -0.052882 -0.011406 0.998536
-0.523598909378 1.220810294151 1.008806467056 -0.052882 -0.011406 0.998536
-0.129774555564 1.367387175560 1.031227946281 -0.052882 -0.011406 0.998536
-0.546356141567 0.936544239521 1.004549145699 -0.052882 -0.011406 0.998536
-0.481295764446 1.338071942329 1.012304902077 -0.052882 -0.011406 0.998536
-0.105193249881 1.381240963936 1.032678008080 -0.052882 -0.011406 0.998536
-0.426070362329 1.271034836769 1.014508485794 -0.052882 -0.011406 0.998536
-0.530261874199 0.934519171715 1.005379319191 -0.052882 -0.011406 0.998536
-0.522659063339 0.870807290077 1.005097746849 -0.052882 -0.011406 0.998536
-0.358837544918 1.327858209610 1.018677711487 -0.052882 -0.011406 0.998536
-0.392502665520 1.479460358620 1.018523573875 -0.052882 -0.011406 0.998536
-0.222637146711 1.442642211914 1.027120232582 -0.052882 -0.011406 0.998536
-0.259783565998 1.396095037460 1.024654030800 -0.052882 -0.011406 0.998536
-0.373327165842 1.271294116974 1.017303347588 -0.052882 -0.011406 0.998536
-0.636865913868 1.476842284203 1.005559802055 -0.052882 -0.011406 0.998536
-0.449271738529 1.038727760315 1.010785698891 -0.052882 -0.011406 0.998536
-0.497386455536 1.361585497856 1.011705636978 -0.052882 -0.011406 0.998536
-0.483177304268 1.128414988518 1.009953975677 -0.052882 -0.011406 0.998536
-0.593371748924 1.164924502373 1.004512786865 -0.052882 -0.011406 0.998536
-0.605322837830 0.813117802143 1.000102281570 -0.052882 -0.011406 0.998536
-0.649761915207 0.886003732681 0.998532533646 -0.052882 -0.011406 0.998536
-0.469577223063 1.430610179901 1.013918995857 -0.052882 -0.011406 0.998536
-0.628150880337 1.340381145477 1.004555821419 -0.052882 -0.011406 0.998536
-0.629338443279 1.256219863892 1.003589153290 -0.052882 -0.011406 0.998536
-0.600504875183 1.072565793991 1.003143429756 -0.052882 -0.011406 0.998536
-0.538010835648 1.327531099319 1.009189486504 -0.052882 -0.011406 0.998536
-0.599468529224 1.351886153221 1.006197690964 -0.052882 -0.011406 0.998536
-0.585838556290 0.943854868412 1.002537727356 -0.052882 -0.011406 0.998536
-0.512142837048 1.492047667503 1.011800527573 -0.052183 0.039403 0.997860
-0.143110975623 1.530428767204 1.029521226883 -0.052183 0.039403 0.997860
-0.303228080273 1.532664537430 1.021076202393 -0.052183 0.039403 0.997860
-0.205300018191 1.542038440704 1.025811076164 -0.052183 0.039403 0.997860
-0.556241810322 1.550121068954 1.007173657417 -0.052183 0.039403 0.997860
-0.639838218689 1.684051036835 0.997448146343 -0.052183 0.039403 0.997860
-0.527106702328 1.540766477585 1.009068727493 -0.052183 0.039403 0.997860
-0.335456937551 1.593721508980 1.016949295998 -0.052183 0.039403 0.997860
-0.585554778576 1.680264115334 1.000432491302 -0.052183 0.039403 0.997860
-0.436169356108 1.690082788467 1.008142948151 -0.060190 0.024287 0.997891
-0.466924369335 1.715539455414 1.005704045296 -0.060190 0.024287 0.997891
-0.184714868665 1.747036218643 1.021714210510 -0.060190 0.024287 0.997891
-0.359083324671 1.671376109123 1.013172507286 -0.060190 0.024287 0.997891
-0.164426803589 1.581756353378 1.026891231537 -0.060190 0.024287 0.997891
-0.092376410961 1.682037472725 1.028762221336 -0.060190 0.024287 0.997891
-0.044852286577 1.559945225716 1.034519791603 -0.060190 0.024287 0.997891
-0.316886484623 1.756744027138 1.013628125191 -0.060190 0.024287 0.997891
-0.060678288341 1.550668120384 1.033802270889 -0.060190 0.024287 0.997891
-0.663444519043 1.701120018959 0.959272503853 -0.939575 0.077749 0.333398
-0.660001993179 1.724852085114 0.963550865650 -0.939575 0.077749 0.333398
-0.655802011490 1.630465507507 0.997206449509 -0.939575 0.077749 0.333398
-0.690033257008 1.819990634918 0.868836462498 -0.934735 0.050986 0.351669
-0.683953583241 1.798020720482 0.888230562210 -0.934735 0.050986 0.351669
-0.688514292240 1.732737421989 0.885769128799 -0.934735 0.050986 0.351669
-0.679005503654 1.490764975548 0.959588110447 -0.955077 0.008604 0.296234
-0.725549399853 1.242395639420 0.816354870796 -0.955077 0.008604 0.296234
-0.695698142052 1.168588161469 0.914943873882 -0.955077 0.008604 0.296234
-0.709352374077 1.450043439865 0.862701892853 -0.955077 0.008604 0.296234
-0.705565929413 1.481773376465 0.874021768570 -0.955077 0.008604 0.296234
-0.722781360149 1.101452469826 0.829365789890 -0.955077 0.008604 0.296234
-0.702327489853 1.076492905617 0.896179318428 -0.955077 0.008604 0.296234
-0.698544621468 1.444959759712 0.897772073746 -0.955077 0.008604 0.296234
-0.695095121861 1.480700135231 0.907887458801 -0.955077 0.008604 0.296234
-0.706447362900 1.442129850388 0.872317194939 -0.955077 0.008604 0.296234
-0.682740330696 1.013775229454 0.961740076542 -0.955770 0.008611 0.293988
-0.710916459560 0.825428724289 0.875824630260 -0.955770 0.008611 0.293988
-0.688225805759 0.851479411125 0.948867976665 -0.955770 0.008611 0.293988
-0.698833048344 0.920073986053 0.912244200706 -0.955770 0.008611 0.293988
-0.670360445976 1.104093551636 0.999257028103 -0.955770 0.008611 0.293988
-0.673848450184 1.014483928680 0.990655362606 -0.955770 0.008611 0.293988
-0.677502930164 0.657224655151 0.989723265171 -0.955770 0.008611 0.293988
-0.694715976715 0.704140365124 0.932267069817 -0.955770 0.008611 0.293988
-0.713624060154 0.608716487885 0.873165607452 -0.955540 0.001223 0.294859
-0.721902012825 0.494099378586 0.847052693367 -0.955540 0.001223 0.294859
-0.699465453625 -0.212051272392 0.925179660320 -0.955540 0.001223 0.294859
-0.712149620056 0.579285621643 0.878177046776 -0.955540 0.001223 0.294859
-0.688287079334 0.072230979800 0.959505677223 -0.955540 0.001223 0.294859
