-0.272245377302 -1.724342584610 -0.622492671013 0.000985 -0.008867 -0.999960
0.115096151829 -1.863921046257 -0.621190547943 0.000985 -0.008867 -0.999960
-0.102820426226 -1.836425304413 -0.621447205544 0.000985 -0.008867 -0.999960
-0.270840853453 -1.727846860886 -0.622459948063 0.000985 -0.008867 -0.999960
-0.479829192162 -1.709471702576 -0.622631609440 0.000985 -0.008867 -0.999960
0.164215892553 -1.830918431282 -0.621498227119 0.000985 -0.008867 -0.999960
0.308763742447 -1.941132426262 -0.620470225811 0.000985 -0.008867 -0.999960
-0.136610984802 -1.660553455353 -0.623087346554 0.000985 -0.008867 -0.999960
-0.464496403933 -1.679864048958 -0.622907698154 0.000985 -0.008867 -0.999960
-0.440132766962 -1.703089833260 -0.622691035271 0.000985 -0.008867 -0.999960
-0.563399970531 -1.869351744652 -0.621140778065 0.000985 -0.008867 -0.999960
-0.407165288925 -1.946451902390 -0.620421588421 0.000985 -0.008867 -0.999960
-0.335151612759 -1.616391420364 -0.623499453068 0.000985 -0.008867 -0.999960
-0.496000856161 -1.917623519897 -0.620690524578 0.000985 -0.008867 -0.999960
-0.541970491409 -1.790184497833 -0.621879041195 0.000985 -0.008867 -0.999960
-0.115121066570 -1.798559546471 -0.621800303459 0.000985 -0.008867 -0.999960
0.103795468807 -1.900273561478 -0.620851516724 0.000985 -0.008867 -0.999960
-0.110612690449 -1.706846237183 -0.622655630112 0.000985 -0.008867 -0.999960
0.109517306089 -1.784106373787 -0.621934831142 0.000985 -0.008867 -0.999960
-0.172220796347 -1.764287352562 -0.622120022774 0.000985 -0.008867 -0.999960
0.064243957400 -1.895651102066 -0.620894670486 0.000985 -0.008867 -0.999960
-0.387537658215 -1.688565731049 -0.622826457024 0.000985 -0.008867 -0.999960
0.253240853548 -1.829815864563 -0.621508359909 0.000985 -0.008867 -0.999960
-0.432688355446 -1.752726554871 -0.622228205204 0.000985 -0.008867 -0.999960
0.091125413775 -1.864474654198 -0.621185362339 0.000985 -0.008867 -0.999960
-0.265760123730 -1.829929590225 -0.621508002281 0.000985 -0.008867 -0.999960
-0.585896849632 -1.875116825104 -0.495701283216 -0.952576 0.303376 -0.023721
-0.516111493111 -1.665142416954 -0.607963562012 -0.952576 0.303376 -0.023721
-0.594216167927 -1.905854821205 -0.557308614254 -0.952576 0.303376 -0.023721
-0.526899099350 -1.696281552315 -0.573273956776 -0.952576 0.303376 -0.023721
-0.607384085655 -1.900160431862 -0.341081827879 -0.957241 0.271456 -0.100010
-0.579309105873 -1.853098869324 -0.480841547251 -0.957241 0.271456 -0.100010
-0.549437344074 -1.737211465836 -0.451148241758 -0.957241 0.271456 -0.100010
-0.509073734283 -1.634399414062 -0.556798338890 -0.957241 0.271456 -0.100010
-0.542635440826 -1.718977928162 -0.466490060091 -0.957241 0.271456 -0.100010
-0.553605079651 -1.662263274193 -0.359951019287 -0.962642 0.141986 -0.230565
-0.588526308537 -1.769770741463 -0.279701352119 -0.962642 0.141986 -0.230565
-0.532839536667 -1.586920857430 -0.400665640831 -0.962642 0.141986 -0.230565
-0.500374913216 -1.564075469971 -0.522588253021 -0.962642 0.141986 -0.230565
-0.565539896488 -1.616167783737 -0.281684666872 -0.962642 0.141986 -0.230565
-0.594304442406 -1.687773466110 -0.205181509256 -0.962642 0.141986 -0.230565
-0.526521265507 -1.641155362129 -0.460408389568 -0.962642 0.141986 -0.230565
-0.599564373493 -1.469716429710 -0.149114638567 -0.964929 -0.001199 -0.262509
-0.566017329693 -1.538398385048 -0.271914392710 -0.964929 -0.001199 -0.262509
-0.532617747784 -1.494950890541 -0.394337445498 -0.964929 -0.001199 -0.262509
-0.604811429977 -1.566005706787 -0.129751786590 -0.964929 -0.001199 -0.262509
-0.540221452713 -1.466232061386 -0.366523057222 -0.964929 -0.001199 -0.262509
-0.548014521599 -1.469462752342 -0.337968379259 -0.964929 -0.001199 -0.262509
-0.574510931969 -1.602080464363 -0.240705162287 -0.964929 -0.001199 -0.262509
-0.628979086876 -1.551069259644 -0.117282576859 -0.025067 -0.003008 -0.999681
-0.708279788494 -1.603795409203 -0.115127883852 -0.025067 -0.003008 -0.999681
-0.724233031273 -1.507813692093 -0.114920392632 -0.025067 -0.003008 -0.999681
-0.752108991146 -1.484038352966 -0.114252664149 -0.025067 -0.003008 -0.999681
-0.865006327629 -1.575132846832 -0.112785533071 0.001048 0.076536 -0.997066
-0.910446524620 -1.609667062759 -0.115402184427 0.001048 0.076536 -0.997066
-0.940993666649 -1.680955052376 -0.124158903956 0.001116 0.155160 -0.987889
-0.885362863541 -1.708705067635 -0.132629007101 -0.021037 0.290802 -0.956552
-0.881759583950 -1.721098899841 -0.136854290962 -0.070091 0.441159 -0.894688
-0.859712660313 -1.790779471397 -0.178945407271 -0.105085 0.519669 -0.847881
-0.849456429482 -1.780965805054 -0.174218326807 -0.105085 0.519669 -0.847881
-0.751453399658 -1.710505008698 -0.143340364099 -0.105085 0.519669 -0.847881
-0.642188131809 -1.739885091782 -0.175078898668 -0.105085 0.519669 -0.847881
-0.713016569614 -1.836505174637 -0.225406587124 -0.105085 0.519669 -0.847881
-0.909419059753 -1.783249020576 -0.168407872319 -0.035257 0.658594 -0.751672
-0.866187989712 -1.868659138680 -0.255241066217 0.001371 0.788169 -0.615457
-0.825493335724 -1.913086891174 -0.353708535433 -0.024247 0.937980 -0.345840
-0.797466933727 -1.920432209969 -0.375568449497 -0.024247 0.937980 -0.345840
-0.657044649124 -1.898870110512 -0.326987951994 -0.024247 0.937980 -0.345840
-0.774108171463 -1.897934794426 -0.316259682178 -0.024247 0.937980 -0.345840
-0.762375175953 -1.939198613167 -0.437811315060 0.001191 0.967932 -0.251210
-0.874359726906 -1.943185806274 -0.468087464571 0.001067 0.995277 -0.097074
-0.854864060879 -1.946956753731 -0.506490647793 0.001067 0.995277 -0.097074
-0.852988362312 -1.947354316711 -0.511897742748 -0.017459 0.999273 -0.033891
-0.663464665413 -1.950776338577 -0.574813306332 -0.005254 0.997199 -0.074606
-0.712599575520 -1.944691181183 -0.489237695932 -0.005254 0.997199 -0.074606
-0.862193703651 -1.949000358582 -0.537850797176 -0.005254 0.997199 -0.074606
0.153859734535 -2.356835126877 -0.289027750492 0.012420 -0.801756 -0.597522
0.914838314056 -1.879776000977 -0.272400587797 0.003849 0.922424 -0.386161
0.925624489784 -1.890092492104 -0.293081790209 0.001308 0.898831 -0.438294
0.757624745369 -1.902911067009 -0.330070883036 0.024305 0.937672 -0.346670
0.930230975151 -1.908791542053 -0.333792030811 0.024305 0.937672 -0.346670
0.614432811737 -1.891286253929 -0.308708548546 0.024305 0.937672 -0.346670
0.862525820732 -1.919970393181 -0.368717968464 0.029666 0.932535 -0.359858
0.768825888634 -1.934482574463 -0.418510854244 0.001191 0.967932 -0.251210
0.936949849129 -1.923974394798 -0.377927333117 0.001191 0.967932 -0.251210
0.880195260048 -1.948261141777 -0.516499161720 0.001067 0.995277 -0.097074
0.848691701889 -1.942600607872 -0.458873420954 0.001067 0.995277 -0.097074
0.785385370255 -1.950897812843 -0.564464747906 0.005254 0.997199 -0.074606
0.666811645031 -1.943425059319 -0.471418678761 0.005254 0.997199 -0.074606
0.751974701881 -1.949148416519 -0.543069839478 0.005254 0.997199 -0.074606
0.822416245937 -1.953622817993 -0.605098843575 0.001010 0.999374 -0.035367
0.544301211834 -1.748833179474 -0.532075166702 0.952576 0.303376 -0.023721
0.525946140289 -1.693959951401 -0.567338883877 0.952576 0.303376 -0.023721
0.571565985680 -1.837061166763 -0.569218754768 0.952576 0.303376 -0.023721
0.595739662647 -1.913724660873 -0.581344604492 0.952576 0.303376 -0.023721
0.571846663952 -1.806368827820 -0.421421647072 0.957241 0.271456 -0.100010
0.556565940380 -1.754389286041 -0.426220238209 0.957241 0.271456 -0.100010
0.569971203804 -1.812063455582 -0.454696744680 0.957241 0.271456 -0.100010
0.573431193829 -1.810015320778 -0.416204005480 0.957241 0.271456 -0.100010
0.595744907856 -1.897709131241 -0.441115021706 0.957241 0.271456 -0.100010
0.603944242001 -1.731317162514 -0.190107092261 0.962642 0.141986 -0.230565
0.559001982212 -1.701510190964 -0.360062777996 0.962642 0.141986 -0.230565
0.500704050064 -1.576887249947 -0.527899980545 0.962642 0.141986 -0.230565
0.568641006947 -1.662269353867 -0.295673817396 0.962642 0.141986 -0.230565
0.497429370880 -1.589379668236 -0.549261629581 0.962642 0.141986 -0.230565
0.562028825283 -1.726793050766 -0.362865775824 0.962642 0.141986 -0.230565
0.540869414806 -1.661559700966 -0.411538064480 0.962642 0.141986 -0.230565
0.695604264736 -1.811786651611 -0.212227910757 0.107931 0.519509 -0.847621
0.762277364731 -1.774380087852 -0.180912300944 0.107931 0.519509 -0.847621
0.634813725948 -1.836052417755 -0.234748914838 0.107931 0.519509 -0.847621
0.608162164688 -1.656706452370 -0.128170996904 0.107931 0.519509 -0.847621
0.663985490799 -1.848708033562 -0.238836497068 0.107931 0.519509 -0.847621
0.857950091362 -1.731673479080 -0.143743246794 0.070091 0.441159 -0.894688
0.871176183224 -1.688611626625 -0.126729160547 0.021037 0.290802 -0.956552
0.811871290207 -1.667717933655 -0.122038476169 0.001116 0.155160 -0.987889
0.929923355579 -1.555554986000 -0.111271105707 0.001048 0.076536 -0.997066
0.820119261742 -1.582428336143 -0.113307714462 0.001048 0.076536 -0.997066
0.619188666344 -1.436403870583 -0.117767423391 0.025067 -0.003008 -0.999681
0.827388823032 -1.499781131744 -0.112270206213 0.025067 -0.003008 -0.999681
0.764375448227 -1.587375998497 -0.113706611097 0.025067 -0.003008 -0.999681
0.804601430893 -1.573240160942 -0.112700670958 0.025067 -0.003008 -0.999681
0.800096690655 -1.482974767685 -0.113008916378 0.025067 -0.003008 -0.999681
0.572173714638 -1.453392267227 -0.248736247420 0.964763 -0.001201 -0.263117
0.563445568085 -1.570736646652 -0.280384570360 0.964763 -0.001201 -0.263117
0.574680149555 -1.522593975067 -0.239360585809 0.964763 -0.001201 -0.263117
0.497006118298 -1.505503535271 -0.523968815804 0.964763 -0.001201 -0.263117
0.590820550919 -1.572409629822 -0.180090814829 0.964763 -0.001201 -0.263117
0.566634476185 -1.541242361069 -0.268784075975 0.964763 -0.001201 -0.263117
0.605670213699 -1.440742015839 -0.126056745648 0.964763 -0.001201 -0.263117
0.600018978119 -1.313616514206 -0.189925029874 0.965338 -0.108969 -0.237168
0.579324901104 -1.286340594292 -0.286154925823 0.965338 -0.108969 -0.237168
0.567702412605 -1.362866759300 -0.298601865768 0.965338 -0.108969 -0.237168
0.565765500069 -1.408009052277 -0.286006242037 0.965338 -0.108969 -0.237168
0.600617229939 -1.371466994286 -0.161298155785 0.965338 -0.108969 -0.237168
0.604157686234 -1.221521854401 -0.220318615437 0.960634 -0.239831 -0.140229
0.579003691673 -1.250608086586 -0.342118829489 0.960634 -0.239831 -0.140229
0.585602700710 -1.212781310081 -0.361902892590 0.960634 -0.239831 -0.140229
0.563231050968 -1.248299717903 -0.453697353601 0.960634 -0.239831 -0.140229
0.597494781017 -1.159355998039 -0.372295737267 0.960634 -0.239831 -0.140229
0.599675297737 -1.117800593376 -0.615976035595 0.951984 -0.304785 -0.028848
0.597479581833 -1.135693550110 -0.494326412678 0.951984 -0.304785 -0.028848
0.604387164116 -1.121775984764 -0.411146849394 0.951984 -0.304785 -0.028848
0.545996904373 -1.290984392166 -0.547338724136 0.951984 -0.304785 -0.028848
0.530897140503 -1.339195370674 -0.533594250679 0.951984 -0.304785 -0.028848
0.599110722542 -1.128612279892 -0.516409456730 0.951984 -0.304785 -0.028848
0.684595823288 -1.102986693382 -0.497178882360 -0.001061 -0.995927 -0.090153
0.727383613586 -1.103163719177 -0.495319992304 -0.001061 -0.995927 -0.090153
0.702019631863 -1.105176329613 -0.473152667284 -0.001061 -0.995927 -0.090153
0.772014617920 -1.101440191269 -0.483160585165 0.060193 -0.997940 -0.022176
0.671822369099 -1.109687328339 -0.403344064951 0.041781 -0.997388 -0.058922
0.918010354042 -1.094066381454 -0.499096065760 0.041781 -0.997388 -0.058922
0.897849261761 -1.100812673569 -0.436277985573 0.014677 -0.987857 -0.154670
0.884695887566 -1.105648756027 -0.412656337023 -0.001180 -0.971447 -0.237255
0.854885160923 -1.123032093048 -0.353552252054 -0.001250 -0.940919 -0.338631
0.884162127972 -1.135707616806 -0.324399977922 0.017229 -0.894559 -0.446617
0.943386256695 -1.156049251556 -0.281527757645 0.042856 -0.855728 -0.515649
0.689616680145 -1.134617924690 -0.341887801886 0.101211 -0.758352 -0.643939
0.783345997334 -1.153039455414 -0.305406391621 0.101211 -0.758352 -0.643939
0.748014450073 -1.178254246712 -0.268937498331 -0.001335 -0.864020 -0.503455
0.635562062263 -1.135386466980 -0.342296719551 -0.001335 -0.864020 -0.503455
0.777504920959 -1.175655364990 -0.273396492004 -0.001335 -0.864020 -0.503455
0.876755475998 -1.218286037445 -0.200971737504 -0.001378 -0.637877 -0.770137
0.902365922928 -1.280289292336 -0.157218635082 0.025757 -0.489390 -0.871684
0.655080199242 -1.280698537827 -0.170267686248 0.052265 -0.411419 -0.909947
0.656086683273 -1.350012660027 -0.138866797090 0.052265 -0.411419 -0.909947
0.643861591816 -1.373971104622 -0.128728345037 0.052265 -0.411419 -0.909947
0.926335752010 -1.338665008545 -0.131631165743 0.021277 -0.311647 -0.949960
0.908893048763 -1.368406891823 -0.123818606138 -0.001127 -0.167869 -0.985809
0.956820189953 -1.413720846176 -0.117186546326 -0.001052 -0.081042 -0.996710
0.781322002411 -1.439763545990 -0.115077577531 -0.001052 -0.081042 -0.996710
0.875180125237 -0.941724002361 -0.627485215664 -0.000978 -0.000978 -0.999999
0.803990244865 -1.082910776138 -0.627484083176 -0.000978 -0.000978 -0.999999
0.845376908779 -0.812153100967 -0.627485573292 -0.000978 -0.000978 -0.999999
0.831809699535 -0.765810430050 -0.627485692501 -0.000978 -0.000978 -0.999999
0.666783392429 -1.010392308235 -0.627483427525 -0.000978 -0.000978 -0.999999
0.849762976170 -0.783618986607 -0.627485752106 -0.000978 -0.000978 -0.999999
0.845308184624 -0.539169251919 -0.627486824989 0.000978 -0.000978 -0.999999
0.852492928505 -0.601774334908 -0.627486586571 0.000978 -0.000978 -0.999999
0.854029178619 -0.662248015404 -0.627486348152 0.000978 -0.000978 -0.999999
0.869718670845 -0.402681916952 -0.627487599850 0.000978 -0.000978 -0.999999
0.873614132404 -0.134241312742 -0.627488732338 0.000978 -0.000978 -0.999999
0.880516409874 -0.331251859665 -0.627487957478 0.000978 -0.000978 -0.999999
0.799006223679 -0.415492296219 -0.627487003803 0.000978 -0.000978 -0.999999
0.708059668541 -0.778616905212 -0.627484738827 0.000978 -0.000978 -0.999999
0.829353570938 -0.214795470238 -0.627488136292 -0.000978 -0.000978 -0.999999
0.883393287659 0.130858451128 -0.627489984035 -0.000978 -0.000978 -0.999999
0.717075645924 -0.680641889572 -0.627485215664 -0.000978 -0.000978 -0.999999
0.717104554176 -0.577079594135 -0.627485692501 -0.000978 -0.000978 -0.999999
0.856676280499 -1.806429624557 -0.190837964416 0.035257 0.658594 -0.751672
0.941677808762 -1.797900676727 -0.179430574179 0.035257 0.658594 -0.751672
0.717583894730 -1.865013837814 -0.250205636024 0.001371 0.788169 -0.615457
-0.734055757523 -1.426530361176 -0.116127453744 -0.001052 -0.081042 -0.996710
-0.949400544167 -1.500409722328 -0.110151544213 -0.001052 -0.081042 -0.996710
-0.804721593857 -1.437853693962 -0.115210838616 -0.001052 -0.081042 -0.996710
-0.874540925026 -1.395196437836 -0.119228869677 -0.001127 -0.167869 -0.985809
-0.847609400749 -1.341420412064 -0.132413998246 -0.021277 -0.311647 -0.949960
-0.745645821095 -1.325506091118 -0.144734159112 -0.052265 -0.411419 -0.909947
-0.625061869621 -1.328496098518 -0.150259271264 -0.052265 -0.411419 -0.909947
-0.732240974903 -1.331139564514 -0.142951399088 -0.052265 -0.411419 -0.909947
-0.892738342285 -1.284912347794 -0.154725641012 -0.025757 -0.489390 -0.871684
-0.772095918655 -1.218103885651 -0.200862050056 -0.001378 -0.637877 -0.770137
-0.835373580456 -1.214764952660 -0.205916881561 -0.001335 -0.864020 -0.503455
-0.642744421959 -1.211487412453 -0.211559623480 -0.001335 -0.864020 -0.503455
-0.744227409363 -1.212038516998 -0.210599705577 -0.001335 -0.864020 -0.503455
-0.667535841465 -1.180661082268 -0.264334410429 -0.001335 -0.864020 -0.503455
-0.879232168198 -1.172115445137 -0.267444878817 -0.101403 -0.759786 -0.642217
-0.928244769573 -1.188076496124 -0.240883320570 -0.101403 -0.759786 -0.642217
-0.934861183167 -1.160746335983 -0.273880392313 -0.042856 -0.855728 -0.515649
-0.738971650600 -1.125416994095 -0.350185871124 -0.017229 -0.894559 -0.446617
-0.756291627884 -1.117375731468 -0.368435323238 -0.001250 -0.940919 -0.338631
-0.903269290924 -1.108594179153 -0.399212658405 -0.001180 -0.971447 -0.237255
-0.811279058456 -1.100674748421 -0.455177366734 -0.041786 -0.997512 -0.056786
-0.630243837833 -1.111702561378 -0.396341174841 -0.060193 -0.997940 -0.022176
-0.851863861084 -1.094765901566 -0.551049232483 -0.060193 -0.997940 -0.022176
-0.659551560879 -1.106108427048 -0.459910005331 -0.001061 -0.995927 -0.090153
-0.690678358078 -1.104849696159 -0.473719239235 -0.001061 -0.995927 -0.090153
-0.647471547127 -1.098381876945 -0.544826507568 -0.001061 -0.995927 -0.090153
-0.771624863148 -1.010925054550 -0.627486705780 -0.000978 -0.000978 -0.999999
-0.770616710186 -1.083242177963 -0.627486407757 -0.000978 -0.000978 -0.999999
-0.781273603439 -1.078913211823 -0.627486228943 -0.000978 -0.000978 -0.999999
-0.728722691536 -0.986397445202 -0.627487421036 0.000978 -0.000978 -0.999999
-0.684946060181 -1.022449612617 -0.627487897873 0.000978 -0.000978 -0.999999
-0.860939681530 -0.847357809544 -0.627486109734 0.000978 -0.000978 -0.999999
-0.851952850819 -0.755154013634 -0.627486646175 0.000978 -0.000978 -0.999999
-0.882354140282 -0.363530814648 -0.627487957478 -0.000978 -0.000978 -0.999999
-0.826858162880 -0.692564010620 -0.627487301826 -0.000978 -0.000978 -0.999999
-0.878653109074 -0.631953418255 -0.627486824989 -0.000978 -0.000978 -0.999999
-0.759881079197 -0.809896111488 -0.627487719059 -0.000978 -0.000978 -0.999999
-0.777391374111 -0.476532340050 -0.627488970757 0.000978 0.000978 -0.999999
-0.786424100399 -0.481794089079 -0.627488851547 0.000978 0.000978 -0.999999
-0.850128710270 -0.430752128363 -0.627488136292 0.000978 0.000978 -0.999999
-0.837068498135 -0.468175798655 -0.627488136292 0.000978 0.000978 -0.999999
-0.855777621269 0.090355992317 -0.627490341663 -0.000978 -0.000978 -0.999999
-0.812332749367 -0.306446671486 -0.627489209175 -0.000978 -0.000978 -0.999999
-0.798713922501 -0.368343800306 -0.627489149570 -0.000978 -0.000978 -0.999999
-0.872661948204 0.064338445663 -0.627489984035 -0.000978 -0.000978 -0.999999
-0.655165374279 -0.203545093536 -0.627487778664 0.000978 0.000978 -0.999999
-0.663908898830 -0.674836874008 -0.627488732338 0.000978 0.000978 -0.999999
-0.691514372826 0.241940438747 -0.627487540245 0.000978 0.000978 -0.999999
-0.734396398067 0.348612666130 -0.627487957478 0.000978 0.000978 -0.999999
-0.750584304333 0.023081600666 -0.627488851547 0.000978 0.000978 -0.999999
-0.741501092911 -0.391900897026 -0.627489447594 0.000978 0.000978 -0.999999
-0.703271448612 -0.470378041267 -0.627489030361 0.000978 0.000978 -0.999999
-0.655797839165 -0.195811927319 -0.627487719059 0.000978 0.000978 -0.999999
-0.746334373951 0.077602267265 -0.627488672733 0.000978 0.000978 -0.999999
-0.682924330235 -0.160721063614 -0.627488136292 0.000978 0.000978 -0.999999
-0.740467667580 0.266596972942 -0.627488255501 0.000978 0.000978 -0.999999
-0.695620656013 -0.239742398262 -0.627488493919 0.000978 0.000978 -0.999999
-0.785969793797 0.363595306873 -0.627488732338 0.000978 0.000978 -0.999999
-0.639259219170 -0.926787972450 -0.627488911152 0.000978 0.000978 -0.999999
-0.638074934483 -0.611748576164 -0.627488255501 0.000978 0.000978 -0.999999
-0.705531716347 -0.518496453762 -0.627489149570 0.000978 0.000978 -0.999999
-0.642020046711 0.838314235210 -0.627485632896 0.000978 0.000978 -0.999999
-0.720597028732 0.469067811966 -0.627487599850 0.000978 0.000978 -0.999999
-0.693937540054 -0.342840224504 -0.627488672733 0.000978 0.000978 -0.999999
-0.638190925121 -0.836033046246 -0.627488672733 0.000978 0.000978 -0.999999
-0.609450161457 0.679063081741 -0.627485454082 0.000978 0.000978 -0.999999
-0.712861359119 0.419536352158 -0.627487540245 0.000978 0.000978 -0.999999
-0.646075308323 -0.598138213158 -0.627488315105 0.000978 0.000978 -0.999999
-0.692319929600 -0.448678374290 -0.627488851547 0.000978 0.000978 -0.999999
-0.626284539700 -0.860038399696 -0.627488553524 0.000978 0.000978 -0.999999
-0.739156484604 -0.083996534348 -0.627488851547 0.000978 0.000978 -0.999999
-0.788296639919 0.494267165661 -0.627488613129 0.000978 0.000978 -0.999999
-0.680390477180 0.688109636307 -0.627486526966 0.000978 0.000978 -0.999999
-0.664402008057 0.805723488331 -0.627486050129 0.000978 0.000978 -0.999999
-0.874944269657 0.361608326435 -0.627490699291 0.000978 -0.000978 -0.999999
-0.745541930199 0.740423083305 -0.627488195896 0.000978 -0.000978 -0.999999
-0.651072919369 0.890352129936 -0.627485871315 0.000978 -0.000978 -0.999999
-0.727992057800 0.695289075375 -0.627487421036 0.000978 -0.000978 -0.999999
-0.766150295734 0.811851441860 -0.627489209175 0.000978 -0.000978 -0.999999
-0.805948197842 0.782097816467 -0.627490401268 0.000978 -0.000978 -0.999999
-0.785740315914 0.744603931904 -0.627489507198 0.000978 -0.000978 -0.999999
-0.627530813217 0.955012798309 -0.627485334873 0.000978 -0.000978 -0.999999
-0.825037181377 0.890430450439 -0.627489924431 0.000978 0.000978 -0.999999
-0.862916171551 0.889522850513 -0.627489924431 0.000978 0.000978 -0.999999
-0.711981058121 0.981314301491 -0.610326945782 0.000978 0.999999 -0.000978
-0.866137087345 0.982656478882 -0.548765718937 -0.022842 0.995250 -0.094630
-0.612706959248 0.985051929951 -0.586415290833 -0.022842 0.995250 -0.094630
-0.634099423885 1.002624988556 -0.395600497723 -0.022842 0.995250 -0.094630
-0.686376094818 0.992584764957 -0.488603621721 -0.022842 0.995250 -0.094630
-0.707054853439 0.997702836990 -0.428706377745 -0.046162 0.997312 -0.056897
-0.821655809879 1.004719138145 -0.376679569483 0.001182 0.970765 -0.240031
-0.801133394241 1.012277007103 -0.356278300285 0.001263 0.933019 -0.359825
-0.851949930191 1.021618008614 -0.332134783268 0.001263 0.933019 -0.359825
-0.794412195683 1.099865198135 -0.231303364038 -0.085564 0.775878 -0.625053
-0.692090570927 1.040641546249 -0.318851500750 -0.085564 0.775878 -0.625053
-0.782126963139 1.064147710800 -0.277366131544 -0.085564 0.775878 -0.625053
-0.653775274754 1.115281224251 -0.231314927340 -0.085564 0.775878 -0.625053
-0.660971641541 1.056529283524 -0.303348630667 -0.085564 0.775878 -0.625053
-0.936619699001 1.106842756271 -0.203462570906 -0.073648 0.755255 -0.651281
-0.917583584785 1.150610089302 -0.165698334575 -0.026637 0.637886 -0.769670
-0.885917723179 1.185591459274 -0.145121887326 0.001330 0.490829 -0.871255
-0.805236518383 1.206199526787 -0.136634826660 0.001230 0.308835 -0.951115
-0.939805924892 1.266137599945 -0.121769398451 -0.019467 0.166039 -0.985927
-0.849859356880 1.328235268593 -0.114375725389 -0.026104 0.148678 -0.988541
-0.786924302578 1.245299577713 -0.128473728895 -0.026104 0.148678 -0.988541
-0.945765495300 1.293005347252 -0.117254637182 -0.026104 0.148678 -0.988541
-0.623872935772 1.340900540352 -0.118196740746 -0.026104 0.148678 -0.988541
-0.862293124199 1.389507293701 -0.109467215836 0.001048 0.076536 -0.997066
-0.955953717232 1.402879834175 -0.108441419899 0.001048 0.076536 -0.997066
-0.546862065792 1.396890640259 -0.320990145206 -0.960282 0.041208 -0.275972
-0.592980384827 1.411056518555 -0.158603832126 -0.960282 0.041208 -0.275972
-0.595451295376 1.261940121651 -0.172590807080 -0.960282 0.041208 -0.275972
-0.587414741516 1.301127672195 -0.194582462311 -0.960282 0.041208 -0.275972
-0.563982367516 1.321885347366 -0.272857904434 -0.960282 0.041208 -0.275972
-0.583322882652 1.504902124405 -0.211815237999 -0.958757 -0.062060 -0.277368
-0.591807246208 1.595510601997 -0.202360063791 -0.958757 -0.062060 -0.277368
-0.600747168064 1.505686640739 -0.151436313987 -0.958757 -0.062060 -0.277368
-0.584884703159 1.587592482567 -0.224666655064 -0.958757 -0.062060 -0.277368
-0.575993895531 1.450043678284 -0.225158065557 -0.958757 -0.062060 -0.277368
-0.606582224369 1.575050592422 -0.146491706371 -0.958757 -0.062060 -0.277368
-0.603369474411 1.421824216843 -0.123785063624 -0.958757 -0.062060 -0.277368
-0.546583354473 1.569703936577 -0.364039361477 -0.957259 -0.235000 -0.168616
-0.606419146061 1.813172578812 -0.361563861370 -0.957259 -0.235000 -0.168616
-0.578722715378 1.650278925896 -0.292857140303 -0.957259 -0.235000 -0.168616
-0.510286927223 1.514828562737 -0.494692921638 -0.957259 -0.235000 -0.168616
-0.587601780891 1.712565660477 -0.328890025616 -0.957259 -0.235000 -0.168616
-0.568312942982 1.611434221268 -0.298174977303 -0.957259 -0.235000 -0.168616
-0.602400243282 1.812977910042 -0.430787116289 -0.952964 -0.298994 -0.049620
-0.585673093796 1.760596394539 -0.437442153692 -0.952964 -0.298994 -0.049620
-0.585021853447 1.753662586212 -0.408873260021 -0.952964 -0.298994 -0.049620
-0.596269786358 1.788829326630 -0.404064357281 -0.952964 -0.298994 -0.049620
-0.613491714001 1.835871696472 -0.470350027084 -0.001127 -0.985809 -0.167869
-0.682851493359 1.841566205025 -0.503885209560 -0.001127 -0.985809 -0.167869
-0.861733078957 1.823300123215 -0.384406298399 -0.007983 -0.984219 -0.176772
-0.916739821434 1.840751767159 -0.479208230972 -0.007983 -0.984219 -0.176772
-0.921562790871 1.830601215363 -0.422640621662 -0.007983 -0.984219 -0.176772
-0.950604438782 1.809217214584 -0.339403271675 -0.006500 -0.908738 -0.417317
-0.845858037472 1.788320899010 -0.302793413401 -0.014806 -0.870868 -0.491293
-0.776507556438 1.879964113235 -0.543834567070 0.000985 0.008867 -0.999960
-0.804187595844 1.942671656609 -0.543297410011 0.000989 0.010880 -0.999940
-0.783903956413 2.015573024750 -0.542435824871 0.000989 0.010880 -0.999940
-0.762291610241 2.116450548172 -0.541493356228 -0.000987 0.008884 -0.999960
-0.729519248009 2.104793548584 -0.541627645493 -0.000987 0.008884 -0.999960
-0.768033683300 2.162750959396 -0.541058063507 -0.000987 0.008884 -0.999960
-0.650561630726 2.197632312775 -0.540776789188 0.000985 0.008867 -0.999960
-0.663334429264 2.081193685532 -0.541887700558 0.000985 0.008867 -0.999960
-0.609995603561 1.952417254448 -0.543110370636 0.000987 0.008884 -0.999960
-0.547361969948 2.228517055511 -0.540433287621 0.000987 0.008884 -0.999960
-0.572439849377 1.898934841156 -0.548009157181 -0.172417 0.043397 -0.984068
-0.540121436119 1.980493187904 -0.550046086311 -0.172417 0.043397 -0.984068
-0.479648798704 1.449708819389 -0.584560096264 -0.172417 0.043397 -0.984068
-0.507695853710 1.635934352875 -0.571244359016 -0.172417 0.043397 -0.984068
-0.092565417290 1.416138648987 -0.587861776352 0.001030 0.056668 -0.998393
0.211951151490 1.474521756172 -0.584510087967 0.001030 0.056668 -0.998393
-0.257383644581 1.431347250938 -0.586993217468 0.001030 0.056668 -0.998393
-0.230911090970 1.518861532211 -0.581977188587 0.001030 0.056668 -0.998393
-0.458050608635 1.693714380264 -0.571960508823 0.001030 0.056668 -0.998393
0.111542418599 1.481309771538 -0.584122896194 0.001030 0.056668 -0.998393
-0.062196105719 1.550327539444 -0.580170691013 0.001030 0.056668 -0.998393
0.367405295372 1.454210877419 -0.585671186447 0.001030 0.056668 -0.998393
0.226126760244 1.471228718758 -0.584698498249 0.001030 0.056668 -0.998393
-0.281942069530 1.447672367096 -0.586058080196 0.001030 0.056668 -0.998393
-0.250445902348 1.537390947342 -0.580915689468 0.001030 0.056668 -0.998393
-0.431759327650 1.429832577705 -0.587083339691 0.001030 0.056668 -0.998393
0.098429620266 1.553817868233 -0.579967617989 0.001030 0.056668 -0.998393
-0.107787504792 1.513109683990 -0.582304537296 0.001030 0.056668 -0.998393
-0.362720280886 1.572023391724 -0.578932940960 0.001030 0.056668 -0.998393
-0.467476099730 1.559067130089 -0.579677402973 0.001030 0.056668 -0.998393
-0.336713910103 1.696934223175 -0.571773648262 0.001030 0.056668 -0.998393
-0.180274754763 1.466184139252 -0.584995269775 0.001030 0.056668 -0.998393
0.163675725460 1.417571663857 -0.587774813175 0.001030 0.056668 -0.998393
-0.402694553137 1.642780780792 -0.574878513813 0.001030 0.056668 -0.998393
0.258386969566 1.342355966568 -0.594506204128 0.001061 0.090153 -0.995927
0.398017197847 1.170168876648 -0.610221982002 0.001061 0.090153 -0.995927
-0.106467291713 1.378083467484 -0.591254115105 0.001061 0.090153 -0.995927
0.332227587700 1.174183011055 -0.609857261181 0.001061 0.090153 -0.995927
0.298898518085 1.235796093941 -0.604233264923 0.001061 0.090153 -0.995927
0.544650495052 1.026161909103 -0.623364984989 0.001061 0.090153 -0.995927
-0.029073685408 1.254887580872 -0.602498948574 0.001061 0.090153 -0.995927
-0.262356072664 1.388579726219 -0.590299904346 0.001061 0.090153 -0.995927
-0.192029118538 1.325868010521 -0.596023201942 0.001061 0.090153 -0.995927
0.432683765888 1.118873834610 -0.614903986454 0.001061 0.090153 -0.995927
-0.002255309373 1.363549947739 -0.592578172684 0.001061 0.090153 -0.995927
0.351706027985 1.301218271255 -0.598259329796 0.001061 0.090153 -0.995927
0.009631363675 1.282481193542 -0.599978864193 0.001061 0.090153 -0.995927
-0.044130131602 1.297819018364 -0.598580002785 0.001061 0.090153 -0.995927
0.349911004305 1.131356000900 -0.613766551018 0.001061 0.090153 -0.995927
0.281238555908 1.274641990662 -0.600687384605 0.001061 0.090153 -0.995927
0.547555625439 1.024628758430 -0.623504877090 0.001061 0.090153 -0.995927
0.335838735104 1.133926391602 -0.613532304764 0.001061 0.090153 -0.995927
0.300559401512 1.228957891464 -0.604857504368 0.001061 0.090153 -0.995927
0.304953604937 1.389453411102 -0.590205311775 0.001061 0.090153 -0.995927
0.538173675537 1.087363123894 -0.617777884007 0.001061 0.090153 -0.995927
-0.048156559467 1.161856889725 -0.610991179943 0.001061 0.090153 -0.995927
-0.044337362051 1.228958368301 -0.604866266251 0.001061 0.090153 -0.995927
-0.162235736847 1.081311345100 -0.618345499039 0.001061 0.090153 -0.995927
0.021651864052 1.203642845154 -0.607175707817 0.001061 0.090153 -0.995927
-0.213112413883 1.132012128830 -0.613718688488 0.001061 0.090153 -0.995927
0.517677664757 0.982555687428 -0.627346038818 0.001061 0.090153 -0.995927
0.234888970852 1.070625424385 -0.619312882423 0.001061 0.090153 -0.995927
-0.366147577763 1.095947980881 -0.617013573647 0.001061 0.090153 -0.995927
-0.412118673325 1.054640293121 -0.620784878731 0.001061 0.090153 -0.995927
-0.245654344559 1.258269071579 -0.602194905281 0.001061 0.090153 -0.995927
-0.323514252901 1.271267890930 -0.601009964943 0.001061 0.090153 -0.995927
-0.326428472996 1.144459009171 -0.612584769726 0.001061 0.090153 -0.995927
-0.494737535715 1.146843075752 -0.612370550632 0.001061 0.090153 -0.995927
-0.366325348616 1.005817174911 -0.625240445137 0.001061 0.090153 -0.995927
-0.540932893753 1.174150943756 -0.609878897667 0.001061 0.090153 -0.995927
0.232473611832 1.099538445473 -0.616673886776 0.001061 0.090153 -0.995927
0.031117200851 1.035641670227 -0.622510194778 0.001061 0.090153 -0.995927
-0.471960276365 1.046505212784 -0.621528685093 0.001061 0.090153 -0.995927
-0.062647253275 1.218199133873 -0.605848729610 0.001061 0.090153 -0.995927
-0.289764106274 1.289130926132 -0.599378824234 0.001061 0.090153 -0.995927
0.056296885014 1.009502172470 -0.624895632267 0.001061 0.090153 -0.995927
0.436229467392 0.983747720718 -0.627238869667 0.001061 0.090153 -0.995927
0.146287083626 1.152440309525 -0.611846864223 0.001061 0.090153 -0.995927
-0.513290464878 1.252341270447 -0.602741360664 0.001061 0.090153 -0.995927
-0.257442206144 1.184055924416 -0.608969092369 0.001061 0.090153 -0.995927
0.191443145275 1.142671346664 -0.612737655640 0.001061 0.090153 -0.995927
-0.550230860710 1.174504041672 -0.465225607157 -0.951015 0.307792 -0.028895
-0.584272801876 1.063838720322 -0.519607901573 -0.951015 0.307792 -0.028895
-0.604932546616 1.004438519478 -0.470634311438 -0.951015 0.307792 -0.028895
-0.541048765182 1.201629042625 -0.479333698750 -0.951015 0.307792 -0.028895
-0.569894671440 1.114710211754 -0.453013718128 -0.951015 0.307792 -0.028895
-0.579745352268 1.083707928658 -0.457969695330 -0.951015 0.307792 -0.028895
-0.564864277840 1.259605765343 -0.281035184860 -0.956341 0.228081 -0.182732
-0.528727412224 1.261200428009 -0.467602044344 -0.956341 0.228081 -0.182732
-0.523786544800 1.273183107376 -0.478479236364 -0.956341 0.228081 -0.182732
-0.542655348778 1.247307062149 -0.412209808826 -0.956341 0.228081 -0.182732
-0.511736571789 1.302321910858 -0.505112648010 -0.956341 0.228081 -0.182732
-0.583436131477 1.151620984077 -0.318432718515 -0.956341 0.228081 -0.182732
-0.590803682804 1.207841038704 -0.210071176291 -0.956341 0.228081 -0.182732
0.577949404716 1.092524766922 -0.444840788841 0.951748 0.305515 -0.028917
0.557486176491 1.146537184715 -0.545102953911 0.951748 0.305515 -0.028917
0.589860081673 1.055412054062 -0.446433275938 0.951748 0.305515 -0.028917
0.507716953754 1.302063345909 -0.533707320690 0.951748 0.305515 -0.028917
0.532505691051 1.219011545181 -0.598419249058 0.951748 0.305515 -0.028917
0.598503828049 1.172348260880 -0.217655584216 0.956341 0.228081 -0.182732
0.570430397987 1.186686038971 -0.346340924501 0.956341 0.228081 -0.182732
0.564276099205 1.222633481026 -0.333816260099 0.956341 0.228081 -0.182732
0.600423812866 1.138704657555 -0.249414667487 0.956341 0.228081 -0.182732
0.566359817982 1.256106615067 -0.281377226114 0.956341 0.228081 -0.182732
0.583758771420 1.167004466057 -0.301232397556 0.956341 0.228081 -0.182732
0.528446912766 1.278447508812 -0.451467931271 0.956341 0.228081 -0.182732
0.065110661089 1.689164280891 -0.572212040424 0.001030 0.056668 -0.998393
0.004007373005 1.630865573883 -0.575553834438 0.001030 0.056668 -0.998393
0.262709766626 1.538630008698 -0.580835163593 0.001030 0.056668 -0.998393
0.066954120994 1.675304055214 -0.573006212711 0.001030 0.056668 -0.998393
-0.216918498278 1.784031510353 -0.566780209541 0.001030 0.056668 -0.998393
0.264700174332 1.801881551743 -0.565749466419 0.001030 0.056668 -0.998393
0.336123794317 1.569358468056 -0.579073071480 0.001030 0.056668 -0.998393
0.188532650471 1.595459342003 -0.577579796314 0.001030 0.056668 -0.998393
0.159083008766 1.738364577293 -0.569391012192 0.001030 0.056668 -0.998393
0.319338977337 1.803313851357 -0.565666496754 0.001030 0.056668 -0.998393
0.329428613186 1.522610425949 -0.581752121449 0.001030 0.056668 -0.998393
0.386972010136 1.721843957901 -0.570334017277 0.001030 0.056668 -0.998393
0.415075778961 1.487266540527 -0.583776116371 0.001030 0.056668 -0.998393
0.241385206580 1.756908655167 -0.568327009678 0.001030 0.056668 -0.998393
0.425898015499 1.623879790306 -0.575947225094 0.001030 0.056668 -0.998393
-0.233621761203 1.813062310219 -0.565116882324 0.001030 0.056668 -0.998393
-0.358976095915 1.815494060516 -0.564979612827 0.001030 0.056668 -0.998393
0.436495006084 1.646273136139 -0.574663877487 0.001030 0.056668 -0.998393
0.436902731657 1.470977067947 -0.584709227085 0.001030 0.056668 -0.998393
0.411854088306 1.469273567200 -0.584807217121 0.001030 0.056668 -0.998393
0.341072171926 1.595245361328 -0.577589571476 0.001030 0.056668 -0.998393
0.076089784503 1.998140811920 -0.555001080036 0.001028 0.054502 -0.998513
0.093751579523 2.113321304321 -0.548740208149 0.001028 0.054502 -0.998513
0.171483829618 2.010281801224 -0.554339706898 0.001028 0.054502 -0.998513
-0.287321180105 1.850640654564 -0.563024103642 0.001028 0.054502 -0.998513
-0.097405150533 2.035766124725 -0.552958726883 0.001028 0.054502 -0.998513
0.144489347935 1.917259573936 -0.559396326542 0.001028 0.054502 -0.998513
-0.103284195065 1.880009889603 -0.561424851418 0.001028 0.054502 -0.998513
0.056337803602 2.172499656677 -0.545524239540 0.001028 0.054502 -0.998513
-0.003764197230 2.016643762589 -0.553996622562 0.001028 0.054502 -0.998513
0.024359798059 1.854487657547 -0.562810122967 0.001028 0.054502 -0.998513
0.423753648996 1.850829601288 -0.563002705574 0.001028 0.054502 -0.998513
0.157771021128 2.103864192963 -0.549253225327 0.001028 0.054502 -0.998513
0.136691987514 2.036759853363 -0.552901029587 0.001028 0.054502 -0.998513
0.214885354042 2.079998731613 -0.550549566746 0.001028 0.054502 -0.998513
0.054964374751 1.843158721924 -0.563425362110 0.001028 0.054502 -0.998513
-0.379810512066 1.935560941696 -0.558409750462 0.001028 0.054502 -0.998513
0.284017503262 1.954079389572 -0.557392716408 0.001028 0.054502 -0.998513
-0.390534758568 1.864557743073 -0.562269270420 0.001028 0.054502 -0.998513
-0.124851860106 1.831974387169 -0.564036130905 0.001028 0.054502 -0.998513
-0.043272122741 1.921820998192 -0.559151291847 0.001028 0.054502 -0.998513
0.291065752506 1.870700120926 -0.561924695969 0.001028 0.054502 -0.998513
0.130405813456 2.126451492310 -0.548026025295 0.001028 0.054502 -0.998513
-0.157241702080 2.146347999573 -0.546942174435 -0.001028 0.054502 -0.998513
-0.176090478897 2.133514642715 -0.547637403011 -0.001028 0.054502 -0.998513
-0.167245641351 2.226030588150 -0.542553603649 -0.001028 0.054502 -0.998513
-0.238190785050 2.231064081192 -0.542160153389 -0.001030 0.056668 -0.998393
-0.281519621611 2.138926506042 -0.547241568565 -0.001030 0.056668 -0.998393
-0.362069904804 2.058083057404 -0.551623642445 -0.001030 0.056668 -0.998393
-0.402206540108 2.034037351608 -0.552890002728 -0.003097 0.056785 -0.998382
-0.344313830137 2.225544691086 -0.542219579220 -0.003097 0.056785 -0.998382
-0.415395975113 2.121994495392 -0.547864735126 -0.003097 0.056785 -0.998382
-0.459460228682 2.245029687881 -0.540679931641 -0.005173 0.056902 -0.998366
-0.488045781851 1.939274907112 -0.557971596718 -0.005173 0.056902 -0.998366
-0.501204133034 1.974582791328 -0.555897533894 -0.005173 0.056902 -0.998366
0.263132303953 2.098490715027 -0.549507617950 0.001028 0.054502 -0.998513
0.283180296421 2.046683311462 -0.552344799042 0.001028 0.054502 -0.998513
0.192384764552 2.150306463242 -0.546699643135 0.001028 0.054502 -0.998513
0.301451742649 2.142797708511 -0.546983122826 0.001030 0.056668 -0.998393
0.325498819351 2.108865499496 -0.548839032650 0.001030 0.056668 -0.998393
0.294373065233 2.098927497864 -0.549451828003 0.001030 0.056668 -0.998393
0.484136223793 1.900948405266 -0.560163438320 0.003097 0.056785 -0.998382
0.403839141130 2.185609817505 -0.544290423393 0.003097 0.056785 -0.998382
0.437501579523 2.078410625458 -0.550257205963 0.003097 0.056785 -0.998382
0.477886527777 2.060094594955 -0.551126003265 0.005173 0.056902 -0.998366
0.424263000488 2.246928215027 -0.540733456612 0.005173 0.056902 -0.998366
0.600079298019 1.884097456932 -0.543953478336 0.174692 0.043380 -0.983667
0.563623785973 1.974081158638 -0.546356379986 0.174692 0.043380 -0.983667
0.618632256985 2.204267501831 -0.540702044964 -0.000987 0.008884 -0.999960
0.616063833237 2.181914329529 -0.540914118290 -0.000987 0.008884 -0.999960
0.670164823532 2.093882799149 -0.541762650013 -0.000985 0.008867 -0.999960
0.707710444927 2.184414148331 -0.540903031826 -0.000985 0.008867 -0.999960
0.706732511520 2.152635097504 -0.541203916073 0.000987 0.008884 -0.999960
0.743716537952 2.069195032120 -0.541945934296 0.000987 0.008884 -0.999960
0.714558362961 1.934155225754 -0.543263256550 -0.000989 0.010880 -0.999940
0.770786345005 1.938338398933 -0.543294012547 -0.000989 0.010880 -0.999940
0.720738887787 1.849678277969 -0.544085919857 0.000985 0.008867 -0.999960
0.805635511875 1.841427206993 -0.504794716835 -0.001127 -0.985809 -0.167869
0.609567523003 1.824726104736 -0.406157553196 -0.001127 -0.985809 -0.167869
0.742095649242 1.831986188889 -0.446392953396 0.047860 -0.993930 -0.099059
0.750092744827 1.829677462578 -0.425806164742 0.005702 -0.984235 -0.176775
0.852885067463 1.834602117538 -0.449328869581 0.005702 -0.984235 -0.176775
0.853052318096 1.798645973206 -0.321467369795 0.014806 -0.870868 -0.491293
0.496782332659 1.497146368027 -0.578117072582 0.952841 -0.298955 -0.052158
0.581137597561 1.744028449059 -0.444628775120 0.952841 -0.298955 -0.052158
0.572149217129 1.726372003555 -0.509524703026 0.952841 -0.298955 -0.052158
0.520421326160 1.567894339561 -0.549870371819 0.952841 -0.298955 -0.052158
0.570335447788 1.666004896164 -0.368219405413 0.957259 -0.235000 -0.168616
0.583539664745 1.660736680031 -0.285561203957 0.957259 -0.235000 -0.168616
0.495399445295 1.465874671936 -0.516676068306 0.957259 -0.235000 -0.168616
0.555013120174 1.635434746742 -0.413003355265 0.957259 -0.235000 -0.168616
0.605203866959 1.705395698547 -0.224243089557 0.957259 -0.235000 -0.168616
0.573500871658 1.714682817459 -0.418018698692 0.957259 -0.235000 -0.168616
0.588683009148 1.792920470238 -0.550053834915 0.174692 0.043380 -0.983667
0.490474402905 1.558209896088 -0.577919065952 0.174692 0.043380 -0.983667
-0.548326373100 -1.287673234940 -0.506426811218 -0.951984 -0.304785 -0.028848
-0.575720250607 -1.204669952393 -0.481178462505 -0.951984 -0.304785 -0.028848
-0.601584494114 -1.125301480293 -0.468319773674 -0.951984 -0.304785 -0.028848
-0.568571507931 -1.220221400261 -0.554862260818 -0.951984 -0.304785 -0.028848
-0.599612772465 -1.124780178070 -0.541475534439 -0.951984 -0.304785 -0.028848
-0.568035960197 -1.230538129807 -0.459870517254 -0.951984 -0.304785 -0.028848
-0.586318910122 -1.190161228180 -0.396086305380 -0.960634 -0.239831 -0.140229
-0.561725974083 -1.259068250656 -0.446016877890 -0.960634 -0.239831 -0.140229
-0.605815529823 -1.153232216835 -0.326222062111 -0.960634 -0.239831 -0.140229
-0.601052403450 -1.201514840126 -0.276120483875 -0.960634 -0.239831 -0.140229
-0.485524266958 -1.475696802139 -0.595392823219 -0.960634 -0.239831 -0.140229
-0.585507333279 -1.272136688232 -0.267977535725 -0.965190 -0.106107 -0.239060
-0.496327906847 -1.478530406952 -0.536272943020 -0.965190 -0.106107 -0.239060
-0.584374427795 -1.370650529861 -0.228096649051 -0.965190 -0.106107 -0.239060
-0.516902565956 -1.437193989754 -0.471538960934 -0.965190 -0.106107 -0.239060
-0.579457700253 -1.355088591576 -0.255050867796 -0.965190 -0.106107 -0.239060
-0.572501182556 -1.343752026558 -0.288365364075 -0.965190 -0.106107 -0.239060
-0.834636926651 2.113606691360 0.213000521064 -0.037646 0.933352 0.356984
-0.713717401028 1.855673313141 0.632553219795 -0.038300 0.690812 0.722019
-0.887454271317 0.015997143462 0.318762421608 -0.960120 0.010980 0.279374
-0.948572635651 0.008553208783 -0.003734803759 -0.999295 -0.001015 0.037537
-0.944146692753 0.900639891624 -0.375590652227 -0.989363 0.001110 -0.145462
-0.901118934155 1.394196867943 0.278588443995 -0.964151 -0.001201 0.265352
-0.902013301849 1.417554020882 0.274939596653 -0.963938 0.023213 0.265113
-0.893978893757 1.708415508270 0.277908653021 -0.962320 0.023292 0.270921
-0.799461185932 1.037025690079 0.555270373821 -0.921899 -0.001279 0.387428
-0.911362051964 -0.067111179233 -0.529249131680 -0.946173 0.001240 -0.323658
-0.911360085011 -0.626943945885 -0.529560923576 -0.946173 0.001240 -0.323658
-0.911435902119 -0.722985744476 -0.529393970966 -0.946173 0.001240 -0.323658
-0.584030687809 -2.201736450195 -0.209391042590 -0.113025 -0.487867 -0.865570
-0.874359190464 -1.580055713654 -0.404265284538 0.999999 -0.000978 0.000978
-0.876544654369 -1.410228490829 -0.531604290009 -0.958645 -0.006106 -0.284540
-0.874327361584 -1.405403375626 -0.545366525650 -0.999999 0.000978 -0.000978
-0.874342143536 -1.486350655556 -0.722211182117 -0.999999 0.000978 -0.000978
-0.875122725964 -1.419905662537 -0.606549620628 0.958723 -0.138088 -0.248558
-0.876420915127 1.442579030991 -0.422490775585 -0.958363 0.269580 -0.094160
-0.873797595501 1.502000570297 -0.462557792664 0.999999 -0.000978 0.000978
-0.873815715313 1.402507066727 -0.707916796207 0.999999 -0.000978 -0.000978
-0.876568198204 1.241845488548 -0.548062145710 0.958544 -0.033655 0.282951
0.887064576149 0.015834998339 0.321243107319 0.960120 0.010980 0.279374
0.951783835888 0.006745451596 -0.157893970609 0.999780 -0.000997 -0.020933
0.911290585995 0.089196115732 -0.530424773693 0.946173 -0.001240 -0.323658
0.912572562695 0.713957667351 -0.527131617069 0.944109 -0.001244 -0.329630
0.908530414104 1.036534667015 0.252903729677 0.966697 0.008406 0.255785
0.904844045639 1.351878881454 0.267943978310 0.967043 -0.001195 0.254611
0.898434758186 1.364262819290 0.291361391544 0.964151 -0.001201 0.265352
0.902611970901 1.467025041580 0.271400392056 0.963938 0.023213 0.265113
0.889671504498 1.676619410515 0.299417436123 0.962320 0.023292 0.270921
0.456116318703 -2.219636917114 -0.189306452870 -0.783829 -0.618211 -0.058537
0.875948250294 -1.577594280243 -0.392059206963 -0.957913 0.260061 0.121536
0.882612526417 -1.368343591690 -0.445816338062 -0.958273 0.195376 -0.208667
0.875256180763 -1.469036102295 -0.683624684811 0.958522 -0.273314 -0.080839
0.874152004719 -1.351020932198 -0.623197197914 -0.999999 0.000978 -0.000978
0.878111660480 -1.574035406113 -0.715941607952 -0.958710 -0.279150 0.054314
0.877415597439 1.434865951538 -0.433163225651 0.991504 0.088466 -0.095359
0.874644935131 1.354140520096 -0.402292191982 -0.999999 0.000978 0.000978
0.880274355412 1.359290599823 -0.700852870941 -0.958710 -0.279150 0.054314
0.881718039513 1.257913351059 -0.457882285118 0.958368 0.173646 0.226668
0.875053048134 1.250808000565 -0.554698944092 -0.958544 -0.033655 0.282951
0.194343701005 -2.198572874069 -0.131492882967 0.001362 -0.813364 0.581753
0.253543198109 -2.208271265030 -0.144911304116 -0.001366 -0.804402 0.594083
0.105234719813 -2.241490364075 -0.190165549517 0.001367 -0.807966 0.589227
-0.393430411816 -2.201356649399 -0.135509863496 -0.001363 -0.811146 0.584843
-0.300518542528 -2.216847658157 -0.156689450145 -0.001366 -0.804402 0.594083
-0.400916874409 -2.234674215317 -0.181242302060 -0.001367 -0.807966 0.589227
-0.310405075550 -2.318818569183 -0.370611697435 -0.089272 -0.993295 -0.073452
-0.341176688671 -2.198403596878 -0.504408001900 -0.085078 -0.963798 -0.252695
-0.304607927799 -2.204105138779 -0.494908690453 -0.104345 -0.962294 -0.251201
-0.200484335423 -2.201358318329 -0.527113020420 -0.034488 -0.943952 -0.328276
-0.144903481007 -2.233433723450 -0.439320206642 -0.011283 -0.944013 -0.329715
-0.066649936140 -2.215568780899 -0.493053197861 -0.011283 -0.944013 -0.329715
0.043577902019 -2.206769466400 -0.519067049026 0.008776 -0.944037 -0.329723
0.109380498528 -2.209685802460 -0.508739411831 0.008776 -0.944037 -0.329723
0.234515488148 -2.197427988052 -0.535112857819 0.034405 -0.944229 -0.327486
0.268391340971 -2.216315984726 -0.463525235653 0.104345 -0.962294 -0.251201
0.333761721849 -2.210497379303 -0.460909068584 0.085078 -0.963798 -0.252695
-0.242065981030 -2.271059989929 -0.230231836438 -0.001369 -0.803435 0.595391
0.271494716406 -2.325049161911 -0.334436953068 0.089072 -0.993325 -0.073287
0.381640583277 -2.315597295761 -0.328259557486 0.089072 -0.993325 -0.073287
0.360506206751 -2.313838005066 -0.378626108170 0.088888 -0.993516 -0.070885
0.270162045956 -2.263197898865 -0.219557061791 0.001366 -0.802126 0.597153
0.285939782858 -2.256472110748 -0.210411816835 -0.001360 -0.819933 0.572458
-0.714993715286 0.882377326488 0.728731989861 -0.871255 0.001330 0.490829
-0.720030546188 1.021979689598 0.719712316990 -0.871255 0.001330 0.490829
-0.687485575676 0.667389631271 0.772939145565 -0.802126 0.001366 0.597153
-0.705984592438 0.673038482666 0.744855344296 -0.871255 0.001330 0.490829
-0.731974184513 0.949336171150 0.696839511395 -0.891519 0.001313 0.452981
-0.734227716923 0.991766929626 0.692377984524 -0.891519 0.001313 0.452981
-0.777345418930 0.971432387829 0.608316123486 -0.921899 0.001279 0.387428
-0.818417072296 0.973381638527 0.510221898556 -0.922811 -0.001280 0.385251
-0.909225702286 0.977856695652 0.247366100550 -0.966294 -0.001197 0.257439
-0.913436233997 0.099317081273 0.228558242321 -0.972780 0.001176 0.231726
-0.872400939465 0.120649851859 0.370024949312 -0.960094 0.001211 0.279674
-0.858448386192 0.053264286369 0.408388406038 -0.928733 -0.003822 0.370729
-0.803504645824 0.122859746218 0.545526146889 -0.927860 0.001273 0.372926
-0.758669614792 0.064381480217 0.644207537174 -0.894158 0.003939 0.447735
-0.724705755711 0.387271553278 0.711256086826 -0.893111 0.001311 0.449834
-0.717601120472 0.349352926016 0.724200725555 -0.873026 0.001329 0.487672
-0.700205862522 0.385728061199 0.755225718021 -0.873026 0.001329 0.487672
-0.693225145340 0.137929230928 0.763432025909 -0.801463 -0.006874 0.598004
-0.710861802101 0.121472924948 0.736420035362 -0.872392 0.001332 0.488806
-0.720956087112 0.104592584074 0.718139648438 -0.876523 -0.001326 0.481358
-0.878138840199 1.782098650932 0.316408336163 -0.954208 0.062592 0.292522
