-0.338188230991 2.629916667938 -0.284458279610 -0.021611 0.999257 -0.031902
-0.672762155533 2.622389316559 -0.286287903786 -0.021611 0.999257 -0.031902
-0.099058598280 2.636364221573 -0.249981805682 -0.021611 0.999257 -0.031902
-0.495311915874 2.626736164093 -0.274299055338 -0.021611 0.999257 -0.031902
-0.496358633041 2.625138521194 -0.349243730307 -0.025218 0.999657 -0.007061
-0.327900469303 2.629806756973 -0.300304144621 -0.025218 0.999657 -0.007061
-0.403859823942 2.627840280533 -0.304363131523 -0.025218 0.999657 -0.007061
-0.290995091200 2.630584955215 -0.321375727654 -0.025218 0.999657 -0.007061
-0.253487110138 2.631041765213 -0.351362794638 -0.024570 0.927212 -0.373730
-0.418792217970 2.619089841843 -0.370967954397 -0.026615 0.944214 -0.328257
-0.395910173655 2.616224527359 -0.381047457457 -0.026615 0.944214 -0.328257
-0.359671205282 2.578114271164 -0.421753168106 -0.021040 0.702730 -0.711146
-0.433279156685 2.577720403671 -0.419914007187 -0.021040 0.702730 -0.711146
-0.561973571777 2.547404527664 -0.445992738008 -0.021040 0.702730 -0.711146
-0.640953779221 2.597752809525 -0.393818885088 -0.021040 0.702730 -0.711146
-0.029614094645 2.561322689056 -0.444880694151 -0.015359 0.679996 -0.733055
-0.120567291975 2.597260236740 -0.409534215927 -0.015359 0.679996 -0.733055
-0.198988527060 2.562341690063 -0.440243840218 -0.015359 0.679996 -0.733055
-0.264118373394 2.577527046204 -0.424726456404 -0.015359 0.679996 -0.733055
-0.227842718363 2.530480146408 -0.466896146536 -0.001051 0.076696 -0.997054
-0.472280323505 2.516598939896 -0.467299014330 -0.001005 0.027126 -0.999632
-0.563476502895 2.497235536575 -0.467625558376 -0.000991 0.012883 -0.999917
-0.170165568590 2.457420349121 -0.468500018120 -0.000985 0.006896 -0.999976
-0.641427218914 2.394605398178 -0.468284785748 -0.000985 0.006896 -0.999976
-0.620233714581 2.459591388702 -0.467847675085 -0.000985 0.006896 -0.999976
-0.512136697769 2.474894046783 -0.467890620232 -0.000985 0.006896 -0.999976
-0.701883792877 2.331687688828 -0.468651443720 -0.000985 0.006896 -0.999976
-0.689565062523 2.431460142136 -0.467951774597 -0.000985 0.006896 -0.999976
-0.591430068016 2.367804765701 -0.468548119068 -0.000985 0.006896 -0.999976
-0.305435270071 2.374989986420 -0.469075024128 -0.002967 0.010880 -0.999936
-0.264964312315 2.333576679230 -0.469626724720 -0.002967 0.010880 -0.999936
-0.449618071318 2.369646310806 -0.468804448843 -0.002967 0.010880 -0.999936
-0.024716529995 2.316520214081 -0.470365434885 -0.002967 0.010880 -0.999936
-0.617451786995 2.348519563675 -0.468654721975 -0.002967 0.010880 -0.999936
-0.171797305346 2.381371974945 -0.469310015440 -0.002967 0.010880 -0.999936
-0.350070595741 2.402441501617 -0.468668609858 -0.002967 0.010880 -0.999936
-0.029087089002 2.341790914536 -0.470075249672 -0.002967 0.010880 -0.999936
-0.329393774271 2.274682760239 -0.470304846764 -0.002985 0.016913 -0.999852
-0.742346763611 2.220771551132 -0.470237284899 -0.002985 0.016913 -0.999852
-0.515016794205 2.230755329132 -0.470593094826 -0.002985 0.016913 -0.999852
-0.641673862934 2.227633476257 -0.470355361700 -0.002985 0.016913 -0.999852
-0.483131349087 2.241330862045 -0.470494568348 -0.002985 0.016913 -0.999852
-0.577844142914 2.303287982941 -0.469276726246 -0.002985 0.016913 -0.999852
-0.520013332367 2.193585395813 -0.471196740866 -0.002985 0.016913 -0.999852
-0.103297516704 2.154317140579 -0.472901582718 -0.002985 0.016913 -0.999852
-0.281535148621 2.157594919205 -0.472404897213 -0.002985 0.016913 -0.999852
-0.183683961630 2.195415735245 -0.471996098757 -0.002985 0.016913 -0.999852
-0.093986138701 2.270906686783 -0.470919221640 -0.002985 0.016913 -0.999852
-0.362918168306 2.205166339874 -0.471385627985 -0.002985 0.016913 -0.999852
-0.704680025578 2.134591102600 -0.471621781588 -0.002961 0.008884 -0.999956
-0.719278335571 2.032942533493 -0.472435981035 -0.002961 0.008884 -0.999956
-0.521986603737 2.121065616608 -0.472190260887 -0.002961 0.008884 -0.999956
-0.357776552439 2.078870534897 -0.472952634096 -0.002961 0.008884 -0.999956
-0.727290093899 2.048264980316 -0.472287833691 -0.002961 0.008884 -0.999956
-0.781116306782 2.051474809647 -0.472126811743 -0.002961 0.008884 -0.999956
-0.651638507843 2.098697423935 -0.472054332495 -0.002961 0.008884 -0.999956
-0.700939297676 2.113979339600 -0.471803575754 -0.002961 0.008884 -0.999956
0.005803273991 2.112834930420 -0.473587810993 -0.002961 0.008884 -0.999956
-0.414242982864 2.037842035294 -0.473163664341 -0.002961 0.008884 -0.999956
-0.119127131999 2.110623359680 -0.473285734653 -0.002961 0.008884 -0.999956
-0.140255346894 2.112970113754 -0.473210841417 -0.002961 0.008884 -0.999956
-0.208410024643 2.017250537872 -0.473873525858 -0.002961 0.008884 -0.999956
-0.181588247418 1.970401763916 -0.474352687597 -0.002961 0.008884 -0.999956
-0.715238749981 1.968761086464 -0.472994089127 -0.002961 0.008884 -0.999956
-0.381029844284 2.063712120056 -0.473022639751 -0.002961 0.008884 -0.999956
-0.330514550209 1.957307219505 -0.474350333214 -0.003049 0.039643 -0.999209
-0.836489796638 1.936037302017 -0.473969101906 -0.003049 0.039643 -0.999209
-0.537793219090 1.919287562370 -0.475333005190 -0.003049 0.039643 -0.999209
-0.726900339127 1.951175689697 -0.473642408848 -0.003049 0.039643 -0.999209
-0.709559798241 1.965718746185 -0.473118662834 -0.003049 0.039643 -0.999209
-0.136226788163 1.933725237846 -0.475697159767 -0.003038 0.035439 -0.999367
-0.302531033754 1.897408246994 -0.476668804884 -0.003038 0.035439 -0.999367
-0.425680279732 1.897784709930 -0.476402252913 -0.003038 0.035439 -0.999367
-0.383053958416 1.880832910538 -0.477102786303 -0.003038 0.035439 -0.999367
-0.515639722347 1.861291885376 -0.477537035942 -0.003038 0.035439 -0.999367
-0.080207616091 1.850790023804 -0.478868007660 -0.001041 0.065552 -0.997849
-0.429138034582 1.852692842484 -0.478072971106 -0.001041 0.065552 -0.997849
-0.289246141911 1.825990557671 -0.480123311281 -0.001043 0.067764 -0.997701
-0.406548559666 1.826780438423 -0.469796806574 0.003875 -0.915765 0.401697
-0.817677855492 1.809772253036 -0.410592019558 0.056485 -0.979475 -0.193491
-0.873139381409 1.867823958397 -0.443440973759 -0.941400 0.142636 -0.305649
-0.857358038425 2.055913448334 -0.430725991726 -0.865145 0.141040 -0.481282
-0.858961701393 2.102573633194 -0.421197980642 -0.811444 0.061107 -0.581227
-0.852514624596 2.208045244217 -0.413895934820 -0.799824 0.125666 -0.586932
-0.820511877537 2.286332607269 -0.440954923630 -0.797624 0.119422 -0.591215
-0.791263341904 2.370015859604 -0.459504932165 -0.790481 0.158096 -0.591731
-0.820527613163 2.440708160400 -0.401256352663 -0.792630 0.160932 -0.588080
-0.763679146767 2.539692163467 -0.431184172630 -0.284056 0.576046 -0.766475
-0.788045525551 2.618186473846 -0.287867218256 -0.399194 0.912248 -0.091911
-0.840500891209 2.523654699326 -0.292546987534 -0.964884 0.214274 -0.151940
-0.826683223248 2.552002191544 -0.338880896568 -0.962919 0.200991 -0.179973
-0.854340136051 2.401375055313 -0.354789435863 -0.913780 0.190192 -0.358934
-0.875649988651 2.248743772507 -0.367220461369 -0.926906 0.136757 -0.349489
-0.888499915600 2.177091836929 -0.361111313105 -0.941021 0.080508 -0.328631
-0.896069765091 2.054387331009 -0.368640214205 -0.924006 0.070872 -0.375753
-0.899447977543 1.931565523148 -0.367222875357 -0.932572 -0.035020 -0.359280
-0.899604976177 1.841508150101 -0.342366546392 -0.983266 -0.008013 -0.182001
-0.815999984741 1.791890978813 -0.351933211088 0.032225 -0.934512 -0.354470
-0.648520112038 1.816655993462 -0.411812603474 0.033313 -0.963599 -0.265267
-0.771568775177 1.775887250900 -0.306818664074 0.024535 -0.928464 -0.370611
-0.821494281292 1.737419605255 -0.222185298800 0.017880 -0.826590 -0.562521
-0.652838468552 1.758992433548 -0.258712381124 0.022209 -0.915781 -0.401063
-0.660912871361 1.732470035553 -0.208052396774 0.026646 -0.750308 -0.660551
-0.915163099766 1.741616010666 -0.197288781404 -0.944151 0.227423 0.238450
-0.919790148735 1.677710294724 -0.153748974204 -0.934336 0.275958 0.225529
-0.883697211742 1.674721479416 -0.152559936047 0.026659 -0.666476 -0.745050
-0.824906468391 1.657395243645 -0.134987607598 0.026659 -0.666476 -0.745050
-0.667779505253 1.663727879524 -0.134756863117 0.032495 -0.685223 -0.727608
-0.911303818226 1.567348241806 -0.073399789631 0.028563 -0.493738 -0.869142
-0.666569650173 1.617580413818 -0.093817427754 0.028563 -0.493738 -0.869142
-0.700712680817 1.576564669609 -0.072283893824 0.022920 -0.478632 -0.877716
-0.772597551346 1.495257973671 -0.041146025062 0.020770 -0.265128 -0.963990
-0.778698146343 1.463700175285 -0.032554436475 0.020806 -0.268028 -0.963187
-0.793832480907 1.457084655762 -0.031068373471 0.020806 -0.268028 -0.963187
-0.764684021473 1.401414513588 -0.022976910695 0.023201 0.011096 -0.999669
-0.731757819653 1.358451604843 -0.021574642509 0.034097 -0.023764 -0.999136
-0.727434992790 1.319141983986 -0.020523101091 0.034097 -0.023764 -0.999136
-0.934246242046 1.268711209297 -0.040996875614 0.043505 0.264761 -0.963332
-0.708991050720 1.216864228249 -0.046793457121 0.036353 0.289572 -0.956466
-0.913288354874 1.167266726494 -0.088339023292 0.045862 0.535051 -0.843574
-0.841368436813 1.207549571991 -0.058907382190 0.045862 0.535051 -0.843574
-0.937159299850 1.171593427658 -0.082166567445 -0.953550 -0.178372 0.242746
-0.926494240761 1.088740706444 -0.112100481987 -0.946257 -0.228690 0.228690
-0.900148093700 0.781971693039 -0.328186690807 -0.982776 0.008027 -0.184629
-0.894832253456 0.792693138123 -0.355912834406 -0.982776 0.008027 -0.184629
-0.888750493526 0.671632170677 -0.392591446638 -0.982776 0.008027 -0.184629
-0.899607479572 0.909641385078 -0.326299726963 -0.982776 0.008027 -0.184629
-0.890431344509 0.889304757118 -0.375604033470 -0.982776 0.008027 -0.184629
-0.897656977177 0.190828055143 -0.330381423235 -0.993695 -0.007602 -0.111859
-0.907099962234 0.697809696198 -0.277772605419 -0.993695 -0.007602 -0.111859
-0.903352141380 0.190994977951 -0.280183583498 -0.993695 -0.007602 -0.111859
-0.892711043358 0.107643514872 -0.368957489729 -0.993695 -0.007602 -0.111859
-0.895383059978 0.349593877792 -0.360022723675 -0.993695 -0.007602 -0.111859
-0.894348561764 0.161139845848 -0.357754170895 -0.993695 -0.007602 -0.111859
-0.902499079704 0.461653113365 -0.304060965776 -0.993695 -0.007602 -0.111859
-0.906746447086 0.526418685913 -0.270530879498 -0.993695 -0.007602 -0.111859
-0.915204167366 0.788704872131 -0.200872212648 -0.995414 -0.007500 -0.095363
-0.914495110512 0.765902757645 -0.206708624959 -0.995414 -0.007500 -0.095363
-0.906603217125 0.354299366474 -0.260984033346 -0.995414 -0.007500 -0.095363
-0.917353034019 0.820057868958 -0.180630162358 -0.995414 -0.007500 -0.095363
-0.906788468361 0.185747265816 -0.247647807002 -0.995414 -0.007500 -0.095363
-0.914587974548 0.888541817665 -0.214042901993 -0.995414 -0.007500 -0.095363
-0.929005801678 1.282148241997 -0.021655248478 -0.863912 -0.110317 0.491413
-0.913377523422 1.429564356804 0.004244274925 -0.814592 0.055059 0.577415
-0.924365699291 1.612089157104 -0.095949687064 -0.907540 0.243273 0.342330
-0.908718883991 1.652037382126 -0.087320335209 -0.900995 0.288496 0.324003
-0.903757452965 1.661043167114 -0.049054741859 -0.992270 0.085442 0.089999
-0.900333464146 1.592041015625 0.002746105194 -0.993536 -0.001081 0.113516
-0.906270086765 1.354105114937 0.052271559834 -0.996882 0.039962 0.068043
-0.911953628063 1.238506078720 0.036688219756 -0.999936 0.010880 0.002967
-0.913215279579 1.171151995659 0.034948058426 -0.995404 0.074020 0.060763
-0.922547459602 0.592659235001 -0.113918960094 -0.999857 0.000993 -0.016879
-0.922850489616 0.705792665482 -0.090410739183 -0.999857 0.000993 -0.016879
-0.922329485416 0.275018155575 -0.141233116388 -0.999857 0.000993 -0.016879
-0.922370612621 0.830757498741 -0.114245131612 -0.999857 0.000993 -0.016879
-0.922174572945 0.560209989548 -0.138144046068 -0.999857 0.000993 -0.016879
-0.914283990860 0.493748009205 -0.197027981281 -0.987835 0.001119 -0.155503
-0.921359479427 0.933891355991 -0.149881020188 -0.987835 0.001119 -0.155503
-0.913163185120 0.475059092045 -0.204225704074 -0.987835 0.001119 -0.155503
-0.912995338440 0.107193917036 -0.207243561745 -0.987835 0.001119 -0.155503
-0.916826605797 0.650308191776 -0.180093973875 -0.987835 0.001119 -0.155503
-0.921602964401 0.335554599762 -0.151518732309 -0.987835 0.001119 -0.155503
-0.923416078091 0.936660706997 -0.045707836747 -0.999857 0.000993 -0.016879
-0.924688100815 0.190018057823 -0.002180099487 -0.999857 0.000993 -0.016879
-0.924026668072 0.363928198814 -0.034404277802 -0.999857 0.000993 -0.016879
-0.923463046551 0.580720901489 -0.058796748519 -0.999857 0.000993 -0.016879
-0.923758924007 0.707503974438 -0.035223446786 -0.999857 0.000993 -0.016879
-0.923529684544 0.305716723204 -0.067074388266 -0.999857 0.000993 -0.016879
-0.923664152622 0.979224085808 -0.028798988089 -0.999857 0.000993 -0.016879
-0.924168050289 0.453479707241 -0.021848227829 -0.999857 0.000993 -0.016879
-0.871441602707 0.791692972183 0.191724240780 -0.915238 0.001287 0.402911
-0.872462213039 0.122984051704 0.191030502319 -0.915238 0.001287 0.402911
-0.867623031139 0.639720201492 0.200795501471 -0.915238 0.001287 0.402911
-0.892453908920 0.186583966017 0.145325720310 -0.915238 0.001287 0.402911
-0.866534769535 0.575589418411 0.203431382775 -0.915238 0.001287 0.402911
-0.868019104004 0.371249139309 0.200548157096 -0.915238 0.001287 0.402911
-0.914942681789 0.770986914635 0.083881273866 -0.928370 0.006385 0.371603
-0.880010664463 0.697415113449 0.172100707889 -0.928370 0.006385 0.371603
-0.904244720936 0.912789881229 0.108316242695 -0.928370 0.006385 0.371603
-0.890448272228 0.602700531483 0.147574812174 -0.928370 0.006385 0.371603
-0.906979203224 0.294412195683 0.111218139529 -0.928370 0.006385 0.371603
-0.899902939796 0.738193571568 0.121881216764 -0.928370 0.006385 0.371603
-0.878418505192 0.821848809719 0.174113541842 -0.928370 0.006385 0.371603
-0.920582294464 0.370792984962 0.038991656154 -0.996311 0.003176 0.085761
-0.921068370342 0.188373774290 0.040916606784 -0.996311 0.003176 0.085761
-0.918596744537 0.368391335011 0.062410175800 -0.996311 0.003176 0.085761
-0.919988393784 0.249633938074 0.051036488265 -0.996311 0.003176 0.085761
-0.921339511871 0.516761004925 0.023633264005 -0.996678 0.003171 0.081383
-0.923531115055 0.571437656879 -0.005427129567 -0.996678 0.003171 0.081383
-0.923237025738 0.331555783749 0.009066287428 -0.996678 0.003171 0.081383
-0.921258866787 0.483635485172 0.026119980961 -0.996678 0.003171 0.081383
-0.923453748226 0.217762231827 0.011623181403 -0.996678 0.003171 0.081383
-0.921401917934 1.050712823868 -0.001448077615 -0.996678 0.003171 0.081383
-0.886066973209 1.053941130638 0.153098061681 -0.930450 0.008934 0.366309
-0.836307227612 1.066276431084 0.265524476767 -0.857971 -0.166869 0.485839
-0.828651189804 1.060845494270 0.274266570807 -0.777079 -0.224903 0.587850
-0.855081737041 0.798723459244 0.229526832700 -0.367656 -0.003817 -0.929954
-0.848278939724 0.569142699242 0.234456256032 -0.807852 -0.023557 0.588914
-0.713665783405 0.131855383515 0.531022608280 -0.918979 -0.062870 0.389262
-0.666106402874 0.134380981326 0.648193061352 -0.851251 0.407794 0.330267
-0.762228846550 0.113561995327 0.426086902618 -0.902661 0.245113 0.353726
-0.853271543980 0.232322171330 0.217466831207 -0.628876 -0.004128 0.777495
-0.862645387650 0.288331151009 0.209755778313 -0.715359 0.001384 0.698755
-0.865417242050 -0.008396200836 0.211505785584 -0.514473 -0.009452 0.857455
-0.864556014538 -0.404288649559 0.207374781370 -0.514473 -0.009452 0.857455
-0.907494783401 -0.587654531002 0.131224364042 -0.915238 -0.001287 0.402911
-0.885639667511 -0.519676089287 0.180743813515 -0.915238 -0.001287 0.402911
-0.880410254002 -0.063702911139 0.192681193352 -0.915238 -0.001287 0.402911
-0.914861321449 -0.919338464737 0.114471226931 -0.915238 -0.001287 0.402911
-0.879268348217 -0.597294211388 0.195160135627 -0.915238 -0.001287 0.402911
-0.887197494507 -0.365540742874 0.177246108651 -0.915238 -0.001287 0.402911
-0.889874100685 -0.535162210464 0.171148866415 -0.915238 -0.001287 0.402911
-0.909561157227 -0.530624687672 0.127020493150 -0.901862 -0.003915 0.432006
-0.897809267044 -0.039829865098 0.156297907233 -0.901862 -0.003915 0.432006
-0.884977936745 -0.015834502876 0.183348760009 -0.901862 -0.003915 0.432006
-0.921378791332 -0.205045461655 0.105445861816 -0.901862 -0.003915 0.432006
-0.903499186039 -0.215690493584 0.142715841532 -0.901862 -0.003915 0.432006
-0.926769673824 -0.013614192605 0.096016123891 -0.901862 -0.003915 0.432006
-0.920178115368 -0.087129689753 0.109088048339 -0.901862 -0.003915 0.432006
-0.934924900532 -1.003672838211 0.065538235009 -0.993227 0.003256 0.116148
-0.942448675632 -1.012360572815 0.000890658703 -0.993227 0.003256 0.116148
-0.938454627991 -1.027718544006 0.035601582378 -0.993227 0.003256 0.116148
-0.938591480255 -0.592349350452 0.025861306116 -0.993227 0.003256 0.116148
-0.939606428146 -0.889305830002 0.022956974804 -0.993227 0.003256 0.116148
-0.935957014561 -0.710628509521 0.050884086639 -0.993227 0.003256 0.116148
-0.934400916100 -0.221014201641 0.050978038460 -0.997340 0.007357 0.072515
-0.936408162117 -0.089429743588 0.010803709738 -0.997340 0.007357 0.072515
-0.934746205807 -0.069665290415 0.031809128821 -0.997340 0.007357 0.072515
-0.939288556576 -0.462205052376 0.006638418883 -0.997340 0.007357 0.072515
-0.939290404320 -0.507943451405 0.010969132185 -0.997340 0.007357 0.072515
-0.936674833298 -0.380022227764 -0.055417221040 -0.996020 0.009608 -0.088606
-0.941120862961 -0.587588787079 -0.028271041811 -0.996020 0.009608 -0.088606
-0.937353372574 -0.701946914196 -0.083908379078 -0.996020 0.009608 -0.088606
-0.940710902214 -0.808119535446 -0.057721771300 -0.996020 0.009608 -0.088606
-0.936578392982 -0.598157703876 -0.081038437784 -0.996020 0.009608 -0.088606
-0.938289582729 -0.700749635696 -0.073143512011 -0.996020 0.009608 -0.088606
-0.936886191368 -0.756982326508 -0.095401674509 -0.996020 0.009608 -0.088606
-0.918339610100 -1.143491148949 -0.238837853074 -0.986712 -0.012461 -0.161998
-0.914066314697 -1.180465102196 -0.271612375975 -0.993839 -0.012000 -0.110184
-0.925375878811 -1.382425546646 -0.294877290726 -0.901822 0.431766 0.017165
-0.924687564373 -1.419920086861 -0.249022260308 0.014578 -0.891934 -0.451931
-0.776427268982 -1.411603450775 -0.260927408934 0.014578 -0.891934 -0.451931
-0.758043169975 -1.390168905258 -0.314754039049 0.015638 -0.968374 -0.249011
-0.652606487274 -1.379008173943 -0.351956695318 0.015638 -0.968374 -0.249011
-0.613918781281 -1.504719376564 -0.380202710629 -0.999999 0.000978 0.000978
-0.613918781281 -1.654064893723 -0.468265771866 -0.999999 0.000978 0.000978
-0.613918781281 -1.381408333778 -0.389033645391 -0.999999 0.000978 0.000978
-0.613918781281 -1.564832687378 -0.467188507318 -0.999999 0.000978 0.000978
-0.613918781281 -1.495886325836 -0.262698352337 -0.999999 0.000978 0.000978
-0.613918781281 -1.673603057861 -0.428234279156 -0.999999 0.000978 0.000978
-0.613918781281 -1.631856799126 -0.407757639885 -0.999999 0.000978 0.000978
-0.613918781281 -1.628859519958 -0.300165474415 -0.999999 0.000978 0.000978
-0.613918781281 -1.646971464157 -0.342120319605 -0.999999 0.000978 0.000978
-0.613918781281 -1.639410495758 -0.247154861689 -0.999999 0.000978 0.000978
-0.613918781281 -1.738952398300 -0.448839426041 -0.999999 0.000978 0.000978
-0.613918781281 -1.704296350479 -0.234165132046 -0.999999 0.000978 0.000978
-0.613918781281 -1.617654919624 -0.054965954274 -0.999999 0.000978 0.000978
-0.613918781281 -1.748450040817 -0.175303250551 -0.999999 0.000978 0.000978
-0.613918781281 -1.730843067169 -0.199669271708 -0.999999 0.000978 0.000978
-0.613918781281 -1.771824598312 -0.452643215656 -0.999999 0.000978 0.000978
-0.613918781281 -1.824982523918 -0.298085808754 -0.999999 0.000978 0.000978
-0.613918781281 -1.863723397255 -0.081076204777 -0.999999 0.000978 0.000978
-0.613918781281 -1.781932234764 -0.376822650433 -0.999999 0.000978 0.000978
-0.613918781281 -1.868321061134 -0.152242690325 -0.999999 0.000978 0.000978
-0.613918781281 -1.897045016289 -0.230363607407 -0.999999 0.000978 0.000978
-0.613918781281 -1.961459279060 -0.132956057787 -0.999999 0.000978 0.000978
-0.613918781281 -1.995915532112 -0.213371306658 -0.999999 0.000978 0.000978
-0.613918781281 -2.005383253098 -0.342859148979 -0.999999 0.000978 0.000978
-0.613918781281 -2.005764722824 -0.382381916046 -0.999999 0.000978 0.000978
-0.613918781281 -2.001011133194 -0.395075321198 -0.999999 0.000978 0.000978
-0.613918781281 -2.127614259720 -0.474133133888 -0.999999 0.000978 0.000978
-0.613918781281 -2.165296554565 -0.493139088154 -0.999999 0.000978 0.000978
-0.734656333923 -2.164098501205 -0.494733810425 0.024710 0.922062 -0.386252
-0.761893987656 -2.154964685440 -0.471262961626 0.042270 0.999016 -0.013403
-0.670178532600 -2.154018640518 -0.420437246561 0.026596 0.946043 -0.322947
-0.805805325508 -2.140999317169 -0.387894302607 0.018117 0.967446 -0.252430
-0.752749681473 -2.133773803711 -0.359704136848 0.016039 0.956161 -0.292400
-0.746955513954 -2.138899803162 -0.376144498587 0.016039 0.956161 -0.292400
-0.907074451447 -2.119750738144 -0.324174761772 0.021243 0.950939 -0.308649
-0.712719678879 -2.106105327606 -0.270942240953 0.014526 0.899295 -0.437102
-0.756397485733 -2.088575363159 -0.236383497715 0.014526 0.899295 -0.437102
-0.791177868843 -2.069143295288 -0.185875967145 0.035867 0.909963 -0.413136
-0.718663036823 -2.045943021774 -0.151306554675 0.020971 0.742366 -0.669667
-0.619112253189 -2.049553155899 -0.152361065149 0.020971 0.742366 -0.669667
-0.937594175339 -2.024362802505 -0.135569274426 0.023885 0.723564 -0.689844
-0.757468581200 -1.985844373703 -0.100083276629 0.014975 0.529572 -0.848133
-0.881666600704 -1.993216991425 -0.107106722891 0.022963 0.490324 -0.871237
-0.923670053482 -2.042720317841 -0.106169633567 -0.770392 -0.483735 0.415328
-0.946048200130 -2.073225975037 -0.207256630063 -0.733897 -0.636463 0.237299
-0.931069314480 -2.100240707397 -0.219671726227 -0.568025 -0.128359 0.812940
-0.931625366211 -2.130522251129 -0.323372274637 -0.984195 -0.162647 -0.070045
-0.908047616482 -2.291603803635 -0.264027833939 -0.984642 -0.167823 -0.048117
-0.928842484951 -2.164054632187 -0.287058591843 -0.983242 -0.171978 -0.060489
-0.863145172596 -2.383299589157 -0.217091426253 -0.602906 -0.267431 0.751655
-0.877716898918 -2.321386337280 -0.145903781056 -0.859886 -0.478043 0.179081
-0.913115322590 -2.121441602707 -0.204470977187 -0.986534 -0.108293 0.122573
-0.895756363869 -2.208628654480 -0.107212096453 -0.990830 -0.134557 0.012232
-0.741556286812 -2.493751764297 0.049599811435 -0.243471 -0.882767 0.401801
-0.755880534649 -2.478070020676 0.088917240500 -0.123128 -0.962989 0.239775
-0.732524991035 -2.366568803787 0.118979535997 0.056485 -0.193491 0.979475
-0.613871097565 -2.314389228821 0.136699125171 -0.078889 -0.185692 0.979436
-0.523504674435 -2.231677770615 0.157318800688 -0.086980 -0.146555 0.985371
-0.464980065823 -2.261315822601 0.158120095730 -0.086980 -0.146555 0.985371
-0.541376411915 -2.136416435242 0.169758915901 -0.086632 -0.141222 0.986180
-0.689582288265 -2.189071893692 0.149130165577 -0.086632 -0.141222 0.986180
-0.693802833557 -2.097068071365 0.161652654409 -0.088809 -0.138541 0.986367
-0.548198461533 -2.068388938904 0.178854420781 -0.088809 -0.138541 0.986367
-0.632014870644 -2.036643028259 0.175588041544 -0.091003 -0.133550 0.986855
-0.509403228760 -1.915163755417 0.203244060278 -0.091003 -0.133550 0.986855
-0.498759180307 -1.893342733383 0.221390783787 -0.711797 -0.216499 0.668186
-0.513684749603 -1.664567232132 0.239652067423 -0.058551 -0.076227 0.995370
-0.167033687234 -1.635099887848 0.262714147568 -0.058551 -0.076227 0.995370
-0.540350615978 -1.617989659309 0.241656661034 -0.058551 -0.076227 0.995370
-0.334013730288 -1.691285610199 0.248356774449 -0.058551 -0.076227 0.995370
-0.254840195179 -1.590902805328 0.260295659304 -0.059656 -0.053148 0.996803
-0.193844586611 -1.453162789345 0.271386235952 -0.059656 -0.053148 0.996803
-0.110963188112 -1.482045650482 0.274764776230 -0.059656 -0.053148 0.996803
-0.095264546573 -1.417590737343 0.279188781977 -0.059656 -0.053148 0.996803
-0.245029866695 -1.517980575562 0.264826804399 -0.059656 -0.053148 0.996803
-0.070247709751 -1.566183447838 0.272639065981 -0.059656 -0.053148 0.996803
-0.129361137748 -1.498123168945 0.272797793150 -0.059656 -0.053148 0.996803
-0.033077374101 -1.453455805779 0.280940264463 0.001028 -0.054502 0.998513
0.000045971945 -1.317228078842 0.287072330713 0.001010 -0.035367 0.999374
-0.021235089749 -1.212599873543 0.289252936840 0.000978 -0.000978 0.999999
0.055629879236 -0.581127762794 0.706070065498 0.001374 -0.633537 0.773712
-0.034400686622 -0.536448001862 0.724197983742 0.001197 -0.259673 0.965696
-0.061848990619 -0.534668743610 0.724675476551 0.001197 -0.259673 0.965696
0.050322070718 -0.449677288532 0.745796740055 0.001114 -0.152643 0.988281
0.006651908159 -0.366629838943 0.758618831635 0.001114 -0.152643 0.988281
0.016763919964 -0.070788554847 0.773473262787 0.000995 -0.018902 0.999821
0.059401139617 -0.276847809553 0.769699752331 0.000995 -0.018902 0.999821
0.049210421741 -0.018600668758 0.774428904057 0.000995 -0.018902 0.999821
-0.053274922073 -0.102287560701 0.772896409035 0.000995 -0.018902 0.999821
-0.033096369356 0.000869534910 0.774785459042 0.000995 -0.018902 0.999821
-0.089224494994 -0.279671072960 0.769648075104 0.000995 -0.018902 0.999821
0.017705429345 0.053644120693 0.775751888752 0.000995 -0.018902 0.999821
-0.015434555709 0.137994378805 0.777119100094 0.000991 -0.014865 0.999889
0.047817196697 0.185218468308 0.777826964855 0.000991 -0.014865 0.999889
0.282891780138 0.110131464899 0.754969775677 0.105638 -0.014158 0.994304
0.293381661177 0.206388354301 0.755228579044 0.105638 -0.014158 0.994304
0.128677487373 0.136987105012 0.771842241287 0.105638 -0.014158 0.994304
0.088297963142 0.098852023482 0.775612533092 0.105638 -0.014158 0.994304
0.162099540234 0.172667488456 0.768780648708 0.105638 -0.014158 0.994304
0.426879703999 0.104758590460 0.739498674870 0.105638 -0.014158 0.994304
0.427143037319 0.083116717637 0.739160180092 0.105638 -0.014158 0.994304
0.553839802742 0.135687381029 0.725109338760 0.129936 0.035026 0.990903
0.409355908632 0.235568583012 0.740405142307 0.129936 0.035026 0.990903
0.431918203831 0.246312439442 0.737073838711 0.129936 0.035026 0.990903
0.511239230633 0.249007821083 0.726617753506 0.129936 0.035026 0.990903
0.529916644096 0.261870831251 0.723718047142 0.129936 0.035026 0.990903
0.438527703285 0.277229607105 0.735104203224 0.129936 0.035026 0.990903
0.181530728936 0.329988300800 0.766781032085 0.129936 0.035026 0.990903
0.215248078108 0.342460572720 0.761799812317 0.129085 0.049121 0.990416
0.520863831043 0.363978773355 0.720742285252 0.129085 0.049121 0.990416
0.599855661392 0.354393303394 0.710886359215 0.129085 0.049121 0.990416
0.572744250298 0.348839730024 0.714710533619 0.129085 0.049121 0.990416
0.301883876324 0.389003872871 0.748141944408 0.129085 0.049121 0.990416
0.456081926823 0.330056458712 0.730911016464 0.129085 0.049121 0.990416
0.643130123615 0.421216189861 0.676206648350 0.857066 0.031540 0.514240
0.635128378868 0.198102444410 0.698913753033 0.843710 0.012228 0.536659
0.642423152924 0.183836624026 0.687807023525 0.820368 0.023518 0.571352
0.634628713131 -0.106611579657 0.697204470634 0.807852 -0.023557 0.588914
0.286179512739 -0.175502464175 0.749032735825 0.120732 -0.041748 0.991807
0.557178080082 -0.040819261223 0.721364855766 0.120732 -0.041748 0.991807
0.522313892841 -0.269555062056 0.716198205948 0.120732 -0.041748 0.991807
0.451783508062 -0.124874994159 0.730817735195 0.120732 -0.041748 0.991807
0.359741032124 -0.319166451693 0.734083473682 0.120732 -0.041748 0.991807
0.443560510874 -0.302237540483 0.724505186081 0.120732 -0.041748 0.991807
0.104000806808 -0.291436433792 0.766584396362 0.120732 -0.041748 0.991807
0.454573899508 -0.147714123130 0.729532897472 0.120732 -0.041748 0.991807
0.562252283096 -0.228952616453 0.712977349758 0.120732 -0.041748 0.991807
0.610635042191 -0.194951042533 0.708448529243 0.120732 -0.041748 0.991807
0.615381956100 0.031549245119 0.717215597630 0.120732 -0.041748 0.991807
0.328931123018 -0.309496760368 0.738260209560 0.120732 -0.041748 0.991807
0.489831149578 -0.098434671760 0.727244079113 0.120732 -0.041748 0.991807
0.214646413922 -0.070625007153 0.759060263634 0.105860 -0.018553 0.994208
0.091150611639 -0.265756428242 0.768677592278 0.105860 -0.018553 0.994208
0.147176772356 -0.030400477350 0.767007708549 0.105860 -0.018553 0.994208
0.147708207369 -0.212660565972 0.763607859612 0.105860 -0.018553 0.994208
0.445780217648 0.048177640885 0.736541092396 0.105860 -0.018553 0.994208
0.189240053296 0.047925498337 0.763949573040 0.105860 -0.018553 0.994208
0.177087038755 -0.110390447080 0.762344419956 0.105860 -0.018553 0.994208
0.524413585663 0.045261841267 0.728085100651 0.105860 -0.018553 0.994208
0.516635775566 0.018119968474 0.728418350220 0.105860 -0.018553 0.994208
0.324952989817 -0.127613350749 0.746227979660 0.105860 -0.018553 0.994208
0.140688240528 -0.117023557425 0.766112208366 0.105860 -0.018553 0.994208
0.254324734211 -0.351748675108 0.742160975933 0.105432 -0.151483 0.982821
0.080628588796 -0.371879667044 0.757705867290 0.105432 -0.151483 0.982821
0.367180347443 -0.338991373777 0.732011198997 0.105432 -0.151483 0.982821
0.584130048752 -0.373935908079 0.703317880630 0.105432 -0.151483 0.982821
0.563926637173 -0.375806570053 0.705198705196 0.105432 -0.151483 0.982821
0.455613076687 -0.432503670454 0.705084085464 0.119974 -0.238658 0.963664
0.468420326710 -0.426244527102 0.705047965050 0.119974 -0.238658 0.963664
0.291138350964 -0.462047129869 0.718066692352 0.119974 -0.238658 0.963664
0.523300647736 -0.397810906172 0.705290555954 0.119974 -0.238658 0.963664
0.652609586716 -0.123765178025 0.673636496067 0.775689 -0.018104 0.630856
0.654288470745 -0.078021153808 0.674920737743 -0.999856 -0.000995 0.016913
0.083614103496 -0.466557770967 0.742477655411 0.115878 -0.256494 0.959574
0.393007218838 -0.522040188313 0.690026938915 0.115878 -0.256494 0.959574
0.106831699610 -0.503844976425 0.729651510715 0.115878 -0.256494 0.959574
0.248560845852 -0.562623560429 0.693034410477 0.132741 -0.509085 0.850419
0.551215648651 -0.537094593048 0.660689175129 0.132741 -0.509085 0.850419
0.426094979048 -0.573469400406 0.655288636684 0.126280 -0.631399 0.765107
0.111483544111 -0.580220818520 0.701497912407 0.126280 -0.631399 0.765107
0.045292571187 -1.128296017647 0.290218055248 0.060464 -0.230752 0.971132
0.737919509411 -0.838631987572 0.397326409817 0.481196 -0.471274 0.739156
0.555314004421 -1.128961682320 0.259338170290 0.079282 0.005285 0.996838
0.622874200344 -1.095854520798 0.253701120615 0.079282 0.005285 0.996838
0.605278074741 -1.161053895950 0.255276888609 0.066432 -0.051185 0.996477
0.339520633221 -1.188186168671 0.271571934223 0.066432 -0.051185 0.996477
0.307154953480 -1.199889659882 0.273120254278 0.066432 -0.051185 0.996477
0.584033429623 -1.162899017334 0.256596356630 0.066432 -0.051185 0.996477
0.062744438648 -1.141365051270 0.287396818399 0.046105 -0.003074 0.998932
0.028365582228 -1.230928540230 0.288721084595 0.046105 -0.003074 0.998932
0.077595308423 -1.198909997940 0.286527991295 0.046105 -0.003074 0.998932
0.721245884895 -0.724576234818 0.476019531488 0.309453 -0.582028 0.751986
0.705430150032 0.074927777052 0.549216330051 0.929435 0.001268 0.368984
0.749065637589 0.052954375744 0.431163340807 0.927798 -0.127830 0.350501
0.767154753208 0.054345771670 0.383917123079 0.927798 -0.127830 0.350501
0.843096971512 0.462729275227 0.216812834144 0.628876 -0.004128 0.777495
0.838748574257 0.738900542259 0.221339136362 0.628876 -0.004128 0.777495
0.849738359451 0.904695570469 0.209918841720 0.715359 0.001384 0.698755
0.853125393391 0.440312206745 0.206891894341 0.915238 0.001287 0.402911
0.866829693317 0.628192961216 0.175209105015 0.915238 0.001287 0.402911
0.892469286919 0.175002098083 0.117896519601 0.915238 0.001287 0.402911
0.853850781918 0.725529968739 0.204543143511 0.915238 0.001287 0.402911
0.858250319958 0.298692196608 0.195560485125 0.915238 0.001287 0.402911
0.876344621181 0.608892798424 0.152631819248 0.928370 0.006385 0.371603
0.882938742638 0.474944293499 0.138301819563 0.928370 0.006385 0.371603
0.884485602379 0.871114194393 0.128221139312 0.928370 0.006385 0.371603
0.882177770138 0.808334350586 0.134959429502 0.928370 0.006385 0.371603
0.897550046444 0.881891906261 0.095490388572 0.928370 0.006385 0.371603
0.886324882507 0.520182430744 0.129151329398 0.928370 0.006385 0.371603
0.888732492924 0.495975375175 0.123531080782 0.928370 0.006385 0.371603
0.870048522949 1.016029953957 0.162863403559 0.936344 -0.008869 0.350971
0.857820391655 1.047082304955 0.194316357374 0.930450 0.008934 0.366309
0.885710060596 1.131766438484 0.118696592748 0.919543 0.079667 0.384831
0.850591540337 1.146888732910 0.199428334832 0.919543 0.079667 0.384831
0.876833856106 1.212705612183 0.123419478536 0.919543 0.079667 0.384831
0.826226890087 1.412034392357 0.203654140234 0.919543 0.079667 0.384831
0.817529559135 1.336803913116 0.239707633853 0.919543 0.079667 0.384831
0.781407833099 1.436000823975 0.307510435581 0.923591 0.079319 0.375083
0.819925665855 1.161148667336 0.270181387663 0.923591 0.079319 0.375083
0.817242026329 1.176263928413 0.273620903492 0.923591 0.079319 0.375083
0.784892380238 1.574087023735 0.270258098841 0.923591 0.079319 0.375083
0.741286754608 1.490824937820 0.360634267330 0.477393 0.517315 0.710268
0.777337670326 1.604132890701 0.252967149019 0.436656 0.549556 0.712264
0.769394934177 1.650367140770 0.239478483796 0.299890 0.092979 0.949432
0.771265089512 1.778026223183 0.230604484677 0.248241 0.061125 0.966768
0.806368410587 1.658055067062 0.210806220770 0.880044 0.050640 0.472185
0.803599536419 1.707906961441 0.210664272308 0.880044 0.050640 0.472185
0.799193918705 1.799507737160 0.209134787321 0.880044 0.050640 0.472185
0.804396331310 1.663461089134 0.213900908828 0.880044 0.050640 0.472185
0.860342741013 1.643359184265 0.111811988056 0.881603 0.042241 0.470097
0.885824382305 1.468067049980 0.079884372652 0.881603 0.042241 0.470097
0.882146060467 1.564525365829 0.078107282519 0.881603 0.042241 0.470097
0.840141594410 1.627050638199 0.151058912277 0.881603 0.042241 0.470097
0.846097469330 1.436254501343 0.157042577863 0.881603 0.042241 0.470097
0.895750820637 1.337341308594 0.039899490774 0.996882 0.039962 0.068043
0.885048449039 1.566516399384 0.063282765448 0.996882 0.039962 0.068043
0.898268163204 1.326821565628 0.025996319950 0.987389 0.056987 0.147701
0.900371134281 1.186580181122 0.064123369753 0.999936 0.010880 0.002967
0.909999132156 0.754747271538 0.004360005260 0.996678 0.003171 0.081383
0.906868040562 0.683687627316 0.045557856560 0.996678 0.003171 0.081383
0.907424986362 0.972786009312 0.025635752827 0.996678 0.003171 0.081383
0.909050226212 1.053321957588 0.002262696624 0.996678 0.003171 0.081383
0.905616760254 1.034864783287 0.044730078429 0.996678 0.003171 0.081383
0.907515943050 0.432025611401 0.048532541841 0.996311 0.003176 0.085761
0.905296623707 0.730074286461 0.062124293298 0.996311 0.003176 0.085761
0.908432185650 0.238239288330 0.045880921185 0.996311 0.003176 0.085761
0.909299075603 0.406596541405 0.028654493392 0.996311 0.003176 0.085761
0.912297666073 0.271266579628 -0.019988028333 0.999857 0.000993 -0.016879
0.911460816860 0.220084935427 -0.072906881571 0.999857 0.000993 -0.016879
0.910982787609 0.617320418358 -0.084041953087 0.999857 0.000993 -0.016879
0.911985754967 0.331823647022 -0.036150895059 0.999857 0.000993 -0.016879
0.911701261997 0.557639896870 -0.043248862028 0.999857 0.000993 -0.016879
0.912053346634 0.381965130568 -0.029813535511 0.999857 0.000993 -0.016879
0.911207377911 0.474688768387 -0.076843462884 0.999857 0.000993 -0.016879
0.909889161587 0.733448088169 -0.145773440599 0.999857 0.000993 -0.016879
0.910895526409 0.889949381351 -0.077361613512 0.999857 0.000993 -0.016879
0.910999417305 0.838583528996 -0.073271557689 0.999857 0.000993 -0.016879
0.910103976727 0.475131690502 -0.144020691514 0.999857 0.000993 -0.016879
0.910531818867 0.908201873302 -0.098789006472 0.999857 0.000993 -0.016879
0.911027133465 0.778931617737 -0.074206799269 0.999857 0.000993 -0.016879
0.905996859074 0.096252486110 -0.175401464105 0.987835 0.001119 -0.155503
0.906217396259 0.389663726091 -0.172444835305 0.987835 0.001119 -0.155503
0.897438347340 0.293991029263 -0.228549450636 0.987835 0.001119 -0.155503
0.899011015892 0.348426640034 -0.218300551176 0.987835 0.001119 -0.155503
0.902773976326 0.177706331015 -0.195378363132 0.987835 0.001119 -0.155503
0.897225975990 0.671552956104 -0.254787802696 0.995414 -0.007500 -0.095363
0.902047157288 0.694457411766 -0.206161081791 0.995414 -0.007500 -0.095363
0.894144058228 0.283093273640 -0.260569661856 0.995414 -0.007500 -0.095363
0.896691381931 0.639308452606 -0.258169114590 0.995414 -0.007500 -0.095363
0.903177917004 0.810347735882 -0.202237039804 0.995414 -0.007500 -0.095363
0.881886303425 0.081784456968 -0.356718689203 0.993695 -0.007602 -0.111859
0.888594388962 0.398175269365 -0.316701084375 0.993695 -0.007602 -0.111859
0.882706999779 0.082903325558 -0.349551320076 0.993695 -0.007602 -0.111859
0.892641127110 0.198192626238 -0.268939018250 0.993695 -0.007602 -0.111859
0.881355345249 0.253081083298 -0.371751666069 0.993695 -0.007602 -0.111859
0.884878933430 0.209721654654 -0.338067799807 0.993695 -0.007602 -0.111859
0.893998146057 0.338155537844 -0.265434384346 0.993695 -0.007602 -0.111859
0.885148465633 0.364970833063 -0.345073997974 0.993695 -0.007602 -0.111859
0.881943762302 0.734296917915 -0.362596303225 0.982776 0.008027 -0.184629
0.876606702805 0.430387705564 -0.402135163546 0.982776 0.008027 -0.184629
0.875425755978 0.237572148442 -0.415552943945 0.982776 0.008027 -0.184629
0.884303331375 0.839353263378 -0.346205770969 0.982776 0.008027 -0.184629
0.920799970627 1.258026123047 -0.033760316670 0.863912 -0.110317 0.491413
0.904509186745 1.469682693481 -0.011859546416 0.826481 0.188867 0.530338
0.884123384953 1.614062547684 0.047886326909 0.997377 0.041870 0.059048
0.886744499207 1.642105102539 0.017179150134 0.993536 -0.001081 0.113516
0.687822699547 1.622582674026 -0.097756884992 -0.028563 -0.493738 -0.869142
0.771776616573 1.592959403992 -0.083720110357 -0.028563 -0.493738 -0.869142
0.640246272087 1.596916437149 -0.082105450332 -0.022920 -0.478632 -0.877716
0.799355030060 1.481422662735 -0.038200967014 -0.020770 -0.265128 -0.963990
0.914711833000 1.488267779350 -0.042695172131 -0.020770 -0.265128 -0.963990
0.740499436855 1.431844115257 -0.023139223456 -0.020806 -0.268028 -0.963187
0.915275752544 1.356660366058 -0.027162810788 -0.023201 0.011096 -0.999669
0.867410719395 1.403101205826 -0.025554722175 -0.023201 0.011096 -0.999669
0.723811507225 1.365368962288 -0.021876376122 -0.034097 -0.023764 -0.999136
0.757341086864 1.345302343369 -0.022592416033 -0.034097 -0.023764 -0.999136
0.665114700794 1.294876813889 -0.021926688030 -0.043505 0.264761 -0.963332
0.712722539902 1.303601026535 -0.021743735299 -0.043505 0.264761 -0.963332
0.688193142414 1.265807867050 -0.031590837985 -0.036353 0.289572 -0.956466
0.670467495918 1.206734657288 -0.050833884627 -0.045862 0.535051 -0.843574
0.902266860008 0.988726556301 -0.201599314809 0.980956 0.083460 -0.175387
0.899603843689 0.159763157368 -0.400344431400 0.944602 0.021497 0.327513
0.895919024944 0.864246487617 -0.438372254372 0.944602 0.021497 0.327513
0.894515812397 0.727807939053 -0.424912869930 0.944602 0.021497 0.327513
0.886686503887 0.377290636301 -0.392673790455 0.398582 -0.003870 0.917125
0.901016771793 0.403579711914 -0.427867770195 0.990830 0.012232 0.134557
0.901246607304 0.221662908792 -0.412111133337 0.990830 0.012232 0.134557
0.900574266911 0.252177089453 -0.410126030445 0.990830 0.012232 0.134557
0.904447078705 0.618375957012 -0.447500765324 0.050918 -0.013509 0.998611
0.897887885571 0.959190011024 -0.319054692984 0.697351 -0.711910 0.082983
0.920458018780 1.009648799896 -0.251219481230 0.798859 -0.538328 0.268379
0.919476687908 1.074452161789 -0.145794928074 0.942318 -0.231082 0.242152
0.734299242496 1.123057007790 -0.111481815577 -0.046977 0.724590 -0.687577
0.768302440643 1.099495649338 -0.138596028090 -0.046977 0.724590 -0.687577
0.883366227150 1.055046081543 -0.193195521832 -0.046977 0.724590 -0.687577
0.713384568691 1.147719383240 -0.092134833336 -0.037517 0.557192 -0.829536
0.821910798550 1.138154149055 -0.103471063077 -0.037517 0.557192 -0.829536
0.616976737976 1.330620169640 -0.375582665205 0.999999 0.000978 0.000978
0.616976737976 1.198430538177 -0.138771042228 0.999999 0.000978 0.000978
0.616976737976 1.267529129982 -0.231892406940 0.999999 0.000978 0.000978
0.616976737976 1.318508982658 -0.190337240696 0.999999 0.000978 0.000978
0.616976737976 1.351505637169 -0.350274831057 0.999999 0.000978 0.000978
0.616976737976 1.417836189270 -0.094199217856 0.999999 0.000978 0.000978
0.616976737976 1.344844341278 -0.067185811698 0.999999 0.000978 0.000978
0.616976737976 1.358185648918 -0.059773311019 0.999999 0.000978 0.000978
0.616976737976 1.458240270615 -0.027687860653 0.999999 0.000978 0.000978
0.616976737976 1.425357818604 -0.148957610130 0.999999 0.000978 0.000978
0.616976737976 1.446667432785 -0.247355535626 0.999999 0.000978 0.000978
0.616976737976 1.475540518761 -0.269160181284 0.999999 0.000978 0.000978
0.616976737976 1.526739120483 -0.118416398764 0.999999 0.000978 0.000978
0.616976737976 1.601309299469 -0.231482595205 0.999999 0.000978 0.000978
0.616976737976 1.500697493553 -0.334212958813 0.999999 0.000978 0.000978
0.616976737976 1.683038949966 -0.248006328940 0.999999 0.000978 0.000978
0.616976737976 1.512803316116 -0.367865681648 0.999999 0.000978 0.000978
0.646652162075 1.705098509789 -0.177173599601 -0.023805 -0.746347 -0.665131
0.846186816692 1.683055996895 -0.159688502550 -0.023805 -0.746347 -0.665131
0.718877613544 1.721513748169 -0.198324054480 -0.026646 -0.750308 -0.660551
0.616976737976 1.408763885498 -0.483570784330 0.999999 0.000978 0.000978
0.616976737976 1.580115079880 -0.376402854919 0.999999 0.000978 0.000978
0.791179776192 1.744524002075 -0.233746737242 -0.022209 -0.915781 -0.401063
0.875168323517 2.060121059418 -0.198641389608 0.683467 0.067913 0.726816
0.881034493446 1.746503233910 -0.243500545621 -0.024769 -0.921671 -0.387180
0.707477509975 1.781250000000 -0.316767126322 -0.024535 -0.928464 -0.370611
0.616976737976 1.636587023735 -0.375543922186 0.999999 0.000978 0.000978
0.616976737976 1.721190333366 -0.334154099226 0.999999 0.000978 0.000978
0.616976737976 1.720547318459 -0.406954497099 0.999999 0.000978 0.000978
0.616976737976 1.686535954475 -0.443552821875 0.999999 0.000978 0.000978
0.730740189552 1.804565072060 -0.379601716995 -0.033313 -0.963599 -0.265267
0.690900921822 1.809551119804 -0.392765879631 -0.033313 -0.963599 -0.265267
0.820512771606 1.821266531944 -0.473327577114 -0.056485 -0.979475 -0.193491
0.737135946751 1.824969649315 -0.467362016439 -0.056485 -0.979475 -0.193491
0.888026833534 1.834730148315 -0.339551538229 0.983266 -0.008013 -0.182001
0.895439326763 1.921883225441 -0.300885498524 0.997213 -0.050560 -0.054863
0.892874598503 2.077246665955 -0.305844604969 0.992471 0.087739 -0.085460
0.871188223362 2.251718282700 -0.340093761683 0.983661 0.138799 -0.114660
0.866069138050 2.285743236542 -0.214714229107 0.577659 0.075970 0.812735
0.837950527668 2.303115129471 -0.197840392590 0.531702 0.086954 0.842456
0.855591773987 2.379290819168 -0.217494800687 0.531799 0.123844 0.837766
0.825271546841 2.372321844101 -0.032958310097 0.991695 0.128492 -0.005491
0.826754212379 2.361381530762 -0.020466290414 0.991695 0.128492 -0.005491
0.834409832954 2.303991556168 0.025170700625 0.991695 0.128492 -0.005491
0.798841595650 2.374719858170 0.102798238397 0.872809 0.130849 0.470195
0.789171576500 2.411475658417 0.110380738974 0.861102 0.179334 0.475755
0.737793207169 2.514473676682 0.144636571407 0.099358 0.924164 0.368849
0.794264614582 2.503355264664 0.067567273974 0.859562 0.173096 0.480822
0.730404078960 2.389618158340 0.178167790174 0.226020 0.147631 0.962871
0.747590780258 2.223721265793 0.197857752442 0.295826 0.129842 0.946376
0.793099880219 2.323499917984 0.127227634192 0.867404 0.118999 0.483166
0.840239226818 2.125833272934 0.085292086005 0.873156 0.094510 0.478191
0.831267237663 2.111209154129 0.104549922049 0.873156 0.094510 0.478191
0.807260930538 2.063364982605 0.158855795860 0.875025 0.100366 0.473559
0.823046565056 2.059859514236 0.130428045988 0.875025 0.100366 0.473559
0.726786851883 2.188967943192 0.207971245050 0.288794 0.095393 0.952627
0.775791466236 1.943551421165 0.218816041946 0.228342 0.065417 0.971381
0.148110598326 1.715677022934 0.284296542406 -0.067533 0.069747 -0.995276
0.842258155346 1.899470686913 0.116782277822 0.884912 0.056250 0.462349
0.864239990711 1.896785616875 0.075011521578 0.884912 0.056250 0.462349
0.832351505756 1.989403247833 0.124778337777 0.884912 0.056250 0.462349
0.861319065094 1.871626138687 0.083676405251 0.884912 0.056250 0.462349
0.874634921551 1.801634907722 0.041984215379 0.997557 0.052503 0.046074
0.871672451496 1.888919949532 0.005664132535 0.997557 0.052503 0.046074
0.873584330082 1.859493732452 -0.001505084336 0.997557 0.052503 0.046074
0.873717367649 1.846979975700 0.009902901947 0.997557 0.052503 0.046074
0.868920207024 1.961030125618 -0.017859317362 0.997557 0.052503 0.046074
0.888365805149 1.843651294708 -0.167495504022 0.990517 0.093619 0.100554
0.888583183289 1.732451677322 -0.068142548203 0.990517 0.093619 0.100554
0.887875199318 1.730685591698 -0.059621408582 0.990517 0.093619 0.100554
0.886111259460 1.690326929092 -0.005122500006 0.996276 0.029207 0.081130
0.649528264999 1.681827783585 -0.151252210140 -0.026659 -0.666476 -0.745050
0.846184909344 1.628188371658 -0.109793655574 -0.032495 -0.685223 -0.727608
0.904674828053 1.724527359009 -0.194837927818 0.996710 0.081042 0.001052
0.859628200531 2.128586530685 -0.169685229659 0.990221 0.133015 0.042064
0.859680712223 2.117091894150 -0.134944856167 0.990221 0.133015 0.042064
0.846352696419 2.220000743866 -0.058077596128 0.995457 0.093830 0.016178
0.855279922485 2.115524053574 -0.007649306208 0.995457 0.093830 0.016178
0.842760562897 2.247421026230 -0.044985134155 0.987233 0.159086 0.007898
0.841583669186 2.250245571136 0.036622602493 0.987233 0.159086 0.007898
0.885667443275 2.013170480728 -0.372315853834 0.924006 0.070872 -0.375753
0.889870405197 1.980030655861 -0.365429311991 0.934103 -0.034884 -0.355295
0.870990931988 1.972870230675 -0.405646502972 0.887417 -0.039290 -0.459289
0.862684130669 2.024068355560 -0.408863842487 0.865145 0.141040 -0.481282
0.860637664795 2.051869630814 -0.407456129789 0.811444 0.061107 -0.581227
0.810389518738 2.194921255112 -0.457649558783 0.799824 0.125666 -0.586932
0.815765619278 2.284047126770 -0.431604653597 0.797624 0.119422 -0.591215
0.822439312935 2.325488090515 -0.413678735495 0.790481 0.158096 -0.591731
0.853904783726 1.786986947060 -0.343451440334 -0.032225 -0.934512 -0.354470
0.616976737976 1.114902257919 -0.160429969430 0.999999 0.000978 0.000978
0.616976737976 1.288064122200 -0.385445415974 0.999999 0.000978 0.000978
0.616976737976 1.115173578262 -0.142813742161 0.999999 0.000978 0.000978
0.616976737976 1.141431927681 -0.141956210136 0.999999 0.000978 0.000978
0.644864559174 1.078401446342 -0.155339613557 -0.029566 0.750413 -0.660307
0.742565691471 1.038693547249 -0.204974263906 -0.029566 0.750413 -0.660307
0.656192898750 1.026001572609 -0.217704981565 -0.036581 0.884708 -0.464709
0.843534588814 1.033331751823 -0.219031110406 -0.036581 0.884708 -0.464709
0.644684731960 1.016440391541 -0.235742762685 -0.030763 0.894805 -0.445396
0.811464488506 0.989318370819 -0.301757812500 -0.030763 0.894805 -0.445396
0.877351999283 0.978399991989 -0.346075832844 -0.037416 0.974033 -0.223291
0.820540249348 0.974590778351 -0.352965444326 -0.037416 0.974033 -0.223291
