-0.441910088062 0.721474111080 -0.416234970093 0.006423 -0.389255 -0.921108
-0.551331877708 0.729438364506 -0.441954106092 0.999857 0.016879 -0.000993
-0.550102412701 0.654466092587 -0.391072511673 0.999857 0.016879 -0.000993
-0.540680050850 0.922176659107 -0.160253033042 -0.012500 0.768047 0.640271
-0.549658119678 0.900383174419 -0.138089910150 -0.009582 0.576280 0.817196
-0.380374133587 0.843627214432 -0.106295391917 -0.006296 0.346282 0.938109
-0.449677884579 0.838864803314 -0.104962356389 -0.006296 0.346282 0.938109
-0.529287576675 0.826275825500 -0.101510576904 -0.001063 0.090344 0.995910
-0.514163911343 0.820201575756 -0.100936606526 -0.001063 0.090344 0.995910
-0.440943807364 0.731877207756 -0.109306052327 0.006509 -0.420452 0.907291
-0.529929935932 0.953184366226 -0.212412640452 -0.014401 0.907290 0.420260
-0.349418729544 0.808777987957 -0.091264657676 -0.999857 -0.016879 -0.000993
-0.353337436914 0.714197456837 -0.101207755506 -0.756448 0.263730 -0.598526
-0.348336338997 0.635227620602 -0.177617862821 -0.760878 0.526260 -0.379624
-0.349330246449 0.803384006023 -0.097477816045 -0.999857 -0.016879 -0.000993
-0.409448772669 0.734076142311 -0.120881892741 -0.006388 0.376883 -0.926239
-0.404578119516 0.701722741127 -0.137880161405 0.009649 -0.602395 0.798139
-0.439233541489 0.931455016136 -0.187425360084 0.012433 -0.797111 -0.603705
-0.420967161655 0.940580010414 -0.206288918853 -0.014133 0.926332 0.376443
-0.351838916540 0.956351399422 -0.224303662777 0.999857 0.016879 0.000993
-0.474855214357 0.958869516850 -0.228217363358 -0.017164 0.985209 0.170495
-0.375125497580 0.954350173473 -0.209443181753 -0.014401 0.907290 0.420260
-0.349865823984 0.836037993431 -0.122061446309 0.999857 0.016879 0.000993
-0.430722057819 0.640195369720 -0.217260360718 0.014246 -0.920784 0.389812
-0.495775848627 0.954954326153 -0.171496897936 0.014401 -0.907290 -0.420260
-0.432087361813 0.909884870052 -0.121076971292 0.009582 -0.576280 -0.817196
-0.419183135033 0.896900117397 -0.111773319542 0.009582 -0.576280 -0.817196
-0.432800501585 0.842228174210 -0.086633563042 0.006296 -0.346282 -0.938109
-0.508524060249 0.795505940914 -0.080343224108 0.001063 -0.090344 -0.995910
-0.477451592684 0.774866998196 -0.080763190985 -0.003394 0.170815 -0.985297
-0.402513831854 0.705681145191 -0.101581059396 -0.006509 0.420452 -0.907291
-0.503718972206 0.717210352421 -0.095484398305 -0.006509 0.420452 -0.907291
-0.519822001457 0.670466542244 -0.147296205163 0.009685 -0.640563 0.767845
-0.359926998615 0.723342061043 -0.113865636289 0.006509 -0.420452 0.907291
-0.458745658398 0.670604050159 -0.124234847724 -0.009685 0.640563 -0.767845
-0.448778271675 0.620059907436 -0.287735432386 0.017164 -0.985209 -0.170495
-0.462426543236 0.601138532162 -0.263846009970 -0.016149 0.995869 -0.089359
-0.352168053389 0.604576766491 -0.269998371601 -0.763479 0.643156 -0.058729
-0.468152761459 0.627080380917 -0.369117051363 -0.014401 0.907290 0.420260
-0.547730565071 0.613194942474 -0.323379933834 0.768703 0.630542 0.107295
-0.373203814030 0.606827676296 -0.311264127493 -0.017164 0.985209 0.170495
-0.471277505159 0.796411395073 -0.433083504438 -0.001092 0.123363 -0.992361
-0.348118036985 0.729466557503 -0.440050065517 -0.999857 -0.016879 0.000993
-0.351852059364 0.957152307034 -0.271078795195 0.999857 0.016879 -0.000993
-0.424026608467 0.946859359741 -0.320792257786 -0.014246 0.920784 -0.389812
-0.450147926807 0.909574925900 -0.383032917976 -0.012431 0.788696 -0.614658
-0.377709239721 0.955750524998 -0.268704295158 -0.016594 0.992294 0.122792
-0.505591094494 0.706641614437 -0.409576624632 -0.009669 0.614677 0.788720
-0.536297559738 0.626998364925 -0.264090597630 -0.527490 0.841368 -0.117704
-0.525305688381 0.806406736374 -0.110351622105 0.003312 -0.138019 -0.990424
-0.423946499825 0.891910612583 -0.378100425005 0.012516 -0.735652 0.677244
-0.496695190668 0.862967014313 -0.398194581270 0.009489 -0.535447 0.844515
-0.505768358707 0.891046941280 -0.393331885338 -0.999857 -0.016879 0.000993
-0.500610411167 0.813904523849 -0.416235178709 0.001016 -0.039643 0.999213
-0.470610141754 0.669832766056 -0.351951509714 -0.014966 0.844909 0.534701
-0.460588872433 0.655145943165 -0.323858439922 -0.016091 0.954334 0.298307
-0.424381434917 0.701357901096 -0.156086400151 -0.009489 0.535447 -0.844515
-0.393541455269 0.710840702057 -0.150407478213 -0.009489 0.535447 -0.844515
-0.453566551208 0.750006854534 -0.131470277905 -0.003685 0.298483 -0.954408
-0.479048162699 0.793266952038 -0.125220477581 -0.001016 0.039643 -0.999213
-0.505406618118 0.875967502594 -0.151457190514 0.009735 -0.677265 -0.735674
-0.491229236126 0.916659593582 -0.197122052312 0.014966 -0.844909 -0.534701
-0.503650844097 0.934316277504 -0.241639614105 0.016091 -0.954334 -0.298307
-0.502260386944 0.677143812180 -0.380835831165 -0.999857 -0.016879 0.000993
-0.488502383232 0.917071461678 -0.344894289970 0.014645 -0.885371 0.464654
-0.427552580833 0.937607765198 -0.261197835207 0.015466 -0.999072 -0.040210
-0.385246217251 0.931432425976 -0.226041659713 0.016091 -0.954334 -0.298307
-0.477736294270 0.672622799873 -0.184730112553 -0.012516 0.735652 -0.677244
-0.432583868504 0.668325424194 -0.192987725139 -0.014645 0.885371 -0.464654
-0.364693522453 0.655396223068 -0.319618850946 -0.016091 0.954334 0.298307
-0.549035727978 0.877992510796 -0.172383099794 -0.204033 0.225652 -0.952603
-0.548636019230 0.874967753887 -0.160843878984 0.015484 -0.973097 0.229875
-0.517328202724 0.879275560379 -0.182171136141 -0.001089 0.123096 -0.992394
-0.524169325829 0.809643447399 -0.228643372655 0.014791 -0.872663 0.488099
-0.513666689396 0.851505517960 -0.169052153826 -0.017100 0.986095 -0.165299
-0.520230412483 0.797484219074 -0.270552128553 0.999857 0.016879 -0.000993
-0.513238608837 0.678289294243 -0.306572973728 0.003649 -0.280979 -0.959707
-0.529595434666 0.698146402836 -0.290370047092 0.001041 -0.065552 -0.997849
-0.529402494431 0.709684014320 -0.289303153753 -0.298682 0.060249 0.952449
-0.510270237923 0.707927346230 -0.295641005039 -0.009465 0.525959 -0.850457
-0.516479253769 0.756731569767 -0.195645958185 0.016050 -0.956849 -0.290141
-0.520187377930 0.761044919491 -0.126147136092 0.001125 -0.163122 -0.986605
-0.473429292440 0.817940652370 -0.246474549174 -0.999857 -0.016879 -0.000993
-0.484530836344 0.785080969334 -0.321870535612 -0.001098 0.130653 0.991428
-0.501551806927 0.757894575596 -0.256354421377 0.999857 0.016879 0.000993
-0.488746076822 0.758430898190 -0.287716120481 -0.001026 0.052343 -0.998629
-0.501607000828 0.761260032654 -0.295084953308 0.999857 0.016879 -0.000993
-0.477824658155 0.820104360580 -0.280030339956 0.006604 -0.453006 0.891483
-0.502412974834 0.810405910015 -0.313170194626 0.999857 0.016879 -0.000993
-0.483796209097 0.740132808685 -0.284866273403 0.999857 0.016879 -0.000993
-0.488599300385 0.838566958904 -0.346495985985 -0.003444 0.191698 0.981448
-0.490506917238 0.705617427826 -0.225637480617 0.999857 0.016879 -0.000993
-0.486274510622 0.895124375820 -0.268243938684 -0.015803 0.997670 0.066371
-0.488289654255 0.890570282936 -0.303993552923 -0.016298 0.946532 -0.322197
-0.483037948608 0.738272607327 -0.321075260639 0.999857 0.016879 0.000993
-0.482984453440 0.735009253025 -0.343986243010 0.999857 0.016879 -0.000993
-0.483129173517 0.743834078312 -0.353437572718 0.999857 0.016879 -0.000993
-0.492114961147 0.803668260574 -0.346864193678 0.999857 0.016879 0.000993
-0.476390600204 0.699756324291 -0.197281271219 -0.012504 0.765536 -0.643272
-0.457730501890 0.691321909428 -0.310279607773 0.999857 0.016879 -0.000993
-0.488181948662 0.702060759068 -0.356755286455 -0.012504 0.765536 0.643272
-0.470917910337 0.706518411636 -0.223550513387 -0.999857 -0.016879 0.000993
-0.501970589161 0.684034109116 -0.280058950186 0.999857 0.016879 -0.000993
-0.492922246456 0.715323030949 -0.281263351440 -0.015992 0.996839 0.077828
-0.473508059978 -0.683608651161 -0.285084933043 0.043354 0.258885 0.964935
-0.489474982023 -0.642917633057 -0.335074394941 -0.986241 0.165311 0.001125
-0.490486949682 -0.727234661579 -0.297023087740 0.080066 0.487420 0.869489
-0.486857622862 -0.725044071674 -0.278090685606 0.154591 0.926156 0.344001
-0.478072732687 -0.691612482071 -0.394509136677 0.367921 0.884513 0.286829
-0.479581594467 -0.687429726124 -0.413254469633 0.986241 -0.165311 -0.001125
-0.306426167488 -0.667509138584 -0.406665354967 -0.809721 -0.294015 0.507845
-0.474837958813 -0.594396591187 -0.311473220587 0.154591 0.926156 -0.344001
-0.463607907295 -0.600591242313 -0.323071300983 0.154591 0.926156 -0.344001
-0.418683230877 -0.682764291763 -0.404999256134 0.100513 0.595795 -0.796822
-0.350384920835 -0.661638081074 -0.392998427153 0.104388 0.630738 -0.768942
-0.477437913418 -0.621487617493 -0.369307994843 0.134667 0.806521 -0.575664
-0.430094510317 -0.613490164280 -0.378784567118 -0.134667 -0.806521 0.575664
-0.501896262169 -0.641665935516 -0.415898919106 0.701679 -0.525009 0.481675
-0.485015869141 -0.640223920345 -0.393836855888 0.104388 0.630738 -0.768942
-0.496789067984 -0.700135827065 -0.432791441679 0.069198 0.413833 -0.907719
-0.513001978397 -0.683208763599 -0.430008113384 0.986241 -0.165311 0.001125
-0.361680686474 -0.898849129677 -0.424478739500 0.094025 0.568492 0.817298
-0.413472652435 -0.820697128773 -0.457729190588 0.056127 0.340680 0.938502
-0.517726182938 -0.786605834961 -0.459864914417 0.013966 0.089171 0.995918
-0.516129434109 -0.734824359417 -0.441877245903 0.028816 0.167134 -0.985513
-0.361046373844 -0.809794425964 -0.441783428192 -0.013966 -0.089171 -0.995918
-0.455257594585 -0.865721464157 -0.414322048426 -0.094025 -0.568492 -0.817298
-0.528586685658 -0.880412280560 -0.393344700336 -0.126421 -0.757036 -0.641026
-0.380549788475 -0.907428026199 -0.390566170216 -0.126421 -0.757036 -0.641026
-0.451428323984 -0.937447905540 -0.322300732136 -0.161815 -0.972162 -0.169459
-0.404674232006 -0.808285713196 -0.429619878531 -0.023556 -0.135726 -0.990466
-0.457969695330 -0.868480503559 -0.398224264383 -0.100915 -0.606952 -0.788306
-0.354782164097 -0.896638214588 -0.389798015356 -0.100915 -0.606952 -0.788306
-0.429019182920 -0.676602303982 -0.127526894212 0.094025 0.568492 0.817298
-0.405368864536 -0.724082410336 -0.106882385910 0.056127 0.340680 0.938502
-0.445621371269 -0.740326225758 -0.100953504443 0.013966 0.089171 0.995918
-0.369525641203 -0.628594458103 -0.190095454454 0.150000 0.895712 0.418570
-0.305460333824 -0.673888504505 -0.136713266373 -0.986241 0.165311 -0.001125
-0.379099100828 -0.778874695301 -0.108501002192 -0.023556 -0.135726 -0.990466
-0.455493777990 -0.805891573429 -0.113142214715 0.021022 0.120602 -0.992478
-0.429883241653 -0.717399418354 -0.118922971189 0.062846 0.383760 0.921292
-0.341487586498 -0.702534973621 -0.131677716970 0.100915 0.606952 0.788306
-0.320816487074 -0.672729134560 -0.157472997904 -0.132411 -0.787026 -0.602543
-0.452528387308 -0.647026538849 -0.162374943495 -0.132411 -0.787026 -0.602543
-0.321912914515 -0.627519369125 -0.209316939116 0.150000 0.895712 0.418570
-0.307673037052 -0.687167525291 -0.152623146772 0.986241 -0.165311 0.001125
-0.475564062595 -0.902425169945 -0.182737857103 -0.129452 -0.778202 0.614527
-0.493973523378 -0.586838304996 -0.260796070099 0.161815 0.972162 0.169459
-0.352388888597 -0.608427166939 -0.195684999228 -0.150000 -0.895712 -0.418570
-0.390367358923 -0.633102118969 -0.146883308887 -0.126421 -0.757036 -0.641026
-0.441483944654 -0.735364854336 -0.083116635680 -0.013966 -0.089171 -0.995918
-0.354792982340 -0.756593942642 -0.082509085536 -0.013966 -0.089171 -0.995918
-0.384759634733 -0.820648849010 -0.084759905934 0.028816 0.167134 -0.985513
-0.358887612820 -0.845716953278 -0.089181348681 0.069198 0.413833 -0.907719
-0.394989132881 -0.875933945179 -0.105704493821 0.069198 0.413833 -0.907719
-0.529167294502 -0.866919577122 -0.137957051396 -0.104388 -0.630738 0.768942
-0.489775627851 -0.886455178261 -0.148622080684 -0.104388 -0.630738 0.768942
-0.508405327797 -0.913314700127 -0.155473843217 0.134667 0.806521 -0.575664
-0.473518282175 -0.889025270939 -0.124726317823 0.104388 0.630738 -0.768942
-0.410038352013 -0.884295940399 -0.112141020596 0.104388 0.630738 -0.768942
-0.529703617096 -0.928779721260 -0.241660162807 -0.163135 -0.982432 0.090630
-0.547282159328 -0.927025198936 -0.290647268295 -0.161815 -0.972162 -0.169459
-0.553081929684 -0.934563994408 -0.308707177639 0.869433 0.482386 0.106723
-0.418493837118 -0.965930283070 -0.241915255785 0.163135 0.982432 -0.090630
-0.363454282284 -0.956089675426 -0.357679933310 0.150000 0.895712 0.418570
-0.428896814585 -0.936649262905 -0.374982982874 0.126421 0.757036 0.641026
-0.442438185215 -0.891560196877 -0.420188784599 0.094025 0.568492 0.817298
-0.410384893417 -0.960798621178 -0.330947756767 0.150000 0.895712 0.418570
-0.314920723438 -0.730662226677 -0.406899183989 0.986241 -0.165311 0.001125
-0.402261465788 -0.587324261665 -0.237990900874 -0.161815 -0.972162 -0.169459
-0.300555616617 -0.615227878094 -0.331792533398 -0.844418 -0.485350 0.226700
-0.298650592566 -0.633022189140 -0.238826885819 0.986241 -0.165311 -0.001125
-0.332172453403 -0.625615060329 -0.284894108772 -0.163422 -0.976790 0.138472
-0.496930688620 -0.588699638844 -0.296154558659 0.163135 0.982432 -0.090630
-0.415537178516 -0.613974571228 -0.240269124508 0.164168 0.978834 0.122200
-0.490565359592 -0.615469336510 -0.352409869432 -0.696184 -0.660974 0.280074
-0.512201130390 -0.861706078053 -0.396485507488 0.100915 0.606952 0.788306
-0.504335522652 -0.778517007828 -0.431427210569 0.023556 0.135726 0.990466
-0.474995166063 -0.724655985832 -0.113751903176 -0.023556 -0.135726 -0.990466
-0.404896110296 -0.857380330563 -0.394454687834 0.076205 0.458615 0.885362
-0.331935405731 -0.803485274315 -0.125865861773 0.007144 0.039804 -0.999182
-0.445411473513 -0.730486631393 -0.130668506026 -0.037193 -0.217161 -0.975427
-0.315037488937 -0.673964679241 -0.182963296771 -0.139724 -0.833929 -0.533891
-0.417491734028 -0.637484967709 -0.326180219650 -0.146261 -0.873225 0.464851
-0.460197538137 -0.873606801033 -0.169028013945 0.120647 0.725368 -0.677706
-0.362474501133 -0.907402217388 -0.188712373376 0.146261 0.873225 -0.464851
-0.411830484867 -0.917123913765 -0.225063279271 0.161057 0.962415 -0.218671
-0.391252934933 -0.927203655243 -0.254224836826 0.161057 0.962415 -0.218671
-0.379230320454 -0.928841769695 -0.287595480680 0.164074 0.985607 0.040728
-0.420323312283 -0.916818320751 -0.311560213566 0.156689 0.941495 0.298390
-0.333987623453 -0.775531172752 -0.416627287865 -0.007144 -0.039804 0.999182
-0.478033483028 -0.715956807137 -0.170570001006 0.090875 0.564001 -0.820759
-0.464849948883 -0.669824719429 -0.187005177140 -0.158267 -0.956250 -0.246045
-0.487088173628 -0.716912806034 -0.240334704518 0.104063 0.622911 -0.775341
-0.491657972336 -0.744064867496 -0.253580272198 -0.892782 -0.315539 0.321521
-0.493132531643 -0.759028673172 -0.262290120125 -0.886669 0.367570 -0.280553
-0.480027288198 -0.696141481400 -0.204660952091 0.058912 0.346924 -0.936041
-0.472902327776 -0.732081115246 -0.233283922076 0.148193 0.884839 -0.441700
-0.489262551069 -0.786360502243 -0.276840567589 0.040115 0.234610 -0.971262
-0.459262162447 -0.796182513237 -0.283767640591 -0.986241 0.165311 0.001125
-0.463334679604 -0.735848903656 -0.274981111288 0.163354 0.985914 -0.035915
-0.453310132027 -0.750357151031 -0.296795934439 0.110862 0.672563 -0.731689
-0.501424014568 -0.891185045242 -0.309823960066 0.120647 0.725368 -0.677706
-0.508901894093 -0.913117110729 -0.296655356884 -0.072456 -0.427901 0.900917
-0.496957957745 -0.873262584209 -0.308357059956 -0.129153 -0.779372 -0.613106
-0.529204428196 -0.882351577282 -0.310645252466 -0.986241 0.165311 -0.001125
-0.513646543026 -0.879153072834 -0.298893094063 0.026413 0.161920 0.986450
-0.500975370407 -0.797788143158 -0.186415269971 -0.161484 -0.972717 -0.166570
-0.488830059767 -0.793413877487 -0.178071051836 -0.143761 -0.869829 -0.471944
-0.503417730331 -0.738775432110 -0.429128974676 -0.137192 -0.821678 -0.553194
-0.481909006834 -0.755520343781 -0.387234061956 0.097159 0.581502 -0.807722
-0.478886455297 -0.754690349102 -0.357781380415 -0.164268 -0.984425 0.062634
-0.494748324156 -0.763694405556 -0.354426771402 -0.163016 -0.974303 -0.155434
-0.492153733969 -0.775706291199 -0.337131321430 0.163217 0.985174 -0.052840
-0.455657571554 -0.804029881954 -0.237625762820 0.100805 0.600444 -0.793288
-0.458477377892 -0.754971921444 -0.204778313637 -0.031794 -0.191939 -0.980892
-0.450331300497 -0.719005167484 -0.248130962253 0.986241 -0.165311 0.001125
-0.465319931507 -0.779635429382 -0.366740912199 -0.137633 -0.818396 -0.557930
-0.463868498802 -0.800244688988 -0.319236367941 0.986241 -0.165311 0.001125
-0.454850941896 -0.711128890514 -0.347618043423 -0.031735 -0.189232 -0.981420
-0.479333192110 -0.848785459995 -0.210872471333 0.986241 -0.165311 0.001125
-0.453277409077 -0.741112053394 -0.178539216518 0.986241 -0.165311 0.001125
-0.479007512331 -0.846831083298 -0.286661803722 0.986241 -0.165311 0.001125
-0.469547599554 -0.838752746582 -0.301056534052 0.986241 -0.165311 -0.001125
-0.466258466244 -0.819014012814 -0.322000622749 0.986241 -0.165311 -0.001125
-0.484799474478 -0.849054336548 -0.210329100490 -0.986241 0.165311 -0.001125
-0.446971446276 -0.852533519268 -0.243793666363 0.986241 -0.165311 0.001125
-0.448870718479 -0.863931298256 -0.301011979580 0.986241 -0.165311 0.001125
-0.450176954269 -0.848918020725 -0.302426129580 0.151902 0.904316 0.398921
-0.492439061403 -0.855548679829 -0.291887700558 0.986241 -0.165311 0.001125
-0.467278391123 -0.856342315674 -0.326694875956 0.986241 -0.165311 0.001125
0.532432734966 -0.587964892387 -0.139963015914 0.997383 0.026668 -0.067203
0.531813085079 -0.609885156155 -0.135123327374 0.009694 -0.649505 -0.760295
0.537173628807 -0.666346490383 -0.087268829346 0.999072 0.040210 0.015466
0.529141128063 -0.786499917507 -0.032162077725 0.901631 -0.047171 0.429926
0.515989601612 -0.543901324272 -0.248718649149 0.012863 -0.978753 -0.204638
0.520335972309 -0.543067216873 -0.235911697149 0.990760 0.014488 -0.134850
0.512268543243 -0.500189542770 -0.196666046977 -0.018810 0.992522 0.120607
0.517454683781 -0.506273686886 -0.141895160079 -0.014048 0.995265 0.096177
0.511812508106 -0.510026991367 -0.090572603047 -0.015042 0.999802 0.013037
0.485702186823 -0.526451408863 0.081752277911 0.005153 -0.052558 0.998605
0.476724892855 -0.543260693550 0.081229828298 0.000997 -0.020933 0.999780
0.488010317087 -0.591225564480 0.093555614352 -0.017138 0.986032 0.165672
0.477538198233 -0.674252212048 0.092932671309 0.779671 -0.165018 0.604055
0.479527801275 -0.629616439342 0.102774240077 0.845664 -0.142165 0.514433
0.501797616482 -0.679884910583 0.050023630261 0.891948 -0.099416 0.441073
0.526694715023 -0.521571278572 0.001595077105 0.996241 -0.007458 0.086305
0.506677746773 -0.638581275940 0.048816781491 0.896796 -0.061424 0.438160
0.492301076651 0.282873779535 -0.305566877127 0.874816 0.022915 -0.483912
0.499088138342 -0.121541365981 -0.310670614243 0.880723 0.020108 -0.473204
0.494075357914 -0.074049822986 -0.317802995443 0.835069 0.017826 -0.549857
0.483709543943 0.136310398579 -0.326614677906 0.837967 0.017771 -0.545431
0.475485324860 0.521136224270 -0.318693250418 0.852790 0.048533 -0.519994
0.508904814720 -0.373861819506 -0.302535206079 0.876205 0.014760 -0.481712
0.520044922829 -0.612414181232 -0.133111357689 0.006925 -0.649520 -0.760313
0.429769068956 -0.865458905697 0.059153228998 0.352824 -0.383909 0.853305
0.518204331398 -0.869608283043 -0.103818401694 -0.006588 0.451941 -0.892024
0.536426186562 -0.862519264221 -0.086136221886 0.999217 -0.037919 -0.011273
0.525711476803 -0.756458818913 -0.080126129091 -0.003146 -0.072365 -0.997373
0.527353703976 -0.729303896427 -0.082185819745 0.005264 -0.076856 -0.997028
0.438603729010 -0.636405050755 0.136476114392 -0.998923 0.046104 -0.005123
-0.522146224976 -0.525533676147 -0.116430051625 -0.018091 0.997136 0.073428
-0.497121512890 -0.413113862276 -0.320405721664 -0.830511 -0.012314 -0.556866
-0.489157110453 -0.456196218729 -0.331300377846 -0.830511 -0.012314 -0.556866
-0.500201582909 -0.503683447838 -0.313707202673 -0.861931 -0.009413 -0.506939
-0.506620407104 -0.532550930977 -0.302190721035 -0.875279 -0.003997 -0.483602
-0.521807432175 -0.591848671436 -0.045249216259 -0.997787 -0.035141 0.056438
-0.518943607807 -0.652538716793 -0.030114337802 -0.990416 -0.049121 0.129085
-0.510742843151 -0.736597895622 -0.012109312229 -0.944084 -0.050231 0.325857
-0.526306629181 -0.662261128426 -0.094512075186 -0.999802 0.015042 0.013037
-0.523321807384 -0.589603900909 -0.154740750790 -0.997668 -0.005234 -0.068047
-0.520780801773 -0.763589501381 -0.080891259015 0.005255 -0.072516 -0.997353
-0.511296808720 -0.761987686157 -0.019697628915 -0.898075 -0.044432 0.437593
-0.505987346172 -0.873869597912 -0.035460133106 -0.866070 -0.201238 0.457631
-0.513464331627 -0.579191684723 0.029623547569 -0.903824 -0.066598 0.422691
-0.495491445065 -0.581753194332 0.064652562141 -0.881680 -0.062090 0.467746
-0.471750915051 -0.841768324375 0.027767477557 -0.761222 -0.243277 0.601130
-0.476969391108 -0.675830781460 0.081054203212 -0.858111 -0.144724 0.492646
-0.469753295183 -0.741882979870 0.069722242653 -0.771373 -0.229075 0.593724
-0.526498854160 -0.672188997269 -0.098355084658 -0.999847 0.008990 0.014983
-0.525942206383 -0.729855000973 -0.068739667535 -0.999855 -0.011009 0.013011
-0.511272549629 0.005729662254 -0.298393607140 -0.000981 -0.004907 0.999987
-0.506822943687 -0.201633721590 -0.299417465925 -0.000983 -0.004916 0.999987
-0.427702277899 -0.665609955788 0.137476310134 0.996852 0.079115 -0.005274
0.470551937819 0.968497633934 0.011304330081 0.991470 0.112952 0.065033
0.473402440548 0.925149381161 0.045011013746 0.991496 0.115237 0.060471
0.442252069712 0.788784682751 0.169567167759 0.870364 0.077085 0.486338
0.432489007711 0.842437207699 0.178057625890 0.869588 0.085972 0.486236
0.431443929672 0.895907461643 0.169292986393 0.872246 0.097545 0.479241
0.451463282108 1.018498539925 0.101169787347 0.890972 0.144443 0.430470
0.345254600048 0.586716175079 0.402286112309 0.806710 0.075943 0.586047
0.282384842634 0.794497370720 0.426125735044 0.323194 0.108625 0.940078
0.326955169439 0.578029870987 0.424601942301 0.685911 0.076857 0.723615
0.302654415369 0.965623557568 0.389994412661 0.646065 0.136408 0.750995
0.361596196890 0.945127725601 0.306084394455 0.873988 0.131026 0.467951
0.344891726971 -0.020118767396 0.429082840681 0.441364 -0.064223 0.895027
0.397089749575 -0.222311615944 0.354843974113 0.721750 -0.146158 0.676546
0.338087052107 0.154662802815 0.437704682350 0.580102 0.017913 0.814347
0.453337043524 -0.494155436754 0.198407113552 0.868635 -0.143564 0.474196
0.504461109638 0.599045455456 -0.181805580854 0.992816 -0.018774 -0.118166
0.485067039728 0.778481900692 0.060974307358 0.994169 0.070453 0.081636
0.500687241554 0.796352863312 -0.041601553559 0.949270 0.055235 0.309573
0.507296562195 0.772820413113 -0.081867061555 0.999780 0.020974 0.000999
0.479311317205 0.945440649986 -0.018418071792 0.951415 0.117769 0.284498
0.508513569832 0.711356997490 -0.086080297828 0.999889 0.014865 0.000991
0.462760031223 -0.545854032040 0.150086447597 -0.009549 0.552469 -0.833478
0.364217668772 0.053228378296 0.402840703726 -0.003080 0.048248 -0.998831
0.370339125395 0.064625434577 0.403382927179 -0.001024 0.050193 -0.998739
-0.368326544762 0.564318180084 0.413334697485 -0.809879 0.049297 0.584522
-0.459943890572 -0.569502174854 0.153505578637 -0.862589 -0.185583 0.470638
-0.393236130476 -0.237822979689 0.362414985895 -0.716443 -0.169563 0.676726
-0.408445268869 -0.308829575777 0.325442314148 -0.735241 -0.195756 0.648923
-0.421741038561 -0.357250273228 0.293593496084 -0.755342 -0.215590 0.618853
-0.342835485935 0.410827934742 0.442354768515 -0.554265 0.020630 0.832085
-0.355205148458 0.521247684956 0.429719537497 -0.690952 0.035325 0.722037
-0.331836402416 0.435641497374 0.445527523756 -0.319832 0.036953 0.946753
-0.346178233624 0.202142030001 0.442651927471 -0.344863 -0.011369 0.938584
-0.371827214956 0.987916350365 0.354049056768 -0.864589 0.086036 0.495059
-0.440110862255 1.029529690742 0.196469590068 -0.915653 0.150499 0.372731
-0.515790581703 0.918094933033 0.017585385591 -0.994699 0.079086 0.065719
-0.511340498924 0.916685581207 0.075139150023 -0.990851 0.081898 0.107275
-0.538583755493 0.867485105991 -0.057105075568 -0.944407 0.085616 0.317437
-0.543881535530 0.833372056484 -0.076045021415 -0.999794 0.019053 0.007020
-0.525362432003 0.780103027821 -0.002837139880 -0.952638 0.031378 0.302484
-0.428966134787 0.923658490181 0.256331384182 -0.905337 0.103982 0.411769
-0.489455312490 0.893181145191 0.136581718922 -0.867605 0.080151 0.490752
-0.521727979183 0.769807159901 0.057259544730 -0.995934 0.038096 0.081634
-0.504260420799 0.730129122734 0.126781612635 -0.901906 0.038864 0.430181
-0.494081199169 0.797069668770 0.140325814486 -0.877254 0.047900 0.477631
-0.478206008673 0.883551716805 0.157820284367 -0.865428 0.068507 0.496328
-0.484216839075 0.745237588882 0.163308650255 -0.874530 0.042426 0.483113
-0.364674210548 0.590008854866 0.400392770767 0.003104 -0.056902 -0.998375
-0.367377549410 0.210731178522 0.409042268991 0.001003 0.027071 -0.999633
-0.374526798725 0.065437793732 0.404044359922 0.003080 0.048248 -0.998831
-0.230713129044 0.967813789845 0.416958808899 -0.087944 0.123121 0.988487
0.192726179957 0.987944602966 0.414819657803 0.085566 0.127762 0.988107
-0.026929477230 0.984838485718 0.423438876867 -0.009870 0.121734 0.992514
0.184492915869 -0.132325187325 0.426572024822 0.055077 -0.223982 0.973036
0.160802334547 -0.060937136412 0.441495627165 0.052718 -0.162840 0.985243
0.157084003091 0.055842202157 0.453284144402 0.048212 -0.052498 0.997457
0.162412405014 0.087970636785 0.454710423946 0.045981 -0.050258 0.997677
0.115168146789 0.050397146493 0.454665958881 0.026299 -0.051547 0.998324
-0.246710270643 0.472744286060 0.454101294279 -0.069327 0.026664 0.997238
-0.298498153687 0.617850422859 0.442991644144 -0.109056 0.050593 0.992747
-0.268502622843 0.752774715424 0.436334103346 -0.112819 0.087231 0.989779
-0.228361040354 0.959525227547 0.417028307915 -0.041836 0.952075 0.302991
-0.139609500766 0.468065619469 0.459906190634 -0.040538 0.023907 0.998892
-0.032550517470 0.358293354511 0.462832957506 -0.004945 0.006924 0.999964
0.078076854348 0.220485970378 0.461154609919 0.021353 -0.021353 0.999544
0.130295783281 0.205909043550 0.459546297789 0.044692 -0.019747 0.998806
0.222338795662 0.090802706778 0.451312869787 0.071075 -0.051393 0.996146
0.291560858488 0.138770073652 0.447381526232 0.099159 -0.020703 0.994856
0.259543359280 0.196301311255 0.451780617237 0.098944 -0.020659 0.994879
0.111046314240 0.333006739616 0.461657583714 0.019091 -0.009043 0.999777
-0.031034687534 0.383124202490 0.462659180164 -0.004945 0.006924 0.999964
-0.093044832349 0.464004844427 0.460920721292 -0.019359 0.023435 0.999538
-0.147180214524 0.577470004559 0.455826640129 -0.043488 0.043488 0.998107
-0.152467086911 0.709006011486 0.448085695505 -0.046442 0.063723 0.996886
-0.176989734173 0.772111058235 0.441777855158 -0.047290 0.084682 0.995285
-0.098669700325 0.908746123314 0.431452810764 -0.027732 0.116475 0.992806
-0.087141342461 0.869546830654 0.435862511396 -0.025114 0.099364 0.994734
-0.089757055044 0.597229123116 0.456376969814 -0.021782 0.042527 0.998858
0.000119872391 0.491042256355 0.460846155882 0.005023 0.025117 0.999672
-0.033809177577 0.638004779816 0.454863905907 -0.005204 0.061405 0.998099
-0.043783307076 0.713860571384 0.450122088194 -0.007285 0.061405 0.998086
0.075601562858 0.547479093075 0.458349198103 0.017598 0.042442 0.998944
0.169462695718 0.365171730518 0.459239214659 0.039885 0.007159 0.999179
0.217836588621 0.405371934175 0.455879867077 0.068187 0.009441 0.997628
0.198286652565 0.456423550844 0.456277638674 0.067199 0.028800 0.997324
0.106732062995 0.617497503757 0.454641222954 0.039166 0.045517 0.998196
0.080530792475 0.601916849613 0.455870866776 0.019707 0.044599 0.998811
0.161292880774 0.552694261074 0.455375105143 0.041363 0.047726 0.998004
0.188283577561 0.524433493614 0.455018460751 0.069619 0.028919 0.997154
0.247402042150 0.599327683449 0.446546852589 0.109287 0.052954 0.992599
0.193398997188 0.645650506020 0.448461771011 0.071950 0.067522 0.995120
0.130456015468 0.763337135315 0.443465620279 0.044996 0.084505 0.995407
0.144897416234 0.818380594254 0.437947601080 0.045719 0.103705 0.993557
0.176166832447 0.896119952202 0.427637577057 0.081731 0.104754 0.991134
0.092836596072 0.964863896370 0.422851294279 -0.008646 0.952288 0.305078
0.050958897918 0.964585185051 0.422670453787 -0.008646 0.952288 0.305078
0.227315351367 0.929548621178 0.418549925089 0.129429 0.127010 0.983421
0.244442254305 0.823984622955 0.428813427687 0.115199 0.112824 0.986914
0.229404032230 0.559922099113 0.450502902269 0.070928 0.049104 0.996272
0.121901489794 0.492989957333 0.459006518126 0.038460 0.025987 0.998922
-0.309156447649 0.225261777639 0.449542284012 -0.096990 -0.025065 0.994970
-0.317255079746 0.100508816540 0.445323795080 -0.099477 -0.052533 0.993652
-0.308925002813 -0.059363339096 0.432262599468 -0.106451 -0.167630 0.980086
-0.052311748266 -0.204937934875 0.411667585373 -0.001236 -0.317711 0.948187
0.064753904939 -0.110094904900 0.436669796705 0.010690 -0.231607 0.972751
0.048562671989 0.002301937900 0.452135503292 0.009720 -0.102600 0.994675
-0.051927007735 0.009733859450 0.453130364418 -0.005377 -0.102164 0.994753
-0.109672471881 0.089017182589 0.457334399223 -0.022045 -0.053538 0.998322
-0.229411140084 0.186584338546 0.455233484507 -0.066925 -0.022308 0.997509
-0.227302014828 0.239739269018 0.456457585096 -0.068328 -0.011563 0.997596
-0.236889019608 0.385047644377 0.456329852343 -0.068046 0.007328 0.997655
-0.194289565086 0.415283024311 0.458823502064 -0.039804 0.007144 0.999182
-0.153843969107 0.242290496826 0.460110783577 -0.042098 -0.011294 0.999050
-0.162783920765 0.179930046201 0.458532691002 -0.040372 -0.021739 0.998948
-0.124396398664 0.253535002470 0.461113870144 -0.021142 -0.009061 0.999735
-0.244268283248 -0.018760461360 0.442672520876 -0.076630 -0.104079 0.991613
-0.268375754356 -0.118292413652 0.425745010376 -0.081008 -0.225577 0.970852
-0.124177441001 -0.120451278985 0.433579206467 -0.022692 -0.228115 0.973370
-0.006782136858 -0.115088008344 0.436297535896 -0.003539 -0.230024 0.973179
-0.178871780634 -0.082431577146 0.438384950161 -0.047914 -0.164779 0.985166
-0.513738393784 -0.352439969778 -0.285804301500 -0.818485 -0.009597 -0.574448
-0.524549961090 0.108824759722 -0.272977590561 -0.993323 -0.012020 -0.114740
-0.519943773746 -0.241259783506 -0.261100172997 -0.997559 -0.013694 0.068470
-0.521371543407 -0.157716810703 -0.267705529928 -0.997737 -0.011565 0.066235
-0.523180544376 -0.017888113856 -0.271130234003 -0.997883 -0.011542 0.064007
-0.514718949795 -0.494980275631 -0.235590472817 -0.993810 -0.014182 -0.110181
-0.519028961658 -0.296651244164 -0.219924032688 -0.994381 -0.011928 -0.105185
-0.526818156242 0.037286106497 -0.171116933227 -0.996937 -0.011654 -0.077339
-0.532435595989 0.115218728781 -0.064883507788 -0.999936 -0.010901 -0.002973
-0.531063914299 -0.005409413949 -0.053065534681 -0.999936 -0.010901 -0.002973
-0.530040323734 0.011550064199 -0.114155650139 -0.999220 -0.011250 -0.037842
-0.525984466076 0.004416514188 -0.177411302924 -0.996959 -0.009535 -0.077341
-0.521490454674 -0.378419399261 -0.182115957141 -0.996924 -0.011679 -0.077503
-0.519068896770 -0.468124836683 -0.197063952684 -0.996703 -0.013858 -0.079949
-0.524412035942 -0.277845472097 -0.158942595124 -0.998158 -0.011497 -0.059576
-0.527013540268 -0.217342108488 -0.126563206315 -0.998165 -0.011473 -0.059452
-0.527829408646 -0.247135460377 -0.099746622145 -0.999137 -0.011272 -0.039965
-0.529490709305 -0.047934889793 -0.006078396924 -0.999441 -0.011184 0.031518
-0.529907166958 0.021600358188 0.008740513586 -0.999476 -0.013245 0.029546
-0.526969134808 -0.160887181759 0.011384879239 -0.996484 -0.016021 0.082239
-0.527198314667 -0.107292264700 0.019231025130 -0.996671 -0.015989 0.079947
-0.498590022326 -0.043443758041 0.107413679361 -0.839188 -0.040226 0.542351
-0.497337728739 0.141392886639 0.122214622796 -0.830820 -0.037575 0.555272
-0.517116904259 0.109006993473 0.085730619729 -0.894193 -0.033515 0.446426
-0.515305101871 -0.054616592824 0.077072642744 -0.897830 -0.036235 0.438849
-0.519429683685 0.143749833107 -0.073987692595 -0.012857 0.999917 -0.000989
-0.505659639835 -0.504671752453 -0.257467299700 0.015284 -0.976977 -0.212795
-0.485928207636 -0.137764051557 0.108716033399 0.003128 -0.065688 0.997835
0.503690302372 0.208437234163 -0.283009111881 0.821320 0.020706 -0.570092
0.507863998413 0.178744688630 -0.262993007898 0.998214 0.026296 0.053645
0.486986726522 0.536927342415 -0.289300322533 0.830084 0.046194 -0.555722
0.506174504757 0.364915996790 -0.165631935000 0.996391 0.040116 -0.074811
0.508585214615 0.253072440624 -0.178885906935 0.996907 0.026770 -0.073885
0.512802183628 0.208467513323 -0.133862912655 0.997954 0.026457 -0.058205
0.510400593281 0.287589609623 -0.139268264174 0.997963 0.026401 -0.058082
0.515261054039 0.203719213605 -0.081539943814 0.999657 0.025218 -0.007061
0.513852596283 0.267115741968 -0.053692355752 0.999641 0.025218 -0.009078
0.507258057594 0.451505422592 -0.073682092130 0.999162 0.039885 -0.009204
0.509599626064 0.386823505163 -0.082725360990 0.998569 0.038851 -0.036751
0.508786261082 0.385029047728 -0.106726966798 0.998569 0.038851 -0.036751
0.507349967957 0.365438222885 -0.147821918130 0.997609 0.039562 -0.056670
0.510940253735 0.324860662222 0.016967350617 0.998897 0.023857 0.040454
0.508435785770 0.228799760342 0.069539710879 0.932010 0.006358 0.362378
0.507611632347 0.354952812195 0.054739207029 0.996124 0.033602 0.081294
0.502302527428 0.515999853611 0.043038114905 0.995603 0.051705 0.078108
0.488039970398 0.383556604385 0.111361779273 0.864958 0.009416 0.501756
0.487001478672 0.491799712181 0.109550818801 0.894805 0.030763 0.445396
0.492548167706 0.578166365623 0.090453669429 0.933685 0.037555 0.356121
0.498241156340 0.605358898640 0.025622256100 0.997950 0.052076 0.037197
0.499394625425 0.586464822292 0.021535003558 0.997837 0.054196 0.037193
0.505553185940 0.487013041973 -0.004586035386 0.998557 0.052883 0.009332
0.481949001551 0.587999880314 0.113327048719 0.894805 0.030763 0.445396
0.484691113234 0.706937551498 0.094528988004 0.931261 0.043102 0.361794
0.459514588118 0.700088918209 0.146809160709 0.877010 0.006654 0.480426
0.448700040579 0.689623951912 0.165454834700 0.862450 -0.025887 0.505480
0.471821844578 0.535777628422 0.133667826653 0.850443 0.023206 0.525555
0.491219729185 0.736407935619 0.000203683056 0.984794 0.052820 0.165502
0.503741741180 0.542576134205 -0.153954431415 0.996184 -0.053582 -0.068891
0.502806425095 0.295385628939 -0.229613915086 0.994711 0.025169 -0.099581
0.491875231266 0.662747383118 -0.103383466601 -0.012228 0.536659 -0.843710
0.486709594727 0.748787462711 0.060536228120 -0.021567 0.999260 0.031837
0.437049716711 0.580872297287 0.155523985624 0.001047 -0.072214 0.997389
0.481842905283 0.632540524006 0.064936928451 0.990824 0.065443 0.118256
0.490412145853 0.609138965607 0.059551142156 0.461635 0.494727 0.736300
0.523674905300 -0.369055300951 -0.165853783488 0.996734 0.020342 -0.078154
0.524686396122 -0.383183062077 -0.154037743807 0.998002 0.019981 -0.059943
0.499350488186 0.033192504197 -0.294705241919 0.817867 0.017930 -0.575128
0.508905231953 0.053101774305 -0.239634647965 0.997713 0.020102 0.064539
0.514214873314 -0.034688636661 -0.193356499076 0.996853 0.022485 -0.076022
0.522848844528 -0.508162260056 -0.078089751303 0.017115 -0.999739 -0.015102
0.480691432953 -0.213127836585 0.102633990347 -0.001041 -0.065552 0.997849
0.481873780489 0.157492995262 0.120985493064 0.831382 -0.009556 0.555620
0.481901466846 0.061530999839 0.119365632534 0.834309 -0.009527 0.551215
0.493605017662 -0.011824900284 0.099837973714 0.833847 -0.015061 0.551790
0.492537021637 -0.063232861459 0.100133940578 0.839653 -0.012248 0.542985
0.511407971382 -0.356616705656 0.058211319149 0.888683 -0.014612 0.458289
0.516376852989 -0.454554259777 0.045733641833 0.888683 -0.014612 0.458289
0.525737643242 -0.365400046110 -0.007780964021 0.996291 0.016052 0.084540
0.524355828762 -0.256127178669 -0.021211324260 0.999235 0.019512 0.033890
0.523582577705 -0.214837878942 -0.108799621463 0.999030 0.021741 -0.038305
0.522781193256 -0.209388226271 -0.124841228127 0.997949 0.022130 -0.060067
0.511838376522 0.070706561208 -0.193579658866 0.996853 0.022485 -0.076022
0.508509159088 0.136910602450 -0.212910443544 0.994568 0.022926 -0.101531
0.506165504456 0.161121711135 -0.011736076325 -0.019243 0.999630 -0.019243
0.520122051239 -0.230687469244 0.035081271082 0.996469 0.016055 0.082415
0.522912859917 -0.184243977070 -0.019706787542 0.999235 0.019512 0.033890
0.521791696548 -0.141577497125 -0.011159604415 0.999303 0.019514 0.031838
0.523407876492 -0.170209735632 -0.082039892673 0.999775 0.021016 -0.003002
0.520405828953 -0.028125157580 -0.040865182877 0.999324 0.021568 0.029785
0.512616336346 -0.040563400835 0.060306601226 0.929435 -0.001268 0.368984
0.516742467880 0.005082254764 0.027093026787 0.996802 0.018124 0.077825
0.514843285084 0.082687534392 0.034093312919 0.996802 0.018124 0.077825
0.516177296638 0.108843013644 0.007924567908 0.999368 0.019475 0.029725
0.517150878906 0.096074610949 -0.016065716743 0.999368 0.019475 0.029725
0.502124369144 0.063644178212 0.048598546535 0.034996 0.054085 -0.997923
-0.526253879070 0.062034036964 0.049860510975 -0.001028 0.052451 -0.998623
0.544325232506 -0.398383527994 0.169144570827 0.173889 -0.357675 0.917514
0.508027851582 -0.373604774475 0.089914396405 -0.428867 0.890725 0.150606
0.529838740826 -0.391794919968 0.086906567216 0.939478 0.037271 -0.340577
-0.516875624657 0.235702782869 -0.290317565203 -0.822468 -0.006820 -0.568771
-0.526909232140 0.524846553802 -0.231897979975 -0.992283 -0.053178 -0.112014
-0.528291404247 0.500308275223 -0.203515976667 -0.996490 -0.037869 -0.074656
-0.533481836319 0.556359291077 -0.078919090331 -0.995293 -0.054008 0.080461
-0.524913132191 0.376180648804 -0.214791387320 -0.995188 0.007515 -0.097694
-0.528859138489 0.154019251466 -0.160692825913 -0.997016 -0.005275 -0.077018
-0.528984546661 0.428946286440 -0.161498501897 -0.997174 0.007371 -0.074762
-0.529889047146 0.379115998745 -0.153546318412 -0.998340 0.007272 -0.057137
-0.531799674034 0.524037241936 -0.034294895828 -0.999714 0.021185 0.011097
-0.523841857910 0.725873351097 0.051170244813 -0.996032 0.035844 0.081464
-0.532228529453 0.435896426439 0.017441153526 -0.999291 0.003044 0.037537
-0.533032357693 0.344370096922 -0.097396686673 -0.999264 0.007130 -0.037689
-0.533054947853 0.270809054375 -0.096247181296 -0.999264 -0.007130 -0.037689
-0.532773554325 0.240451693535 -0.000547845848 -0.998982 -0.009240 0.044148
-0.529868483543 0.402291983366 0.059867817909 -0.996878 0.001053 0.078950
-0.489228427410 0.650386571884 0.152469187975 -0.818777 -0.017889 0.573832
-0.483471363783 0.693306446075 0.165800213814 -0.862059 -0.054139 0.503909
-0.508135914803 0.677638888359 0.119308240712 -0.895617 0.017249 0.444491
-0.512540578842 0.492643237114 0.112972132862 -0.894688 0.001310 0.446689
-0.503513991833 0.458992332220 0.128154069185 -0.853162 -0.006739 0.521602
-0.500908911228 0.525774002075 0.133098289371 -0.851222 -0.006745 0.524763
-0.498940497637 0.608853995800 0.136920362711 -0.851222 0.006745 0.524763
-0.492902100086 0.679725348949 0.147868365049 -0.876583 -0.022891 0.480707
-0.508992552757 0.158511474729 -0.267988622189 0.014374 -0.991779 -0.127151
-0.493064582348 0.246261507273 0.134105965495 0.003122 -0.065552 0.997844
-0.479717016220 0.459823250771 0.147905275226 0.003140 -0.072214 0.997384
0.180684849620 -1.209554195404 -0.193627223372 0.114776 -0.992866 -0.032315
0.150232046843 -1.205065608025 -0.229130819440 0.014374 -0.127151 -0.991779
0.366429090500 -1.136412262917 -0.244608536363 -0.227355 -0.972097 0.057761
0.125086277723 -1.216950774193 -0.284269422293 0.007765 -0.136446 0.990617
-0.064343027771 -1.208926081657 -0.282562851906 -0.003313 -0.135852 0.990724
-0.107354074717 -1.212008714676 -0.283139258623 -0.010006 -0.136743 0.990556
-0.248433485627 -1.186376214027 -0.282432138920 -0.037512 -0.135272 0.990098
-0.277724057436 -1.184782266617 -0.283291071653 -0.035220 -0.139743 0.989561
-0.314395248890 -1.176917314529 -0.283392339945 -0.032876 -0.139440 0.989685
-0.423406273127 -1.084811449051 -0.363516688347 -0.737203 -0.662436 -0.133085
-0.440078794956 -1.086299896240 -0.324446976185 -0.591494 -0.517346 -0.618456
-0.487992078066 -0.982353925705 -0.226639300585 -0.017897 0.972394 -0.232659
-0.424283951521 -1.126580715179 -0.199427723885 -0.678772 -0.732846 -0.046959
0.175866812468 -1.209951877594 -0.160236522555 0.115012 -0.992680 0.036849
0.387901157141 -1.152576088905 -0.294701248407 0.394544 -0.893224 -0.215606
0.181027039886 -1.199813246727 -0.316244035959 -0.002938 -0.000979 0.999995
-0.036563329399 -1.011958956718 -0.363205730915 0.000993 0.016879 -0.999857
-0.178613856435 -1.119755268097 -0.365044802427 -0.000993 0.016879 -0.999857
-0.090446218848 -1.100192427635 -0.364748537540 -0.000995 0.018902 -0.999821
-0.045843496919 -1.087338685989 -0.364521592855 0.000993 0.016879 -0.999857
-0.031468510628 -1.131617546082 -0.365245699883 0.000995 0.016913 -0.999856
0.025033313781 -1.046912908554 -0.363804012537 -0.000995 0.016913 -0.999856
0.137555241585 -1.187896728516 -0.366333097219 -0.000993 0.016879 -0.999857
0.230842709541 -1.161653161049 -0.365911871195 -0.000995 0.016913 -0.999856
0.330041110516 -1.126006603241 -0.365348905325 -0.000993 0.016879 -0.999857
0.219433784485 -1.063278913498 -0.364214301109 -0.000993 0.016879 -0.999857
0.427561908960 -1.053087353706 -0.364281505346 -0.000993 0.014894 -0.999889
0.429099529982 -1.035658836365 -0.363964527845 -0.000995 0.018902 -0.999821
0.203252702951 -0.999900460243 -0.363149881363 -0.000995 0.018902 -0.999821
0.248933956027 -0.987752795219 -0.362926393747 -0.001003 0.027071 -0.999633
0.519271135330 -0.995579898357 -0.244430929422 0.958370 -0.279788 -0.056970
0.487287193537 -1.008954644203 -0.335157930851 0.720620 -0.237067 -0.651541
0.505800247192 -1.041758179665 -0.195286333561 0.895234 -0.440077 -0.069919
0.426220357418 -1.120242357254 -0.138458967209 0.438839 -0.754409 0.488147
0.429583430290 -1.120174169540 -0.141878485680 0.568527 -0.707758 0.419351
0.367745965719 -1.160312414169 -0.168426126242 0.432749 -0.897297 0.087103
0.397522836924 -1.117295145988 -0.106355890632 0.414461 -0.758479 0.502923
0.192309230566 -1.158257007599 -0.107665553689 -0.136259 -0.303548 0.943023
-0.204736709595 -1.154393196106 -0.090765610337 0.020501 -0.537116 0.843259
-0.249514847994 -1.151165723801 -0.076330766082 0.354290 -0.452792 0.818204
-0.254711508751 -1.129990100861 -0.060621403158 0.266728 -0.513179 0.815784
-0.375232279301 -1.127100348473 -0.104999363422 -0.359803 -0.776078 0.517923
-0.466843575239 -1.082475543022 -0.182359948754 -0.787262 -0.615445 0.038025
-0.452247232199 -1.100569605827 -0.188869923353 -0.773951 -0.633232 0.004139
-0.293223619461 -1.186676263809 -0.226230069995 -0.312861 -0.946436 -0.079851
0.002438474447 -1.220657587051 -0.211150079966 0.001071 -0.995026 -0.099610
-0.077900104225 -1.220190167427 -0.163956433535 -0.047633 -0.998178 0.037048
-0.285414278507 -1.189404249191 -0.148954913020 -0.239591 -0.846963 0.474605
-0.150845795870 -1.213344693184 -0.143970891833 -0.092112 -0.865857 0.491739
-0.357095569372 -1.149120688438 -0.125635772943 -0.370187 -0.799668 0.472750
0.497942209244 -0.980652689934 -0.330321609974 0.752965 -0.101276 -0.650221
0.167916178703 -1.187919855118 -0.348125696182 0.100346 -0.990771 -0.091119
0.057534523308 -1.195775151253 -0.346380472183 0.027201 -0.995543 -0.090306
0.119174428284 -1.193350315094 -0.339485079050 0.054565 -0.994428 -0.090200
-0.032465849072 -1.196731805801 -0.351754933596 0.005337 -0.995862 -0.090727
-0.222841739655 -1.180494070053 -0.340467482805 -0.199992 -0.975118 -0.095648
-0.298543781042 -1.157330870628 -0.364453345537 -0.295622 -0.949933 -0.101169
-0.171010762453 -1.191162943840 -0.337235122919 -0.109841 -0.804033 -0.584352
-0.335465133190 -1.112689971924 -0.364961445332 0.000993 0.016879 -0.999857
-0.088483273983 -1.007597327232 -0.363158404827 0.000991 0.014865 -0.999889
-0.352296352386 -1.095516800880 -0.364677131176 0.000991 0.014865 -0.999889
-0.424579977989 -1.051983118057 -0.364014327526 0.000995 0.018902 -0.999821
-0.338033378124 -1.013543963432 -0.363294690847 0.000995 0.018902 -0.999821
0.008987608366 -1.223508715630 -0.296460539103 0.000978 0.000978 -0.999999
-0.467211991549 1.071545958519 -0.320269316435 -0.632213 0.304041 -0.712647
-0.461056023836 1.136233568192 -0.289538353682 -0.589088 0.514819 -0.622846
-0.502728521824 1.011355042458 -0.282988458872 0.013535 -0.998497 -0.053100
-0.516372203827 1.057026505470 -0.212688356638 -0.953008 0.282616 -0.109103
-0.529095172882 1.018740057945 -0.164574697614 -0.982788 0.153523 -0.102752
-0.537141919136 0.964890301228 -0.149528592825 -0.995106 0.074162 -0.065307
-0.537012815475 0.982599079609 -0.106332026422 -0.995423 0.088506 0.036058
-0.529043078423 0.970511257648 -0.058649752289 -0.957924 0.091538 0.272035
-0.394660860300 1.159169077873 -0.043087810278 -0.206930 0.804727 0.556412
-0.348877191544 1.154986739159 -0.052675578743 0.933995 0.095142 0.344386
-0.340437442064 1.165120482445 -0.079816780984 0.910324 0.130046 0.392936
-0.333473086357 1.173127174377 -0.094876646996 0.851718 0.151515 0.501617
-0.389414340258 1.184173226357 -0.077713973820 -0.185670 0.819667 0.541916
-0.127047032118 1.220906972885 -0.141833722591 -0.051336 0.998439 -0.022001
0.023588096723 1.207929015160 -0.127800092101 -0.001120 0.160219 0.987081
0.008052123711 1.192174196243 -0.125268310308 -0.001120 0.160219 0.987081
0.103318877518 1.176803708076 -0.122932255268 0.003370 0.158384 0.987372
0.286551892757 1.185934185982 -0.091119579971 -0.857794 0.107403 0.502647
0.433547914028 1.120967149734 -0.020496923476 0.562709 0.689611 0.455845
0.467077732086 1.021912217140 -0.240112274885 0.012949 -0.975911 -0.217785
0.472992986441 1.084358572960 -0.148287728429 0.949675 0.296362 -0.101422
0.473005115986 1.087468385696 -0.123963497579 0.957026 0.286225 -0.046653
0.438565105200 1.148972630501 -0.193654581904 0.792664 0.597819 -0.119564
0.409450680017 1.136507391930 -0.303963780403 0.483945 0.497250 -0.720097
0.386826843023 1.159281492233 -0.300627201796 0.359187 0.631447 -0.687211
-0.022522768006 1.222788691521 -0.245219022036 -0.003833 0.926251 0.376888
0.014094944112 1.217246770859 -0.238212615252 -0.004140 0.757592 0.652716
0.460607111454 1.084744691849 -0.041560817510 0.941712 0.233700 0.241997
0.348502159119 1.201056122780 -0.128127068281 0.273218 0.961777 -0.018378
0.115574017167 1.222273111343 -0.159616738558 0.018124 0.996802 -0.077825
0.049683962017 1.223936319351 -0.154077351093 0.018127 0.996965 -0.075705
0.344645589590 1.194221615791 -0.211506769061 0.162892 0.913613 -0.372528
0.388778001070 1.175037264824 -0.223502978683 0.400442 0.897741 -0.183596
0.311384558678 1.197481989861 -0.276269704103 0.150956 0.912791 -0.379507
0.207353025675 1.212304115295 -0.268635898829 0.068210 0.924178 -0.375823
-0.072742432356 1.209540009499 -0.283780187368 -0.026056 0.848864 -0.527969
-0.125669121742 1.211500763893 -0.276691734791 -0.048478 0.931571 -0.360312
-0.157141387463 1.213748574257 -0.266714036465 -0.048433 0.930690 -0.362589
-0.485321909189 1.119230747223 -0.241373628378 -0.794533 0.542800 0.272187
-0.168418347836 1.214170098305 -0.191281929612 -0.050362 0.984984 -0.165140
-0.203169330955 1.207483530045 -0.236688032746 -0.069369 0.907239 0.414855
-0.261077314615 1.200584650040 -0.233043879271 -0.100244 0.915930 0.388618
-0.311453044415 1.193295121193 -0.230355754495 -0.144317 0.914940 0.376905
-0.323136776686 1.172653317451 -0.307208985090 -0.092078 0.761472 -0.641624
-0.495299845934 1.115764141083 -0.065139144659 -0.735669 0.569287 0.367019
