-0.805175244808 0.829367756844 -0.409776955843 -0.991164 0.012209 -0.132081
-0.837522029877 0.203987449408 -0.223820924759 -0.991164 0.012209 -0.132081
-0.838731646538 0.160288512707 -0.218671739101 -0.991164 0.012209 -0.132081
-0.832676708698 0.254579305649 -0.255504518747 -0.991164 0.012209 -0.132081
-0.837520420551 0.326775789261 -0.212922617793 -0.991164 0.012209 -0.132081
-0.820994675159 0.498284935951 -0.321076661348 -0.991164 0.012209 -0.132081
-0.841229379177 0.779569268227 -0.161434099078 -0.989919 0.007795 -0.141417
-0.821184635162 0.971454918385 -0.290000170469 -0.989919 0.007795 -0.141417
-0.847373485565 0.626630485058 -0.127262800932 -0.989919 0.007795 -0.141417
-0.850883364677 0.720987260342 -0.097631812096 -0.989919 0.007795 -0.141417
-0.820111930370 0.937469959259 -0.299342304468 -0.989919 0.007795 -0.141417
-0.847610294819 0.608729422092 -0.126613363624 -0.989919 0.007795 -0.141417
-0.808190643787 0.855087876320 -0.386736810207 -0.989919 0.007795 -0.141417
-0.847641229630 0.842495083809 -0.113393433392 -0.989919 0.007795 -0.141417
-0.805248856544 0.885334849358 -0.405489116907 -0.989919 0.007795 -0.141417
-0.849755048752 0.564983785152 -0.114148736000 -0.989919 0.007795 -0.141417
-0.849042057991 0.222403526306 -0.138159677386 -0.989919 0.007795 -0.141417
-0.852041065693 0.133902788162 -0.122250810266 -0.989919 0.007795 -0.141417
-0.844419181347 0.630574643612 -0.147565364838 -0.989919 0.007795 -0.141417
-0.847488105297 0.659820616245 -0.124620057642 -0.989919 0.007795 -0.141417
-0.818015277386 0.851580083370 -0.318685293198 -0.989919 0.007795 -0.141417
-0.824857592583 0.623711884022 -0.283831745386 -0.989919 0.007795 -0.141417
-0.822475671768 0.900786280632 -0.284963488579 -0.989919 0.007795 -0.141417
-0.829684078693 0.725982367992 -0.244614839554 -0.989919 0.007795 -0.141417
-0.828836023808 0.959007561207 -0.237542435527 -0.989919 0.007795 -0.141417
-0.850879669189 1.132881641388 -0.074743010104 -0.989919 0.007795 -0.141417
-0.814931690693 0.994475960732 -0.335000008345 -0.980191 -0.197890 0.008101
-0.852623701096 1.217946171761 0.007379885763 -0.998581 -0.050916 0.015587
-0.853066802025 1.334867119789 -0.056023634970 -0.998360 -0.005184 -0.057020
0.854643762112 1.492178082466 0.044734708965 0.996757 -0.011677 0.079613
0.854848742485 1.352781057358 0.018875043839 0.991130 -0.030375 0.129376
0.854289829731 1.273908615112 0.025014616549 0.999040 0.001018 0.043791
0.851412653923 1.461843609810 0.088682688773 0.999040 0.001018 0.043791
0.853778660297 1.282715320587 0.036685168743 0.999040 0.001018 0.043791
0.852958261967 0.871018111706 -0.015023395419 0.999936 0.002967 0.010880
0.854006230831 0.312855750322 0.014103465714 0.999936 0.002967 0.010880
0.852753341198 0.980451166630 -0.020788863301 0.999936 0.002967 0.010880
0.852147817612 1.132282733917 0.002398811281 0.999936 0.002967 0.010880
0.852440655231 1.134655594826 -0.026586998254 0.999936 0.002967 0.010880
0.853831410408 0.461658060551 -0.003815066069 0.999936 0.002967 0.010880
0.852276384830 0.814166605473 0.064493216574 0.999936 0.002967 0.010880
0.851751804352 1.032043576241 0.064334459603 0.999936 0.002967 0.010880
0.851960480213 0.909036517143 0.072917394340 0.999936 0.002967 0.010880
0.841370224953 0.830404520035 0.109380133450 0.954777 -0.018624 0.296738
0.848254740238 0.423288702965 0.060358565301 0.954777 -0.018624 0.296738
0.839962422848 1.012446403503 0.125940695405 0.954777 -0.018624 0.296738
0.838905751705 1.032700419426 0.130889132619 0.957445 -0.021002 0.287851
0.847085297108 1.442353487015 0.135025590658 0.962372 -0.020841 0.270935
0.847224771976 1.689754009247 0.153181493282 0.963187 -0.020806 0.268028
0.838751554489 1.682641267776 0.229579329491 0.991423 0.014433 -0.129895
0.837722361088 1.226248264313 0.161586880684 0.932199 0.053755 -0.357933
0.847720503807 1.248899221420 0.200563266873 0.957988 -0.003661 0.286786
0.834649980068 1.280587792397 0.244434982538 0.953135 -0.018640 0.301971
0.818134665489 1.244602441788 0.294416308403 0.953135 -0.018640 0.301971
0.805946767330 1.625203013420 0.350166648626 0.963029 -0.013392 0.269064
0.822166621685 1.450001955032 0.289349436760 0.957988 -0.003661 0.286786
0.843889057636 1.358842372894 0.215113610029 0.957988 -0.003661 0.286786
0.816565573215 1.565763711929 0.312089204788 0.962626 -0.008497 0.270701
0.819930613041 1.589193224907 0.300905019045 0.962626 -0.008497 0.270701
0.786575257778 1.757940053940 0.387647360563 0.934587 0.078436 0.346980
0.734343469143 1.517052292824 0.558869898319 0.926429 0.051395 0.372944
0.733065128326 1.555626273155 0.547749996185 0.413969 0.388592 0.823180
0.681938290596 1.384276866913 0.638112843037 0.547400 0.223586 0.806451
0.676988303661 1.273277401924 0.666095316410 0.514477 0.174475 0.839567
0.646815776825 1.191411018372 0.702926635742 0.527856 0.192085 0.827328
0.670169830322 1.140331864357 0.699331581593 0.650095 0.116987 0.750793
0.596941947937 0.971393406391 0.768347680569 0.381314 0.120634 0.916541
0.522879540920 1.007151007652 0.778701066971 0.039962 0.068043 0.996882
0.408846229315 1.004893898964 0.783621311188 0.049394 0.080128 0.995560
0.484286904335 0.927623033524 0.786026656628 0.049394 0.080128 0.995560
0.290207952261 0.975255012512 0.790355443954 0.022574 0.080622 0.996489
0.248469248414 0.966225266457 0.792227089405 0.029375 0.090300 0.995481
0.260291576385 0.924373567104 0.795658051968 0.029375 0.090300 0.995481
0.111538060009 1.021377563477 0.790480732918 0.005337 0.090727 0.995862
0.057219274342 0.998513162136 0.792914748192 0.009666 0.093436 0.995578
-0.086103238165 0.967746853828 0.795557260513 -0.009666 0.093436 0.995578
-0.121942862868 0.994624912739 0.792863547802 -0.005337 0.090727 0.995862
-0.211660265923 0.922415733337 0.797243058681 -0.029375 0.090300 0.995481
-0.252902060747 1.044458031654 0.785585582256 -0.022574 0.080622 0.996489
-0.523223400116 0.913637936115 0.785205066204 -0.049394 0.080128 0.995560
-0.484564155340 0.944560647011 0.784664154053 -0.049394 0.080128 0.995560
-0.542556405067 1.020265579224 0.776999473572 -0.039962 0.068043 0.996882
-0.419746547937 1.060687541962 0.779268741608 -0.039962 0.068043 0.996882
-0.481996476650 1.080646872520 0.774932861328 -0.038705 0.100633 0.994170
-0.377562344074 1.124955654144 0.774386942387 -0.038705 0.100633 0.994170
-0.580013930798 1.207323551178 0.742106974125 -0.531358 0.192258 0.825043
-0.581925153732 1.176883220673 0.747226476669 -0.381185 0.123365 0.916231
-0.452122241259 1.212794184685 0.760666489601 -0.073944 0.142020 0.987098
-0.606743812561 0.948577821255 0.767292082310 -0.381314 0.120634 0.916541
-0.649710357189 1.135710120201 0.714104950428 -0.527856 0.192085 0.827328
-0.575032472610 0.897110819817 0.779205441475 -0.236765 0.078922 0.968356
-0.553944587708 1.033812642097 0.775374174118 -0.239422 0.063267 0.968852
-0.571332275867 0.856816351414 0.782453358173 -0.204662 0.044284 0.977830
-0.494680315256 0.877229154110 0.788585186005 -0.045883 0.050151 0.997687
-0.344055622816 0.767582535744 0.800227761269 -0.045605 0.043484 0.998013
-0.462600678205 0.853819370270 0.791140079498 -0.045605 0.043484 0.998013
-0.283430516720 0.848075568676 0.798515915871 -0.028291 0.045057 0.998584
-0.169825211167 0.910487055779 0.799061238766 -0.028291 0.045057 0.998584
-0.187506929040 0.751491427422 0.806211650372 -0.034856 0.049644 0.998159
-0.161580651999 0.882267892361 0.800631284714 -0.034856 0.049644 0.998159
-0.105390146375 0.870124280453 0.802425026894 -0.011384 0.050709 0.998649
-0.048837795854 0.761902570724 0.808474540710 -0.011384 0.050709 0.998649
-0.099773481488 0.643463611603 0.811636090279 -0.013088 0.019129 0.999731
-0.145140349865 0.595937728882 0.811546742916 -0.036016 0.017494 0.999198
-0.307525277138 0.595254182816 0.805652499199 -0.033823 0.015374 0.999310
-0.413162887096 0.613256216049 0.800094187260 -0.055292 0.013562 0.998378
-0.404271274805 0.664868235588 0.799835383892 -0.050814 0.011407 0.998643
-0.498079299927 0.689571857452 0.794701635838 -0.050814 0.011407 0.998643
-0.515824317932 0.743021130562 0.792557418346 -0.051758 0.030632 0.998190
-0.423453480005 0.754281520844 0.797079384327 -0.051758 0.030632 0.998190
-0.598112583160 0.834288775921 0.777897298336 -0.205120 0.046782 0.977618
-0.602869451046 0.576759338379 0.781667053699 -0.565033 -0.012313 0.824976
-0.546236693859 0.609544932842 0.792668342590 -0.151462 0.007854 0.988432
-0.519770145416 0.441844016314 0.794542670250 -0.054839 -0.005173 0.998482
-0.330496788025 0.516700744629 0.805070698261 -0.052451 -0.001028 0.998623
-0.432955503464 0.550841212273 0.799692511559 -0.052451 -0.001028 0.998623
-0.270574569702 0.504314720631 0.807295560837 -0.035439 -0.001013 0.999371
-0.213299661875 0.505445361137 0.809416890144 -0.037613 0.003050 0.999288
-0.071169964969 0.549470245838 0.813401937485 -0.014894 0.002979 0.999885
-0.097452461720 0.605009794235 0.812399983406 -0.013115 0.019167 0.999730
0.052008479834 0.615135788918 0.812810480595 0.013115 0.019167 0.999730
0.089719541371 0.708015263081 0.810535788536 0.013088 0.019129 0.999731
0.048922259361 0.824196577072 0.805336058140 0.011384 0.050709 0.998649
0.068603210151 0.893693268299 0.801628649235 0.011384 0.050709 0.998649
0.040967065841 0.873642981052 0.802931070328 0.011384 0.050709 0.998649
0.237278521061 0.761556446552 0.804005146027 0.034856 0.049644 0.998159
0.153484150767 0.793607532978 0.805293679237 0.034856 0.049644 0.998159
0.238489314914 0.904760122299 0.797301352024 0.028291 0.045057 0.998584
0.338870882988 0.868096351624 0.795993924141 0.028291 0.045057 0.998584
0.424974501133 0.787367343903 0.795739114285 0.045605 0.043484 0.998013
0.347582161427 0.790807425976 0.799048244953 0.045605 0.043484 0.998013
0.508554339409 0.873381316662 0.788121640682 0.045883 0.050151 0.997687
0.638846933842 0.883655726910 0.754425704479 0.571272 0.037712 0.819894
0.625688314438 0.807721197605 0.765712916851 0.568170 0.012322 0.822819
0.617604374886 0.750769317150 0.772170126438 0.581974 0.012382 0.813113
0.565058112144 0.829861462116 0.784998655319 0.205120 0.046782 0.977618
0.465258121490 0.752148866653 0.794942200184 0.051758 0.030632 0.998190
0.353406280279 0.714136242867 0.801913738251 0.050814 0.011407 0.998643
0.494779169559 0.603444039822 0.795836865902 0.050814 0.011407 0.998643
0.480307728052 0.597757160664 0.796663641930 0.055292 0.013562 0.998378
0.298928558826 0.624546706676 0.805495977402 0.033823 0.015374 0.999310
0.170953273773 0.609100818634 0.810362875462 0.036016 0.017494 0.999198
0.312167704105 0.537509500980 0.805792570114 0.035439 -0.001013 0.999371
0.166941493750 0.539966940880 0.811099410057 0.037613 0.003050 0.999288
0.053734973073 0.460992872715 0.813992559910 0.014924 0.004975 0.999876
-0.119657292962 0.444495588541 0.813098967075 -0.014924 0.004975 0.999876
-0.099036343396 0.440019875765 0.813375234604 -0.015132 -0.017150 0.999738
-0.137552231550 0.360759943724 0.811055362225 -0.040292 -0.017563 0.999034
-0.199624404311 0.310570955276 0.807655155659 -0.040292 -0.017563 0.999034
-0.269178688526 0.353850245476 0.805637896061 -0.038226 -0.021696 0.999034
-0.457581281662 0.389714837074 0.797089695930 -0.053426 -0.021999 0.998329
-0.357133507729 0.428421854973 0.803315639496 -0.053426 -0.021999 0.998329
-0.512848496437 0.345220297575 0.792878925800 -0.055859 -0.026349 0.998091
-0.594212114811 0.094300016761 0.763985991478 -0.604802 -0.067200 0.793535
-0.580426692963 0.064323544502 0.771159887314 -0.075545 -0.086820 0.993356
-0.490358144045 0.261543363333 0.791171073914 -0.057130 -0.050662 0.997080
-0.471306115389 0.203544750810 0.789301037788 -0.057130 -0.050662 0.997080
-0.328169494867 0.290794610977 0.801632940769 -0.054869 -0.048414 0.997319
-0.469583034515 0.289351522923 0.793699443340 -0.054869 -0.048414 0.997319
-0.289288282394 0.186842054129 0.798311829567 -0.041450 -0.047827 0.997995
-0.185379922390 0.264003872871 0.806294322014 -0.039166 -0.045517 0.998196
-0.043853137642 0.280558466911 0.810845077038 -0.015527 -0.044510 0.998888
-0.021834222600 0.394530951977 0.813781261444 -0.015132 -0.017150 0.999738
0.083483584225 0.306236088276 0.811311960220 0.015132 -0.017150 0.999738
0.108523517847 0.329106390476 0.811321735382 0.015132 -0.017150 0.999738
0.202982604504 0.336561411619 0.807973265648 0.040292 -0.017563 0.999034
0.311060100794 0.372866630554 0.804429233074 0.038226 -0.021696 0.999034
0.440567821264 0.375335901976 0.797698795795 0.053426 -0.021999 0.998329
0.444388955832 0.420839786530 0.798456490040 0.053426 -0.021999 0.998329
0.473148554564 0.495602488518 0.797415435314 0.054839 -0.005173 0.998482
0.535672724247 0.476625025272 0.793854415417 0.054839 -0.005173 0.998482
0.373629212379 0.542438983917 0.802813351154 0.052451 -0.001028 0.998623
0.377619534731 0.528051316738 0.802591562271 0.052451 -0.001028 0.998623
0.589988827705 0.620280265808 0.786761343479 0.109179 0.027570 0.993640
0.616366624832 0.555593729019 0.772066175938 0.565033 -0.012313 0.824976
0.584013104439 0.351469099522 0.787935912609 0.091691 -0.016181 0.995656
0.403163254261 0.325846314430 0.798563361168 0.055859 -0.026349 0.998091
0.489761471748 0.275029212236 0.791876375675 0.054869 -0.048414 0.997319
0.343479841948 0.281144469976 0.800308525562 0.054869 -0.048414 0.997319
0.245684966445 0.230380862951 0.802274346352 0.041450 -0.047827 0.997995
0.248554855585 0.271057009697 0.804076910019 0.039166 -0.045517 0.998196
0.249893009663 0.256063699722 0.803345084190 0.039166 -0.045517 0.998196
0.043383367360 0.299993395805 0.811729073524 0.015527 -0.044510 0.998888
0.039719760418 0.219252899289 0.808137893677 0.015527 -0.044510 0.998888
-0.106051765382 0.154337391257 0.803487837315 -0.018195 -0.082412 0.996432
-0.192784547806 0.132222175598 0.798452258110 -0.040445 -0.081982 0.995813
-0.301909029484 0.101754061878 0.791270494461 -0.042806 -0.084513 0.995502
-0.271564722061 0.063915446401 0.789398550987 -0.042806 -0.084513 0.995502
-0.386654794216 0.080498099327 0.784573972225 -0.061259 -0.083535 0.994620
-0.453526407480 0.048181489110 0.777709126472 -0.061259 -0.083535 0.994620
-0.498731076717 0.098316773772 0.779467821121 -0.056797 -0.087979 0.994502
-0.441044926643 0.124719515443 0.785175919533 -0.056797 -0.087979 0.994502
-0.553827643394 -0.301151275635 0.712077856064 -0.117794 -0.247238 0.961768
-0.564268827438 -0.319354772568 0.706020772457 -0.099474 -0.262250 0.959859
-0.648492455482 -0.658629179001 0.569114804268 -0.075151 -0.416746 0.905911
-0.500932753086 -0.305804967880 0.714281141758 -0.055047 -0.226305 0.972500
-0.351054161787 -0.286301493645 0.727275729179 -0.055047 -0.226305 0.972500
-0.537692546844 -0.154978632927 0.744973242283 -0.064695 -0.211174 0.975305
-0.495096445084 -0.067021697760 0.760588705540 -0.054561 -0.145110 0.987910
-0.403597176075 -0.023947563022 0.771933794022 -0.054437 -0.144778 0.987966
-0.423334062099 -0.010790348053 0.772762656212 -0.054437 -0.144778 0.987966
-0.158855542541 -0.155274391174 0.764490723610 -0.044781 -0.143530 0.988632
-0.290157288313 -0.027399893850 0.777322709560 -0.044781 -0.143530 0.988632
-0.201318785548 0.016562687233 0.787447690964 -0.042393 -0.143219 0.988783
-0.212273478508 -0.072523266077 0.774170100689 -0.042393 -0.143219 0.988783
-0.197730496526 -0.032292447984 0.780570983887 -0.042393 -0.143219 0.988783
-0.096633978188 -0.079684056342 0.777462124825 -0.023691 -0.143277 0.989399
-0.011382582597 -0.029677350074 0.786186337471 -0.016780 -0.139835 0.990033
0.035053245723 -0.101027369499 0.775787889957 0.016780 -0.139835 0.990033
0.040230751038 0.042800653726 0.795512199402 0.018195 -0.082412 0.996432
0.240073248744 0.134523481131 0.796668827534 0.040445 -0.081982 0.995813
0.320411384106 0.062075749040 0.787116467953 0.042806 -0.084513 0.995502
0.409464001656 0.049848277122 0.780576765537 0.061259 -0.083535 0.994620
0.421855896711 0.100861229002 0.784155011177 0.056797 -0.087979 0.994502
0.505130350590 0.044476173818 0.774282038212 0.056797 -0.087979 0.994502
0.536878287792 0.157420575619 0.782489895821 0.066257 -0.088717 0.993851
0.573873996735 0.050963491201 0.770491242409 0.075545 -0.086820 0.993356
0.570224523544 -0.039757948369 0.759105145931 0.089165 -0.143853 0.985574
0.533668518066 -0.037990871817 0.762682974339 0.054561 -0.145110 0.987910
0.409027814865 -0.121708452702 0.757387280464 0.054561 -0.145110 0.987910
0.331088125706 -0.076125644147 0.768327295780 0.054437 -0.144778 0.987966
0.410080611706 -0.063154906034 0.765867829323 0.054437 -0.144778 0.987966
0.445351719856 -0.027739098296 0.769081652164 0.054437 -0.144778 0.987966
0.290829002857 -0.057335432619 0.772921442986 0.044781 -0.143530 0.988632
0.214955583215 -0.128595933318 0.765890598297 0.044781 -0.143530 0.988632
0.137840762734 -0.126380443573 0.769560277462 0.042393 -0.143219 0.988783
0.288357883692 0.005826255307 0.782230257988 0.042393 -0.143219 0.988783
0.085734814405 -0.086101278663 0.776784241199 0.023691 -0.143277 0.989399
0.022873945534 -0.137624517083 0.770784616470 0.023691 -0.143277 0.989399
0.098971165717 -0.194304332137 0.758850574493 0.010609 -0.222780 0.974811
-0.017450748011 -0.280902534723 0.739777684212 -0.010609 -0.222780 0.974811
-0.059590876102 -0.237990945578 0.749211430550 -0.010609 -0.222780 0.974811
-0.079757720232 -0.321566492319 0.729317188263 -0.017865 -0.229866 0.973058
-0.157083958387 -0.211280211806 0.753390789032 -0.042336 -0.223774 0.973721
-0.296790182590 -0.190869718790 0.752121686935 -0.042336 -0.223774 0.973721
-0.257208049297 -0.275533646345 0.734258592129 -0.044937 -0.227115 0.972831
0.113079391420 -0.202223867178 0.756844222546 0.017865 -0.229866 0.973058
0.239910811186 -0.199343800545 0.752598822117 0.042336 -0.223774 0.973721
0.244731515646 -0.309421479702 0.726927518845 0.044937 -0.227115 0.972831
0.474758297205 -0.263190329075 0.725669145584 0.055047 -0.226305 0.972500
0.422294348478 -0.261219561100 0.729088127613 0.055047 -0.226305 0.972500
0.410306334496 -0.214074671268 0.740585625172 0.064695 -0.211174 0.975305
0.436762720346 -0.222932562232 0.736941158772 0.064695 -0.211174 0.975305
0.612728118896 -0.080622665584 0.726496160030 0.828792 -0.046122 0.557653
0.708217501640 -0.529905021191 0.508755505085 0.902878 -0.003920 0.429880
0.751632928848 -1.232991814613 0.285643130541 0.594965 -0.299888 0.745711
0.693868577480 -0.720920324326 0.527781009674 0.291055 -0.397724 0.870117
0.574805676937 -0.365319550037 0.692337512970 0.099474 -0.262250 0.959859
0.576925814152 -0.381157606840 0.687758862972 0.111923 -0.330376 0.937190
-0.702154755592 -1.539700388908 0.181562140584 -0.176821 -0.395332 0.901358
-0.720438778400 -1.409935474396 0.230881139636 -0.160175 -0.341242 0.926228
-0.659545838833 -1.388275861740 0.248376592994 -0.075486 -0.343000 0.936297
-0.656810760498 -1.710301876068 0.106214985251 -0.084139 -0.426213 0.900702
-0.628592669964 -1.519928216934 0.199107915163 -0.092686 -0.424697 0.900579
-0.619774281979 -1.770550489426 0.081168651581 -0.085382 -0.471701 0.877615
-0.526602745056 -1.959001302719 -0.037443559617 -0.110880 -0.728854 0.675631
0.041054286063 -2.043528318405 -0.113595344126 0.022896 -0.879461 0.475421
0.459781914949 -1.978660225868 -0.053095277399 0.149324 -0.832371 0.533723
0.520573914051 -1.987937569618 -0.079502478242 0.086213 -0.860717 0.501731
0.635012090206 -1.710634946823 0.108290709555 0.092686 -0.424697 0.900579
0.632165014744 -1.468445539474 0.221188366413 0.075486 -0.343000 0.936297
0.654011666775 -1.689256787300 0.116481013596 0.084139 -0.426213 0.900702
0.676480114460 -1.749992966652 0.085458658636 0.092918 -0.425757 0.900054
0.676020979881 -1.490102052689 0.208446085453 0.176821 -0.395332 0.901358
0.707899332047 -1.271962404251 0.284722834826 0.132840 -0.335524 0.932619
0.719276905060 -1.371074557304 0.245610237122 0.139824 -0.350252 0.926160
0.744166493416 -1.456764936447 0.209534615278 0.160175 -0.341242 0.926228
0.638670086861 -0.637493908405 0.579676628113 0.075151 -0.416746 0.905911
-0.036928981543 -1.529785156250 0.232417389750 -0.024769 -0.387180 0.921671
-0.060403641313 -1.534808278084 0.229663357139 -0.024769 -0.387180 0.921671
-0.186224669218 -1.466236948967 0.254874497652 -0.027336 -0.384009 0.922924
-0.249748304486 -1.440732359886 0.263615608215 -0.027336 -0.384009 0.922924
-0.321772992611 -1.474450111389 0.245013490319 -0.065765 -0.387877 0.919362
-0.324930220842 -1.475197672844 0.244471982121 -0.065765 -0.387877 0.919362
-0.412629574537 -1.450801014900 0.248214691877 -0.071078 -0.382214 0.921336
-0.436729580164 -1.412003874779 0.262464135885 -0.102511 -0.378606 0.919863
-0.503604471684 -1.475535631180 0.230332836509 -0.058912 -0.346924 0.936041
-0.528383016586 -1.557462692261 0.193673521280 -0.066407 -0.410642 0.909375
-0.496388196945 -1.608552694321 0.172863513231 -0.066407 -0.410642 0.909375
-0.460691213608 -1.613251209259 0.172445431352 -0.038715 -0.420521 0.906456
-0.484092622995 -1.736134290695 0.114307731390 -0.038715 -0.420521 0.906456
-0.433241546154 -1.623099088669 0.169509530067 -0.069382 -0.420376 0.904693
-0.431423425674 -1.697357058525 0.135116338730 -0.069382 -0.420376 0.904693
-0.299495130777 -1.757014513016 0.116275615990 -0.061112 -0.425067 0.903097
-0.265708863735 -1.671267509460 0.159027755260 -0.061112 -0.425067 0.903097
-0.146060660481 -1.658066272736 0.169229373336 -0.027816 -0.425186 0.904679
-0.159545198083 -1.664029717445 0.166023105383 -0.027816 -0.425186 0.904679
-0.231947913766 -1.693288803101 0.150107309222 -0.027816 -0.425186 0.904679
-0.155827760696 -1.739946484566 0.130341649055 -0.025169 -0.425216 0.904742
-0.166854485869 -1.755487203598 0.122694350779 -0.025169 -0.425216 0.904742
-0.195971608162 -1.725781202316 0.135863333941 -0.025169 -0.425216 0.904742
-0.149926394224 -1.778725981712 0.110092878342 -0.023165 -0.519159 0.854364
-0.152313038707 -1.864661931992 0.057886108756 -0.023165 -0.519159 0.854364
-0.264155417681 -1.807552814484 0.089133776724 -0.051373 -0.517894 0.853901
-0.353855401278 -1.782293558121 0.097718670964 -0.065765 -0.505127 0.860536
-0.377399742603 -1.821983814240 0.072584263980 -0.065765 -0.505127 0.860536
-0.470608800650 -1.779762506485 0.092644751072 0.004017 -0.499448 0.866335
-0.532161355019 -1.819065451622 0.069876007736 -0.033751 -0.465759 0.884268
-0.471965312958 -1.915613889694 0.008792612702 -0.165178 -0.625859 0.762245
0.365024000406 -1.936806321144 0.003417616710 0.061758 -0.650613 0.756894
0.489612042904 -1.938856959343 -0.014038722962 0.165178 -0.625859 0.762245
0.478100866079 -1.815181970596 0.072197414935 -0.004017 -0.499448 0.866335
0.463192284107 -1.674203276634 0.144009068608 0.038715 -0.420521 0.906456
0.548349082470 -1.613814711571 0.166715934873 0.066407 -0.410642 0.909375
0.543458580971 -1.607145667076 0.170088931918 0.066407 -0.410642 0.909375
0.529002964497 -1.462872266769 0.233455076814 0.058912 -0.346924 0.936041
0.601945281029 -1.449761152267 0.233778089285 0.058912 -0.346924 0.936041
0.635652661324 -1.391873240471 0.250973820686 0.114959 -0.336761 0.934546
0.493851155043 -1.412706494331 0.255845338106 0.102511 -0.378606 0.919863
0.469037055969 -1.378763914108 0.272533148527 0.102511 -0.378606 0.919863
0.408059716225 -1.409515738487 0.265677660704 0.071078 -0.382214 0.921336
0.420520514250 -1.435925841331 0.253779649734 0.071078 -0.382214 0.921336
0.351642251015 -1.480285763741 0.240408629179 0.065765 -0.387877 0.919362
0.177007153630 -1.405044555664 0.280591070652 0.027336 -0.384009 0.922924
0.234343171120 -1.430034041405 0.268515378237 0.027336 -0.384009 0.922924
0.226346239448 -1.519690155983 0.231443151832 0.024769 -0.387180 0.921671
0.048464484513 -1.471140503883 0.256710857153 0.024769 -0.387180 0.921671
0.140081763268 -1.655158162117 0.170774385333 0.027816 -0.425186 0.904679
0.198491439223 -1.586053013802 0.201583862305 0.027816 -0.425186 0.904679
0.109175436199 -1.575592756271 0.209148943424 0.027816 -0.425186 0.904679
0.046975288540 -1.540161490440 0.227669343352 0.027816 -0.425186 0.904679
0.099570333958 -1.656394720078 0.171367719769 0.025169 -0.425216 0.904742
0.034242615104 -1.681757807732 0.161292329431 0.025169 -0.425216 0.904742
0.134087264538 -1.692031025887 0.153565272689 0.025169 -0.425216 0.904742
0.234647214413 -1.898597478867 0.035031992942 0.023165 -0.519159 0.854364
0.135585620999 -1.838395833969 0.074281759560 0.023165 -0.519159 0.854364
0.047019481659 -1.787019610405 0.107888273895 0.023165 -0.519159 0.854364
0.295628756285 -1.859239697456 0.055949367583 0.051373 -0.517894 0.853901
0.278746008873 -1.828943848610 0.075305208564 0.051373 -0.517894 0.853901
0.314589828253 -1.812533497810 0.082927152514 0.065765 -0.505127 0.860536
0.394757837057 -1.777290582657 0.097538940609 0.065765 -0.505127 0.860536
0.289255201817 -1.710716843605 0.138807490468 0.061112 -0.425067 0.903097
0.380601137877 -1.723910450935 0.126322954893 0.061112 -0.425067 0.903097
0.369674891233 -1.703903436661 0.136506766081 0.061112 -0.425067 0.903097
0.367993474007 -1.618157029152 0.176781103015 0.069382 -0.420376 0.904693
0.374361276627 -1.594030976295 0.187514632940 0.069382 -0.420376 0.904693
0.078438840806 -1.884956598282 0.047147691250 0.020459 -0.522389 0.852462
0.015896415338 -1.773869395256 0.116712883115 0.020459 -0.522389 0.852462
0.153579160571 -1.905668020248 0.032719910145 0.020459 -0.522389 0.852462
-0.002060166094 -1.863584518433 0.062010191381 -0.020459 -0.522389 0.852462
-0.096123501658 -1.845145821571 0.071157887578 -0.020459 -0.522389 0.852462
-0.145906180143 -1.920542120934 0.023775011301 -0.020459 -0.522389 0.852462
0.515671133995 -1.956241726875 -0.035286173224 0.120240 -0.657607 0.743704
0.015595354140 -1.959629297256 0.000035415564 0.023876 -0.681172 0.731734
0.307827681303 -2.033406734467 -0.114622488618 0.065287 -0.873730 0.482010
-0.546740472317 -1.840220928192 0.051466979086 -0.365476 -0.621145 0.693257
-0.670553743839 -1.714125752449 0.103049367666 -0.092918 -0.425757 0.900054
0.763705432415 -1.345108270645 0.236301153898 0.602592 -0.253309 0.756781
0.770349264145 -1.419822216034 0.201672241092 0.726913 -0.244407 0.641765
0.784792006016 -1.495345950127 0.157528892159 0.725070 -0.237496 0.646429
0.794903993607 -1.563031077385 0.118819572031 0.814392 -0.206272 0.542419
0.822247803211 -1.453449606895 0.077340573072 0.946096 -0.099241 0.308308
0.820902049541 -1.589972019196 0.037740118802 0.946096 -0.099241 0.308308
0.807105064392 -1.267371416092 0.146044597030 0.942644 -0.013844 0.333512
0.805369675159 -1.327515840530 0.148435771465 0.942644 -0.013844 0.333512
0.816953241825 -1.135876297951 0.119084134698 0.952057 -0.008666 0.305797
0.827989041805 -1.179172992706 0.085898734629 0.949905 0.003706 0.312517
0.819219529629 -1.171751260757 0.112470135093 0.949905 0.003706 0.312517
0.732611298561 -1.945638298988 -0.116098694503 0.683195 -0.721727 0.111149
0.715087532997 -1.963048934937 -0.130985245109 0.599283 -0.783446 0.164539
0.477945089340 -2.034368276596 -0.168517947197 0.137068 -0.951489 0.275466
0.444569468498 -2.034012079239 -0.151774168015 0.108830 -0.953249 0.281910
0.362795263529 -2.038431644440 -0.135687917471 0.106159 -0.952810 0.284401
0.281274378300 -2.054453611374 -0.163815692067 0.070911 -0.952786 0.295248
0.028158482164 -2.057573556900 -0.142954662442 0.052181 -0.913831 0.402728
-0.015686368570 -2.070953130722 -0.171704515815 -0.052181 -0.913831 0.402728
-0.194036349654 -2.055649757385 -0.155115932226 -0.025908 -0.961061 0.275118
-0.512079000473 -2.025844573975 -0.156175643206 -0.140284 -0.949921 0.279231
-0.816378355026 -1.651413321495 0.032202653587 -0.943423 -0.096863 0.317128
-0.821448504925 -1.502877593040 0.064082778990 -0.946096 -0.099241 0.308308
-0.800856947899 -1.524490833282 0.120152771473 -0.946096 -0.099241 0.308308
-0.809516310692 -1.414710640907 0.128816977143 -0.946096 -0.099241 0.308308
-0.789916157722 -1.417349576950 0.180530175567 -0.725070 -0.237496 0.646429
-0.792485892773 -1.317932248116 0.192610532045 -0.968894 -0.025465 0.246164
-0.838804006577 -1.137119650841 0.052791811526 -0.949905 0.003706 0.312517
-0.846324861050 -1.138527631760 0.029958982021 -0.949905 0.003706 0.312517
-0.855290174484 -1.159023165703 -0.038339480758 -0.992692 0.023240 0.118415
-0.856004655361 -1.076034069061 -0.104420259595 -0.999305 0.031773 -0.019474
-0.848278224468 -0.979275465012 -0.167682841420 -0.996506 0.064256 -0.053365
-0.806682050228 -0.826321184635 -0.442264974117 -0.979858 0.003462 -0.199665
-0.806512415409 -0.936043143272 -0.511939823627 -0.982060 -0.098085 -0.161053
-0.806139230728 -0.809436261654 -0.556926906109 -0.999885 0.014894 0.002979
-0.804928660393 -0.473672807217 -0.513761222363 -0.999513 -0.001007 0.031203
-0.806572914124 -0.371157765388 -0.564385950565 -0.999513 -0.001007 0.031203
-0.805964529514 -0.726226091385 -0.555530011654 -0.999513 -0.001007 0.031203
-0.805964946747 -0.250054389238 -0.540716648102 -0.999513 -0.001007 0.031203
-0.806129693985 -0.280131906271 -0.547043740749 -0.999513 -0.001007 0.031203
-0.801194965839 -0.065035641193 -0.470431357622 -0.991102 0.001100 0.133100
-0.807274103165 0.110634990036 -0.540507614613 -0.999984 -0.004916 0.002950
-0.806766331196 -0.008990943432 -0.531202733517 -0.999984 -0.004916 0.002950
-0.807252705097 0.119268707931 -0.521536827087 -0.999984 -0.004916 0.002950
-0.807129681110 0.073375672102 -0.542266786098 -0.999984 -0.004916 0.002950
-0.810142815113 0.398337185383 -0.470497548580 -0.999936 -0.010901 0.002973
-0.807564496994 0.157822743058 -0.517086148262 -0.999936 -0.010901 0.002973
-0.813865125179 0.729740202427 -0.457107722759 -0.999936 -0.010901 0.002973
-0.809488952160 0.337232172489 -0.482688307762 -0.999936 -0.010901 0.002973
-0.815172851086 1.008601546288 -0.463743269444 -0.999826 0.015043 -0.011031
-0.802047073841 0.631055235863 -0.587504208088 -0.823366 -0.001361 -0.567510
-0.793366670609 0.223677039146 -0.598454356194 -0.817758 -0.001361 -0.575560
-0.805730581284 -0.549065947533 -0.578406691551 -0.817758 -0.001361 -0.575560
-0.802786767483 -0.091970741749 -0.584025919437 -0.817758 -0.001361 -0.575560
-0.795748829842 -0.320108175278 -0.594007253647 -0.872392 0.001332 -0.488806
-0.793127596378 -0.379216253757 -0.598863303661 -0.872392 0.001332 -0.488806
-0.808529019356 0.291758984327 -0.575608551502 -0.999545 -0.007075 -0.029309
-0.809895634651 0.392342209816 -0.549882113934 -0.999545 -0.007075 -0.029309
-0.810859143734 0.514289796352 -0.542610645294 -0.999545 -0.007075 -0.029309
-0.808882236481 0.284864634275 -0.561954796314 -0.999545 -0.007075 -0.029309
-0.811876714230 0.806579113007 -0.569744348526 -0.999545 -0.007075 -0.029309
-0.814021885395 0.904638111591 -0.516622841358 -0.999545 -0.007075 -0.029309
0.795599162579 0.919964790344 -0.597929358482 0.823366 -0.001361 -0.567510
0.790747761726 0.217965275049 -0.602135658264 0.823366 -0.001361 -0.567510
0.798401653767 0.400705218315 -0.591833829880 0.817758 -0.001361 -0.575560
0.809934616089 0.371074497700 -0.542600393295 0.999545 -0.007075 -0.029309
0.809214115143 0.338934898376 -0.560609996319 0.999545 -0.007075 -0.029309
0.812145471573 0.688403725624 -0.533900797367 0.999545 -0.007075 -0.029309
0.813033461571 0.722211539745 -0.510465741158 0.999545 -0.007075 -0.029309
0.811846077442 0.539499640465 -0.512522876263 0.999545 -0.007075 -0.029309
0.813038885593 0.940347909927 -0.556729197502 0.999545 -0.007075 -0.029309
0.813661217690 1.086998939514 -0.483361631632 0.999826 0.015043 -0.011031
0.827732145786 1.108862161636 -0.404320806265 0.978773 -0.046608 -0.199579
-0.836934924126 1.121190905571 -0.354842782021 -0.988312 -0.049589 -0.144153
-0.836408138275 1.109903812408 -0.354628801346 -0.988476 -0.047180 -0.143841
-0.855279445648 1.245528101921 -0.116803847253 -0.914033 -0.256393 0.314335
0.865358471870 1.271546721458 -0.170359522104 0.995752 -0.071360 -0.058186
0.850510597229 1.216058373451 -0.089812122285 0.997384 -0.003140 -0.072214
0.852756202221 1.237750530243 0.059268828481 0.998581 -0.050916 0.015587
0.843139946461 1.139800667763 -0.168673843145 0.980191 -0.197890 0.008101
0.847744047642 1.161359429359 -0.094655998051 0.989919 0.007795 -0.141417
0.838024437428 0.998411118984 -0.171238526702 0.989919 0.007795 -0.141417
0.827241122723 0.635445773602 -0.266337662935 0.989919 0.007795 -0.141417
0.836258351803 0.588290750980 -0.206322968006 0.989919 0.007795 -0.141417
0.845770537853 0.643495202065 -0.137175098062 0.989919 0.007795 -0.141417
0.810430765152 0.885944128036 -0.369174897671 0.989919 0.007795 -0.141417
0.843946874142 0.966987133026 -0.131846487522 0.989919 0.007795 -0.141417
0.838224112988 0.996563017368 -0.169954478741 0.989919 0.007795 -0.141417
0.832232832909 0.641371786594 -0.231333002448 0.989919 0.007795 -0.141417
0.845552146435 0.973960459232 -0.120307683945 0.989919 0.007795 -0.141417
0.836127698421 0.981703281403 -0.185343638062 0.989919 0.007795 -0.141417
0.806903898716 0.900871634483 -0.392844170332 0.989919 0.007795 -0.141417
0.838767826557 1.003012776375 -0.165818691254 0.989919 0.007795 -0.141417
0.842579007149 0.572826743126 -0.163276672363 0.989919 0.007795 -0.141417
0.818462967873 0.907552778721 -0.312177300453 0.989919 0.007795 -0.141417
0.843012928963 0.301317274570 -0.175366774201 0.989919 0.007795 -0.141417
0.831797301769 0.918555498123 -0.218937903643 0.989919 0.007795 -0.141417
0.845379292965 0.674474060535 -0.138169184327 0.989919 0.007795 -0.141417
0.837304651737 0.812118113041 -0.186602741480 0.989919 0.007795 -0.141417
0.853744745255 0.368943989277 -0.012373377569 0.999857 0.000993 -0.016879
0.853623986244 0.124044865370 -0.026168454438 0.999857 0.000993 -0.016879
0.852609813213 0.637387037277 -0.075247600675 0.999857 0.000993 -0.016879
0.852429926395 0.410545051098 -0.092211045325 0.999857 0.000993 -0.016879
0.853291392326 0.730762124062 -0.030869383365 0.999857 0.000993 -0.016879
0.852849781513 0.934988975525 -0.052743352950 0.999857 0.000993 -0.016879
0.852632761002 0.899378418922 -0.067025244236 0.999857 0.000993 -0.016879
0.852565705776 0.794906079769 -0.073865316808 0.999857 0.000993 -0.016879
0.830861568451 0.353553026915 -0.259958148003 0.991164 0.012209 -0.132081
0.823610424995 0.355069518089 -0.313965678215 0.991164 0.012209 -0.132081
0.812829792500 0.690669775009 -0.364641547203 0.991164 0.012209 -0.132081
0.830214142799 0.332265108824 -0.266683846712 0.991164 0.012209 -0.132081
0.838211178780 0.149681031704 -0.223195791245 0.991164 0.012209 -0.132081
0.820953190327 0.508621573448 -0.320162385702 0.991164 0.012209 -0.132081
0.817465305328 0.476393908262 -0.349063903093 0.991164 0.012209 -0.132081
0.810239076614 0.668725848198 -0.385932922363 0.991164 0.012209 -0.132081
0.820548653603 0.301214307547 -0.341579675674 0.991164 0.012209 -0.132081
0.839340627193 0.470832556486 0.097447887063 0.917471 0.035541 -0.396211
0.839806675911 0.460194736719 0.093236804008 0.964588 -0.015773 0.263290
0.839178621769 0.573604464531 0.101904258132 0.964588 -0.015773 0.263290
0.853192508221 0.733814895153 0.148356452584 0.882997 0.036622 -0.467948
0.843062937260 0.722136974335 0.128224864602 0.882997 0.036622 -0.467948
0.818666338921 0.967748284340 0.178363308311 0.998948 0.036307 0.028008
0.826858937740 0.557191312313 0.221026390791 0.944274 -0.024082 0.328278
0.817193806171 0.696519494057 0.258954226971 0.944274 -0.024082 0.328278
0.828351438046 0.812186241150 0.235281974077 0.944274 -0.024082 0.328278
0.832854211330 0.758024871349 0.218394279480 0.944274 -0.024082 0.328278
0.838875114918 0.976529419422 0.202178105712 0.281853 0.078507 -0.956240
0.829281508923 1.060177087784 0.203632920980 0.390096 -0.222281 -0.893541
0.819323778152 0.979558050632 0.155801624060 0.999569 -0.003020 0.029192
0.820697903633 1.134154796600 0.280707865953 0.943818 -0.021479 0.329768
0.691661894321 0.231301665306 0.599635124207 0.896099 0.107981 0.430520
0.609519600868 0.169081270695 0.752179026604 0.826617 -0.046156 0.560869
0.748934626579 -0.580283820629 0.402931869030 0.942721 -0.045014 0.330531
0.827256619930 -1.039926528931 0.089996345341 0.952034 -0.011142 0.305790
0.831378042698 -0.912206947803 0.089925564826 0.946947 -0.021379 0.320679
0.876206874847 -1.277180194855 -0.073482401669 0.861772 0.122698 0.492235
0.855164229870 -1.426133036613 -0.037854183465 0.974465 -0.054745 0.217764
0.844948709011 -1.540700554848 -0.028750956059 0.964570 -0.109172 0.240179
0.833043158054 -1.606197595596 -0.007544671185 0.968566 -0.102554 0.226632
0.874284863472 -1.529520988464 -0.141690298915 0.997410 -0.069043 -0.020182
0.853340208530 -1.676202654839 -0.242204338312 0.988494 -0.106959 -0.106959
0.815598130226 -1.735095143318 -0.438329637051 0.982448 -0.063268 -0.175480
0.826624870300 -1.764416337013 -0.366636723280 0.981527 -0.063363 -0.180525
-0.842297852039 -1.686924576759 -0.310250222683 -0.980497 -0.078585 -0.180141
0.836591184139 -1.742883801460 -0.318636059761 0.984269 -0.109631 -0.138545
0.804003715515 -1.884126663208 -0.353736191988 0.951209 -0.298951 -0.076356
-0.779864370823 -1.933346152306 -0.347025156021 -0.768443 -0.635304 0.076700
-0.729367017746 -1.991910457611 -0.416330695152 -0.750156 -0.661084 0.015309
-0.771219611168 -1.943143367767 -0.394575625658 -0.778406 -0.626932 -0.032258
-0.809695899487 -1.863250255585 -0.364856481552 -0.951209 -0.298951 -0.076356
-0.830784201622 -1.796413540840 -0.309044897556 -0.983030 -0.153561 -0.100359
-0.804401636124 -1.751803040504 -0.486859917641 -0.966767 -0.130018 -0.220129
-0.784370183945 -1.821130156517 -0.560617804527 -0.980479 -0.141474 -0.136553
-0.778262615204 -1.843191146851 -0.581530749798 -0.980479 -0.141474 -0.136553
-0.768311440945 -1.867656946182 -0.583085596561 -0.721581 -0.618267 -0.311555
-0.684073150158 -1.937440752983 -0.599311888218 -0.525528 -0.606638 -0.596499
0.794855773449 -1.769767284393 -0.535628318787 0.982132 -0.137864 -0.128104
0.773647725582 -1.850970625877 -0.603744804859 0.721581 -0.618267 -0.311555
0.759648263454 -1.920413136482 -0.503935754299 0.736819 -0.553025 -0.388922
0.802025258541 -1.781807780266 -0.479517549276 0.966767 -0.130018 -0.220129
0.727992892265 -1.993116378784 -0.403448581696 0.750156 -0.661084 0.015309
0.762319862843 -1.953878283501 -0.362644255161 0.761780 -0.647583 -0.018104
-0.634393155575 -1.992869973183 -0.461378455162 -0.848074 -0.199635 0.490832
-0.606273889542 -1.984338879585 -0.556979298592 -0.111450 -0.838048 -0.534093
-0.631042778492 -2.005610704422 -0.519684553146 -0.165036 -0.767644 -0.619263
-0.469826161861 -2.018582820892 -0.557161748409 0.330240 -0.512112 0.792895
-0.226571589708 -2.060101985931 -0.370226383209 0.008884 -0.002961 -0.999956
-0.180406957865 -2.099046230316 -0.370034903288 0.002938 -0.000979 -0.999995
0.126389950514 -2.104328393936 -0.365175396204 0.020329 -0.972219 -0.233189
-0.106494180858 -2.064435958862 -0.369895428419 0.002938 -0.000979 -0.999995
0.439802408218 -2.031944513321 -0.416892170906 0.128066 -0.963731 -0.234141
0.430991828442 -2.006907463074 -0.492634654045 0.056307 -0.880306 -0.471053
0.269940078259 -1.995254755020 -0.568926870823 -0.028444 -0.480840 0.876347
0.120070159435 -2.000388860703 -0.576730489731 -0.033674 -0.459309 0.887638
0.010272067972 -1.978598952293 -0.569502055645 -0.033674 -0.459309 0.887638
-0.298246264458 -1.978985548019 -0.559174776077 0.033674 -0.459309 0.887638
-0.416560828686 -2.011527061462 -0.571604311466 -0.097739 -0.602482 -0.792125
-0.451554775238 -1.995760321617 -0.595632433891 -0.225063 -0.947994 0.225063
-0.189641162753 -2.016176223755 -0.603645205498 -0.033066 -0.988571 -0.147088
0.169928297400 -2.016139507294 -0.591563522816 0.003097 -0.998382 0.056785
0.626864194870 -1.969999909401 -0.592005014420 0.083978 -0.995736 0.038172
0.561377167702 -1.975172042847 -0.580655694008 0.111450 -0.838048 -0.534093
0.657135069370 -1.965438365936 -0.570804119110 0.234684 -0.784871 -0.573499
0.732550501823 -1.905428528786 -0.589034080505 0.525528 -0.606638 -0.596499
0.664216697216 -2.034716129303 -0.385763138533 0.429840 -0.899505 -0.078278
0.597511470318 -2.055762290955 -0.379931747913 0.222262 -0.970668 -0.091667
0.566591858864 -2.062368869781 -0.362202227116 0.197293 -0.971192 -0.133650
0.332751184702 -2.095179319382 -0.369159042835 0.093980 -0.971124 -0.219286
0.265897572041 -2.102172136307 -0.355529457331 0.060210 -0.971956 -0.227322
-0.624702870846 -2.046777725220 -0.406958222389 -0.225639 -0.969364 -0.097062
-0.496480971575 -2.048208475113 -0.377743840218 0.126331 0.005493 -0.991973
0.076156541705 -2.107919692993 -0.346623569727 0.027013 -0.980672 0.193785
0.179141998291 -2.105809926987 -0.348238140345 0.021362 -0.948718 0.315402
0.516192138195 -2.063462257385 -0.380339950323 -0.126331 0.005493 -0.991973
0.511305570602 -2.044716596603 -0.380203604698 -0.173110 -0.068050 -0.982549
0.579582989216 -2.046115398407 -0.440726995468 -0.874759 -0.357510 -0.327084
0.503683865070 -1.982097268105 -0.583245098591 0.097739 -0.602482 -0.792125
0.576026260853 -2.011074066162 -0.527563750744 0.165036 -0.767644 -0.619263
-0.716488003731 -1.956839919090 -0.533731400967 -0.736819 -0.553025 -0.388922
0.877065777779 -1.351689696312 -0.082449249923 0.999884 -0.014924 -0.002985
0.876386463642 -1.406156182289 -0.114399120212 0.999995 0.002938 0.000979
-0.803913295269 -1.850658178329 -0.181725770235 -0.929088 -0.369856 0.001271
-0.822592973709 -1.698570966721 -0.004517083988 -0.968566 -0.102554 0.226632
-0.852971553802 -1.440792560577 -0.031513694674 -0.974465 -0.054745 0.217764
-0.871705710888 -1.448770761490 -0.076670639217 -0.868688 -0.113058 0.482286
-0.863947033882 -1.064587831497 -0.150733977556 -0.880159 0.275332 0.386668
-0.856904804707 -1.013269305229 -0.217655494809 -0.907790 0.365136 0.206381
-0.858757138252 -1.190762996674 -0.061178773642 -0.992692 0.023240 0.118415
-0.855078279972 -1.292423486710 -0.018203591928 -0.988746 0.010101 0.149266
-0.855711996555 -1.334464430809 -0.024050239474 -0.992721 -0.012093 0.119830
-0.862509608269 -1.528275012970 -0.081411868334 -0.857536 -0.280732 0.431069
-0.825045645237 -1.767285108566 -0.120157971978 -0.975627 -0.216673 0.034716
-0.806597292423 -1.828042507172 -0.072911664844 -0.949270 -0.309573 0.055235
-0.876420736313 -1.403808116913 -0.112887755036 -0.999995 0.002938 0.000979
-0.878569960594 -1.229271769524 -0.109910458326 -0.999884 -0.002985 -0.014924
-0.865852892399 -1.049502849579 -0.226106092334 -0.992275 0.087721 -0.087721
-0.848081350327 -0.981749475002 -0.309936732054 -0.982214 0.093026 -0.163098
0.833767771721 -0.945218145847 -0.370408117771 0.976143 0.067194 -0.206468
0.834191083908 -0.968164563179 -0.376678913832 0.974348 0.077800 -0.211170
0.845363557339 -0.987349390984 -0.329283028841 0.982214 0.093026 -0.163098
0.859271407127 -1.038331866264 -0.270848333836 0.989221 0.065948 -0.130739
0.873048365116 -1.087643504143 -0.178971022367 0.997347 0.039637 -0.061062
0.877756655216 -1.157850980759 -0.124490201473 0.998829 0.046481 -0.013428
0.806024968624 -0.810899019241 -0.514843821526 0.999885 0.014894 0.002979
0.806271255016 -0.827981472015 -0.507707417011 0.999885 0.014894 0.002979
0.790192961693 -0.724771797657 -0.605097889900 0.872392 0.001332 -0.488806
0.789612472057 -0.026204809546 -0.603955864906 0.872392 0.001332 -0.488806
0.804567933083 -0.505801200867 -0.580139100552 0.817758 -0.001361 -0.575560
0.805198371410 -0.215557336807 -0.580147862434 0.817758 -0.001361 -0.575560
0.805576324463 -0.774095654488 -0.545651733875 0.999513 -0.001007 0.031203
0.805693626404 -0.747271597385 -0.548655986786 0.999513 -0.001007 0.031203
0.805633723736 -0.616153895855 -0.542610824108 0.999513 -0.001007 0.031203
0.805342495441 -0.362380474806 -0.525175452232 0.999513 -0.001007 0.031203
0.806403994560 -0.057295769453 -0.488066375256 0.999984 -0.004916 0.002950
0.806929171085 0.076716117561 -0.483703076839 0.999984 -0.004916 0.002950
0.804711580276 -0.482595860958 -0.493215382099 0.999984 -0.004916 0.002950
0.805219292641 -0.367729753256 -0.508953690529 0.999984 -0.004916 0.002950
0.810046076775 0.390966445208 -0.478845924139 0.999936 -0.010901 0.002973
0.808331072330 0.224354445934 -0.532426476479 0.999936 -0.010901 0.002973
0.807383775711 0.143616110086 -0.523559868336 0.999936 -0.010901 0.002973
0.809869527817 0.367601543665 -0.505514144897 0.999936 -0.010901 0.002973
0.807264626026 0.740442812443 -0.450741559267 0.577581 -0.040557 0.815326
-0.853557527065 1.164634346962 -0.244189411402 -0.993250 -0.054993 -0.102131
0.844323873520 1.154410123825 -0.157062247396 0.996866 -0.022437 -0.075860
0.848155975342 1.202385783195 -0.120967008173 0.996866 -0.022437 -0.075860
0.810863316059 0.980567753315 -0.390683919191 0.989351 -0.075567 -0.124395
0.827006936073 -0.862426578999 -0.328654170036 0.989949 0.060938 -0.127624
0.849182009697 -0.899593412876 -0.155658379197 0.993853 -0.020865 -0.108720
0.824715733528 -0.843194067478 -0.341577976942 0.991102 0.001100 -0.133100
0.850300908089 -0.124093055725 -0.139553084970 0.991102 0.001100 -0.133100
0.848772764206 -0.855785906315 -0.161626100540 0.991102 0.001100 -0.133100
0.831269323826 -0.513137638569 -0.287710607052 0.991102 0.001100 -0.133100
0.831965506077 -0.628212273121 -0.284169822931 0.991102 0.001100 -0.133100
0.847792267799 -0.701234102249 -0.166722446680 0.991102 0.001100 -0.133100
0.845975458622 -0.237847357988 -0.173594161868 0.991102 0.001100 -0.133100
0.850018203259 0.034733217210 -0.139362514019 0.991102 0.001100 -0.133100
0.842628836632 -0.817636430264 -0.207076579332 0.991102 0.001100 -0.133100
0.845852375031 -0.408476293087 -0.176994562149 0.991102 0.001100 -0.133100
0.835515916348 -0.732932806015 -0.259106099606 0.991102 0.001100 -0.133100
0.812337219715 -0.733191072941 -0.406768172979 0.981833 0.017388 -0.188948
0.807302594185 -0.782443344593 -0.437486976385 0.981833 0.017388 -0.188948
0.821054697037 -0.736406743526 -0.361623317003 0.981833 0.017388 -0.188948
0.837607264519 -0.251823633909 -0.231297284365 0.981833 0.017388 -0.188948
0.838021278381 -0.216595485806 -0.225937038660 0.981833 0.017388 -0.188948
0.805938124657 -0.245341584086 -0.434219032526 0.980840 0.003458 -0.194785
0.805527269840 -0.236943230033 -0.436122506857 0.980840 0.003458 -0.194785
0.809773683548 0.008881218731 -0.410182207823 0.980840 0.003458 -0.194785
0.814035177231 0.072189271450 -0.387604981661 0.980840 0.003458 -0.194785
0.800447762012 0.001801624894 -0.457113802433 0.980840 0.003458 -0.194785
0.812352895737 0.125847801566 -0.395035952330 0.980840 0.003458 -0.194785
0.804170131683 0.777830600739 -0.420971393585 0.980840 0.003458 -0.194785
0.814955115318 0.190643519163 -0.380581200123 0.980840 0.003458 -0.194785
0.804398119450 0.405516117811 -0.428541630507 0.980840 0.003458 -0.194785
0.799374103546 0.447838872671 -0.452768683434 0.980840 0.003458 -0.194785
0.814961194992 -0.175060614944 -0.387132763863 0.991048 -0.005512 -0.133389
0.816519021988 -0.265421688557 -0.372374624014 0.991048 -0.005512 -0.133389
0.835780024529 -0.066963419318 -0.237009122968 0.991048 -0.005512 -0.133389
0.840533912182 -0.042160648853 -0.202733829618 0.991048 -0.005512 -0.133389
0.810771584511 -0.513472497463 -0.406007558107 0.991048 -0.005512 -0.133389
0.811545193195 -0.582942903042 -0.397798895836 0.991048 -0.005512 -0.133389
0.826295316219 -0.324648827314 -0.297941207886 0.991048 -0.005512 -0.133389
0.819248557091 -0.287257581949 -0.351403176785 0.991048 -0.005512 -0.133389
0.829285264015 -0.178522482514 -0.281056344509 0.991048 -0.005512 -0.133389
0.829272150993 -0.093255601823 -0.284205675125 0.991048 -0.005512 -0.133389
0.833062827587 -0.140245884657 -0.254484474659 0.991048 -0.005512 -0.133389
0.853568792343 -0.694506943226 -0.087654009461 0.999298 0.001012 -0.037461
0.852232396603 -0.412663698196 -0.122331768274 0.999298 0.001012 -0.037461
0.853867471218 -0.814955532551 -0.080366566777 0.999298 0.001012 -0.037461
0.853464543819 -0.445753633976 -0.086134955287 0.999856 0.000995 -0.016913
0.852603733540 -0.078282497823 -0.106251068413 0.999856 0.000995 -0.016913
0.853672325611 -0.331168144941 -0.063316620886 0.999856 0.000995 -0.016913
0.853762984276 -0.186899095774 -0.045028924942 0.999856 0.000995 -0.016913
0.853680551052 -0.546292781830 -0.081822335720 0.999856 0.000995 -0.016913
0.853768944740 -0.263683170080 -0.051448687911 0.999856 0.000995 -0.016913
0.854262709618 0.037343323231 0.005311459303 0.999857 0.000993 -0.016879
