-0.853366553783 1.603977680206 -0.764843285084 -0.999999 0.000978 0.000978
-0.812574028969 1.632432818413 -0.768183827400 0.001369 0.609379 -0.792878
-0.687389433384 1.617381572723 -0.779647171497 0.001369 0.609379 -0.792878
-0.633382380009 1.678012013435 -0.484212368727 -0.001096 -0.991465 -0.130369
-0.675950646400 1.673773765564 -0.568122148514 -0.001096 -0.991465 0.130369
-0.795761048794 1.664890766144 -0.597102284431 -0.001278 -0.924094 0.382163
-0.703599631786 1.641711711884 -0.648304343224 -0.001369 -0.792878 0.609379
-0.819729745388 1.608475327492 -0.691753804684 -0.001369 -0.792878 0.609379
-0.785442948341 1.602412104607 -0.698976099491 -0.001369 -0.609379 0.792878
-0.784220159054 1.559096336365 -0.732212662697 -0.001369 -0.609379 0.792878
-0.689468979836 1.531177043915 -0.747483313084 -0.001278 -0.382163 0.924094
-0.655788242817 1.209909915924 -0.777000546455 -0.001369 -0.609379 -0.792878
-0.798414230347 1.226894617081 -0.789935529232 -0.001369 -0.609379 -0.792878
-0.851638495922 1.240506768227 -0.790398001671 -0.792474 -0.371322 -0.483843
-0.853669703007 1.264387845993 -0.767872750759 -0.999999 0.000978 -0.000978
-0.853457689285 1.501883506775 -0.793715238571 -0.999999 0.000978 0.000978
-0.810216963291 1.507532835007 -0.836516857147 0.001278 0.382163 -0.924094
-0.780024528503 1.577074408531 -0.807700693607 0.001278 0.382163 -0.924094
-0.608912765980 1.502689361572 -0.807915508747 0.999999 -0.000978 -0.000978
-0.608905017376 1.511381268501 -0.769342362881 0.999999 -0.000978 -0.000978
-0.750235855579 1.301470518112 -0.827432572842 -0.001278 -0.382163 -0.924094
-0.839296162128 1.268140196800 -0.813593745232 -0.001278 -0.382163 -0.924094
-0.842884361744 1.447223901749 -0.845612466335 0.001096 0.130369 -0.991465
-0.687413394451 1.485728979111 -0.840524852276 0.001096 0.130369 -0.991465
-0.611643612385 1.488683819771 -0.833039581776 0.792424 0.079387 -0.604783
-0.807743847370 1.402641415596 -0.848094046116 -0.001096 -0.130369 -0.991465
-0.766759455204 1.372776150703 -0.844167053699 -0.001096 -0.130369 -0.991465
-0.803957819939 1.231562972069 -0.226339727640 -0.001369 -0.609379 0.792878
-0.682643353939 1.224290490150 -0.231837064028 -0.001369 -0.609379 0.792878
-0.766524970531 1.162695765495 -0.285825699568 -0.001369 -0.792878 0.609379
-0.825233042240 1.160603404045 -0.288620948792 -0.001369 -0.792878 0.609379
-0.852231502533 1.115210056305 -0.376721113920 -0.792566 -0.563017 0.234203
-0.846010982990 1.078049898148 -0.494884967804 -0.792424 -0.604783 0.079387
-0.732420444489 1.080155253410 -0.475064903498 -0.001096 -0.991465 0.130369
-0.662962198257 1.085847258568 -0.431358605623 -0.001096 -0.991465 0.130369
-0.717752456665 1.098425745964 -0.394701302052 -0.001278 -0.924094 0.382163
-0.619548857212 1.098991990089 -0.393122494221 -0.001278 -0.924094 0.382163
-0.643687307835 1.316560029984 -0.186131373048 -0.001278 -0.382163 0.924094
-0.679475367069 1.320236444473 -0.184621751308 -0.001278 -0.382163 0.924094
-0.686035096645 1.498880267143 -0.258993804455 -0.001278 -0.382163 -0.924094
-0.653889954090 1.533044219017 -0.273156851530 -0.001278 -0.382163 -0.924094
-0.681527256966 1.567642211914 -0.294268727303 -0.001369 -0.609379 -0.792878
-0.807828068733 1.290067076683 -0.276360988617 -0.001278 -0.382163 0.924094
-0.837524592876 1.290205121040 -0.276314795017 -0.001278 -0.382163 0.924094
-0.657129585743 1.368372440338 -0.250051587820 -0.001096 -0.130369 0.991465
-0.826673150063 1.376722335815 -0.248972237110 -0.001096 -0.130369 0.991465
-0.712569892406 1.434014439583 -0.246315613389 0.001096 0.130369 0.991465
-0.788656890392 1.498616576195 -0.258846580982 0.001278 0.382163 0.924094
-0.795902490616 1.539576292038 -0.275810003281 0.001278 0.382163 0.924094
-0.814483940601 1.601567625999 -0.320209681988 0.001369 0.609379 0.792878
-0.769267022610 1.608067035675 -0.327626407146 0.001369 0.792878 0.609379
-0.643663167953 1.621991515160 -0.345919221640 0.001369 0.792878 0.609379
-0.653483986855 1.256791114807 -0.299103140831 -0.001369 -0.609379 0.792878
-0.730491280556 1.670076370239 -0.435411244631 0.001278 0.924094 0.382163
-0.663273513317 1.622859716415 -0.375654041767 -0.001369 -0.792878 -0.609379
-0.762053966522 1.610383987427 -0.359280556440 -0.001369 -0.792878 -0.609379
-0.808902740479 1.674922585487 -0.459555387497 0.001096 0.991465 0.130369
-0.662005662918 1.676867842674 -0.475327223539 0.001096 0.991465 0.130369
-0.623461246490 1.643473505974 -0.416954785585 -0.001278 -0.924094 -0.382163
-0.761924982071 1.653729557991 -0.441416561604 -0.001278 -0.924094 -0.382163
-0.703576087952 1.357399702072 -0.277545422316 0.001096 0.130369 -0.991465
-0.647201299667 1.397691369057 -0.272234350443 0.001096 0.130369 -0.991465
-0.772800207138 1.430377125740 -0.271873503923 -0.001096 -0.130369 -0.991465
-0.777909576893 1.532362222672 -0.300776958466 -0.001278 -0.382163 -0.924094
-0.635273516178 1.607424020767 -0.369359880686 -0.001369 -0.792878 -0.609379
-0.757016837597 1.627844810486 -0.400871872902 -0.001278 -0.924094 -0.382163
-0.739158332348 1.634668469429 -0.417383998632 -0.001278 -0.924094 -0.382163
-0.841459393501 1.680108547211 -0.521127939224 0.001096 0.991465 -0.130369
-0.620922565460 1.658410191536 -0.468915671110 -0.001096 -0.991465 -0.130369
-0.721874892712 1.661433577538 -0.528657019138 -0.001096 -0.991465 0.130369
-0.753928363323 1.668148398399 -0.589147329330 0.001278 0.924094 -0.382163
-0.707532584667 1.650971651077 -0.630515635014 0.001278 0.924094 -0.382163
-0.633446037769 1.500226855278 -0.286060273647 -0.999999 0.000978 -0.000978
-0.696426272392 1.306885242462 -0.297301977873 0.001278 0.382163 -0.924094
-0.776632368565 1.280870676041 -0.313257336617 0.001369 0.609379 -0.792878
-0.777854561806 1.244151115417 -0.342289656401 0.001369 0.792878 -0.609379
-0.654400169849 1.219286441803 -0.374550223351 0.001369 0.792878 -0.609379
-0.700834214687 1.288914799690 -0.296451956034 0.001369 0.609379 -0.792878
-0.778825521469 1.187461733818 -0.416613370180 0.001278 0.924094 -0.382163
-0.746238589287 1.175673604012 -0.445001840591 0.001278 0.924094 -0.382163
-0.636221289635 1.184067010880 -0.378963679075 -0.001278 -0.924094 0.382163
-0.756862640381 1.162369847298 -0.431604802608 -0.001278 -0.924094 0.382163
-0.819767355919 1.506616830826 -0.281011313200 -0.001278 -0.382163 -0.924094
-0.679291069508 1.561401844025 -0.311447560787 -0.001369 -0.609379 -0.792878
-0.757300376892 1.526936292648 -0.289450973272 -0.001278 -0.382163 -0.924094
-0.655003964901 1.425011038780 -0.262713998556 -0.001096 -0.130369 -0.991465
-0.641425430775 1.360275983810 -0.268692642450 0.001096 0.130369 -0.991465
-0.702870011330 1.336328744888 -0.276022434235 0.001278 0.382163 -0.924094
-0.748225808144 1.302258610725 -0.290151447058 0.001278 0.382163 -0.924094
-0.792028784752 1.302086710930 -0.299119770527 -0.999999 0.000978 -0.000978
-0.792104005814 1.217830419540 -0.364646971226 -0.999999 0.000978 0.000978
-0.717390477657 1.196142792702 -0.417458444834 0.001278 0.924094 -0.382163
-0.774982929230 1.176359057426 -0.502987980843 0.001096 0.991465 -0.130369
-0.830483257771 1.195748329163 -0.396719306707 0.001278 0.924094 -0.382163
-0.804774284363 1.209056735039 -0.374267458916 0.001369 0.792878 -0.609379
-0.712375760078 1.156989097595 -0.451869457960 -0.001096 -0.991465 0.130369
-0.637751877308 1.157258987427 -0.570539951324 -0.001096 -0.991465 -0.130369
-0.691071093082 1.155512213707 -0.556910276413 -0.001096 -0.991465 -0.130369
-0.734027683735 1.175153613091 -0.572298467159 0.001096 0.991465 0.130369
-0.767026424408 1.162222743034 -0.587871491909 -0.001278 -0.924094 -0.382163
-0.798230469227 1.168141126633 -0.602092504501 -0.001278 -0.924094 -0.382163
-0.657970488071 1.188626766205 -0.584378063679 0.001278 0.924094 0.382163
-0.690303206444 1.232089281082 -0.661946713924 0.001369 0.792878 0.609379
-0.725669026375 1.457597136497 -0.744391024113 -0.001096 -0.130369 0.991465
-0.692084252834 1.559324860573 -0.699427485466 -0.001369 -0.609379 0.792878
-0.784628689289 1.544409036636 -0.710936307907 -0.001369 -0.609379 0.792878
-0.749790906906 1.595447778702 -0.666234612465 -0.001369 -0.792878 0.609379
-0.698217630386 1.619393110275 -0.634968578815 -0.001369 -0.792878 0.609379
-0.653136193752 1.623393535614 -0.672118246555 0.001369 0.792878 -0.609379
-0.629457712173 1.617532849312 -0.651102244854 -0.001369 -0.792878 0.609379
-0.708757638931 1.592030167580 -0.684430241585 -0.001369 -0.792878 0.609379
-0.832846105099 1.552757024765 -0.715144515038 -0.001369 -0.609379 0.792878
-0.787965416908 1.548825025558 -0.740096628666 0.001369 0.609379 -0.792878
-0.639538466930 1.586516380310 -0.711073338985 0.001369 0.609379 -0.792878
-0.740564465523 1.568608641624 -0.702918052673 -0.001369 -0.609379 0.792878
-0.749356985092 1.501886367798 -0.740775704384 -0.001278 -0.382163 0.924094
-0.724713027477 1.504487633705 -0.739689111710 -0.001278 -0.382163 0.924094
-0.780040264130 1.433076620102 -0.756092488766 -0.001096 -0.130369 0.991465
-0.698277354240 1.353493332863 -0.750261366367 0.001096 0.130369 0.991465
-0.742877066135 1.345129370689 -0.747461795807 0.001278 0.382163 0.924094
-0.772392392159 1.284819006920 -0.720209777355 0.001369 0.609379 0.792878
-0.648797333241 1.244469285011 -0.689333140850 0.001369 0.609379 0.792878
-0.651687502861 1.212447285652 -0.650183141232 0.001369 0.792878 0.609379
-0.810912668705 1.254292845726 -0.696759819984 0.001369 0.609379 0.792878
-0.669733881950 1.506079792976 -0.757871687412 0.001278 0.382163 -0.924094
-0.630207002163 1.439687967300 -0.755204498768 -0.001096 -0.130369 0.991465
-0.625894427299 1.251876592636 -0.695032596588 0.001369 0.609379 0.792878
-0.668137550354 1.216223597527 -0.683711647987 -0.001369 -0.792878 -0.609379
-0.735944211483 1.244436979294 -0.711214363575 -0.001369 -0.609379 -0.792878
-0.740056514740 1.275755167007 -0.735242724419 -0.001369 -0.609379 -0.792878
-0.826469659805 1.397322058678 -0.773593366146 -0.001096 -0.130369 -0.991465
-0.624468266964 1.373304843903 -0.770455241203 -0.001096 -0.130369 -0.991465
-0.815143406391 1.462947726250 -0.769740939140 0.001096 0.130369 -0.991465
-0.617396354675 1.282992362976 -0.719491720200 0.999999 -0.000978 -0.000978
-0.821308135986 1.328143715858 -0.740397155285 0.001278 0.382163 0.924094
-0.837938129902 1.458891630173 -0.752700686455 -0.001096 -0.130369 0.991465
-0.737957537174 1.633622288704 -0.626928567886 -0.001278 -0.924094 0.382163
-0.699023842812 1.642480492592 -0.605459094048 -0.001278 -0.924094 0.382163
-0.687168598175 1.638445734978 -0.593238353729 -0.001278 -0.924094 0.382163
-0.708137691021 1.169897198677 -0.487305432558 0.001096 0.991465 -0.130369
-0.699831664562 1.175197005272 -0.446992546320 0.001096 0.991465 -0.130369
-0.824161291122 1.365627169609 -0.500453770161 0.001379 0.748548 -0.663079
-0.824457764626 1.441491127014 -0.563353717327 -0.001236 -0.948187 -0.317711
-0.839568138123 1.471206903458 -0.494479387999 -0.905535 0.318478 -0.280319
-0.765866875648 1.421308994293 -0.262239962816 0.001096 0.130369 0.991465
-0.730804443359 1.405510306358 -0.262747913599 -0.001096 -0.130369 0.991465
-0.742836773396 1.435963988304 -0.266745597124 0.228101 -0.127582 -0.965242
-0.795834660530 1.386419653893 -0.306957781315 0.869012 0.062569 -0.490818
-0.789912760258 1.199705123901 -0.474937021732 -0.001278 -0.382163 -0.924094
-0.826906502247 1.298528671265 -0.685219824314 0.944077 0.193200 0.267192
-0.743981003761 1.273427486420 -0.708048403263 0.228525 0.592299 0.772631
-0.840798974037 1.580570220947 -0.442253321409 -0.967201 0.234511 0.097607
-0.844195008278 1.528421640396 -0.482079088688 0.999134 -0.040048 -0.011295
-0.844368040562 1.372546315193 -0.548464953899 0.962554 -0.216084 -0.163700
-0.849253892899 1.505037784576 -0.439013898373 -0.999999 -0.000978 -0.000978
-0.811843633652 1.509751081467 -0.447935998440 0.999855 0.012985 0.010987
-0.847150206566 1.355954527855 -0.466730415821 -0.991397 0.104297 -0.079083
-0.817361533642 1.340151786804 -0.424606710672 -0.001313 -0.452981 0.891519
-0.811823427677 1.323376893997 -0.458175003529 0.998705 -0.046863 0.019787
-0.811945497990 1.343580245972 -0.426571100950 0.999855 -0.011009 0.013011
-0.805159449577 1.251662492752 -0.421880632639 0.001168 0.220763 0.975327
-0.748614907265 1.538067936897 -0.720806896687 0.302170 -0.580359 0.756225
-0.781946837902 1.566171288490 -0.704398036003 -0.055483 0.607464 -0.792407
-0.847044229507 1.487513184547 -0.525851309299 -0.991709 -0.127426 0.016621
-0.827379286289 1.630722641945 -0.472237288952 -0.847631 0.526067 0.069108
-0.728960871696 1.430213332176 -0.527917027473 0.174468 0.599259 -0.781313
-0.847055435181 1.480955362320 -0.544026792049 -0.991697 -0.119004 0.048735
-0.805981218815 1.495530366898 -0.668803155422 0.982790 -0.070455 0.170764
-0.811906158924 1.511272907257 -0.576164245605 0.999855 0.012985 -0.010987
-0.824802219868 1.445340633392 -0.630550742149 -0.001310 -0.446689 -0.894688
-0.810630500317 1.329747080803 -0.527431249619 0.996381 -0.084186 -0.011722
-0.810476660728 1.333555579185 -0.484234780073 0.993026 -0.108595 0.045901
-0.725541591644 1.396466970444 -0.522714793682 0.174468 -0.781313 -0.599259
-0.811818659306 1.523449897766 -0.478550016880 0.999864 0.014953 0.006978
-0.811604201794 1.320680856705 -0.605487585068 0.998713 0.030264 0.040700
-0.783769488335 1.291579842567 -0.724929571152 -0.057093 -0.381063 -0.922784
-0.742473125458 1.271928071976 -0.710423886776 -0.001369 -0.609379 -0.792878
-0.848327994347 1.313446879387 -0.597736299038 -0.996493 -0.066288 -0.051074
-0.811888754368 1.302145242691 -0.448401659727 0.998711 0.046766 -0.019746
-0.808223724365 1.254805684090 -0.463764101267 0.988861 0.137631 -0.056672
-0.802475571632 1.242922663689 -0.426873475313 0.943553 0.305544 -0.127871
-0.734434425831 1.179584503174 -0.435266762972 -0.001278 -0.924094 0.382163
-0.747354328632 1.601767182350 -0.465572416782 0.999999 -0.000978 0.000978
-0.747387647629 1.564499378204 -0.533760726452 0.999999 -0.000978 0.000978
-0.757442653179 1.591576576233 -0.588427245617 0.001278 0.924094 -0.382163
-0.785238325596 1.516216516495 -0.366191178560 -0.999999 0.000978 0.000978
-0.747403919697 1.546179533005 -0.389974385500 0.999999 -0.000978 0.000978
-0.768966495991 1.445173740387 -0.564712822437 0.001278 0.382163 -0.924094
-0.813147306442 1.395147562027 -0.523815870285 0.001369 0.792878 0.609379
-0.806644380093 1.393204212189 -0.503394901752 0.001278 0.924094 -0.382163
-0.764871716499 1.360882520676 -0.442947357893 -0.999999 0.000978 -0.000978
-0.773378133774 1.365743756294 -0.625691115856 -0.999999 0.000978 0.000978
-0.773392677307 1.349504232407 -0.630064547062 -0.999999 0.000978 -0.000978
-0.773385941982 1.357023477554 -0.664831280708 -0.999999 0.000978 -0.000978
-0.773329019547 1.420764207840 -0.671413183212 -0.999999 0.000978 -0.000978
-0.759139716625 1.431264877319 -0.654798805714 0.999999 -0.000978 -0.000978
-0.759253084660 1.304297447205 -0.579406559467 0.999999 -0.000978 -0.000978
-0.759250640869 1.307008862495 -0.632965087891 0.999999 -0.000978 0.000978
-0.759284913540 1.268648743629 -0.502777099609 0.999999 -0.000978 -0.000978
-0.773443162441 1.292929172516 -0.438150107861 -0.999999 0.000978 0.000978
-0.773427128792 1.310840010643 -0.381865859032 -0.999999 0.000978 -0.000978
-0.773405253887 1.335403084755 -0.363937616348 -0.999999 0.000978 0.000978
-0.817297816277 1.439501643181 -0.548130393028 0.001369 0.609379 0.792878
-0.770732820034 1.360160112381 -0.487522840500 -0.001278 -0.924094 0.382163
-0.767808079720 1.356421709061 -0.498529732227 -0.001096 -0.991465 0.130369
-0.744167387486 1.407156825066 -0.489058911800 0.001278 0.382163 -0.924094
-0.759032368660 1.551452159882 -0.552674531937 0.999999 -0.000978 -0.000978
-0.812053978443 1.403146743774 -0.452048689127 -0.001096 -0.130369 0.991465
-0.791750669479 1.437945365906 -0.476625800133 0.001369 0.792878 -0.609379
-0.764744758606 1.502978444099 -0.503678917885 -0.999999 0.000978 0.000978
-0.759034991264 1.548507571220 -0.545317709446 0.999999 -0.000978 -0.000978
-0.773227691650 1.534268498421 -0.499647080898 -0.999999 0.000978 -0.000978
-0.759102284908 1.473150849342 -0.417242527008 0.999999 -0.000978 0.000978
-0.759093880653 1.482548713684 -0.359288722277 0.999999 -0.000978 -0.000978
-0.759053409100 1.527882218361 -0.389086455107 0.999999 -0.000978 0.000978
-0.759657382965 1.426425695419 -0.571030080318 -0.001096 -0.130369 0.991465
-0.772402822971 1.478816986084 -0.642515897751 0.001316 0.454044 0.890978
-0.613651752472 -1.326978445053 -0.239347413182 0.813705 0.075793 -0.576315
-0.610087335110 -1.561721801758 -0.586074292660 0.999999 -0.000978 -0.000978
-0.610095620155 -1.570967435837 -0.405931472778 0.999999 -0.000978 -0.000978
-0.609973430634 -1.434132099152 -0.229458093643 0.999999 -0.000978 0.000978
-0.699005901814 -1.260866641998 -0.163926064968 0.001096 0.130369 0.991465
-0.686330854893 -1.189961314201 -0.173262402415 0.001096 0.130369 0.991465
-0.643115699291 -1.114309549332 -0.201101139188 0.001278 0.382163 0.924094
-0.734374642372 -1.109865307808 -0.202908232808 0.001278 0.382163 0.924094
-0.665042221546 -1.061277747154 -0.234879449010 0.001369 0.609379 0.792878
-0.689851105213 -1.043241262436 -0.248702272773 0.001369 0.609379 0.792878
-0.811808586121 -0.981954634190 -0.317921489477 0.001369 0.792878 0.609379
-0.675934255123 -1.008312344551 -0.283729583025 0.001369 0.792878 0.609379
-0.614974498749 -1.021082997322 -0.273222565651 0.792474 0.483843 0.371322
-0.631032407284 -1.228752493858 -0.242705509067 -0.001096 -0.130369 -0.991465
-0.801011025906 -1.277240633965 -0.239189028740 0.001096 0.130369 -0.991465
-0.684977173805 -1.378738522530 -0.264631927013 0.001278 0.382163 -0.924094
-0.818523764610 -1.384514808655 -0.267073988914 0.001278 0.382163 -0.924094
-0.708832442760 -1.401104569435 -0.274036586285 0.001369 0.609379 -0.792878
-0.834911465645 -1.405539274216 -0.277525722980 0.001369 0.609379 -0.792878
-0.796481907368 -1.462617158890 -0.324674665928 0.001369 0.792878 -0.609379
-0.662510454655 -1.510954499245 -0.400636225939 0.001278 0.924094 -0.382163
-0.753102242947 -1.530818939209 -0.474224805832 0.001096 0.991465 -0.130369
-0.817770004272 -1.534776210785 -0.504721820354 0.001096 0.991465 -0.130369
-0.813977420330 -1.534794807434 -0.508150100708 0.001096 0.991465 0.130369
-0.794830679893 -1.524495840073 -0.579374670982 0.001278 0.924094 0.382163
-0.837725758553 -1.499621033669 -0.639335215092 0.001278 0.924094 0.382163
-0.690548598766 -1.490763545036 -0.651755332947 0.001369 0.792878 0.609379
-0.677572250366 -1.460862398148 -0.690738201141 0.001369 0.792878 0.609379
-0.725137412548 -1.593358278275 -0.606401443481 -0.001278 -0.924094 -0.382163
-0.805097281933 -1.576629877090 -0.646615147591 -0.001278 -0.924094 -0.382163
-0.790752530098 -1.602554440498 -0.559836387634 -0.001096 -0.991465 -0.130369
-0.684979677200 -1.607868909836 -0.520186841488 -0.001096 -0.991465 -0.130369
-0.705545723438 -1.342953085899 -0.173285424709 -0.001096 -0.130369 0.991465
-0.793393671513 -1.327000856400 -0.171195611358 -0.001096 -0.130369 0.991465
-0.849318683147 -1.311310768127 -0.169994607568 -0.792424 -0.079387 0.604783
-0.676604390144 -0.939984500408 -0.607879698277 0.001278 0.924094 -0.382163
-0.743776440620 -0.965597033501 -0.669858396053 0.001278 0.924094 -0.382163
-0.616037189960 -0.932822167873 -0.563032031059 0.792424 0.604783 -0.079387
-0.646303236485 -0.926722049713 -0.533839821815 0.001096 0.991465 -0.130369
-0.711286723614 -0.933342516422 -0.584567725658 0.001096 0.991465 -0.130369
-0.744862377644 -0.926784336567 -0.534981131554 0.001096 0.991465 -0.130369
-0.718239963055 -0.924705088139 -0.493980646133 0.001096 0.991465 0.130369
-0.736203134060 -0.930484950542 -0.449956446886 0.001096 0.991465 0.130369
-0.786389708519 -0.942079305649 -0.399814188480 0.001278 0.924094 0.382163
-0.721484839916 -0.960573077202 -0.355306237936 0.001278 0.924094 0.382163
-0.696810007095 -1.074767708778 -0.318502813578 -0.001369 -0.792878 -0.609379
-0.842366695404 -1.216578483582 -0.768704354763 -0.001096 -0.130369 0.991465
-0.669870316982 -1.251439929008 -0.773273706436 -0.001096 -0.130369 0.991465
-0.746065676212 -1.269034266472 -0.774885654449 0.001096 0.130369 0.991465
-0.659450590611 -1.283599495888 -0.772978246212 0.001096 0.130369 0.991465
-0.843729257584 -1.361775636673 -0.755323410034 0.001278 0.382163 0.924094
-0.669618308544 -1.371524810791 -0.751349568367 0.001278 0.382163 0.924094
-0.820557475090 -1.419677138329 -0.724623501301 0.001369 0.609379 0.792878
-0.625817775726 -1.437395930290 -0.711160898209 0.001369 0.609379 0.792878
-0.610057950020 -1.528778910637 -0.698984503746 0.999999 -0.000978 0.000978
-0.768616080284 -1.549191117287 -0.696923732758 -0.001369 -0.792878 -0.609379
-0.767274737358 -1.530548810959 -0.721220433712 -0.001369 -0.792878 -0.609379
-0.857048571110 -1.502281069756 -0.716021895409 -0.999999 0.000978 -0.000978
-0.857028484344 -1.479799866676 -0.276280194521 -0.999999 0.000978 -0.000978
-0.857000112534 -1.448016881943 -0.262160629034 -0.999999 0.000978 0.000978
-0.856594324112 -0.993558108807 -0.326357990503 -0.999999 0.000978 -0.000978
-0.856572389603 -0.969006359577 -0.405097573996 -0.999999 0.000978 -0.000978
-0.856578767300 -0.976144790649 -0.462532907724 -0.999999 0.000978 0.000978
-0.856608808041 -1.009761929512 -0.645248889923 -0.999999 0.000978 -0.000978
-0.764231145382 -0.985465824604 -0.699586808681 0.001369 0.792878 -0.609379
-0.780450880527 -1.020870804787 -0.745746314526 0.001369 0.792878 -0.609379
-0.609541416168 -0.950348973274 -0.579649090767 0.999999 -0.000978 -0.000978
-0.609567463398 -0.979436635971 -0.412868767977 0.999999 -0.000978 0.000978
-0.785254120827 -1.028384327888 -0.384583204985 -0.001278 -0.924094 -0.382163
-0.773109912872 -1.017729759216 -0.410331755877 -0.001278 -0.924094 -0.382163
-0.819624006748 -1.036286473274 -0.759037792683 0.001369 0.609379 -0.792878
-0.628366291523 -1.041939020157 -0.763244152069 0.001369 0.609379 -0.792878
-0.671132624149 -1.001588702202 -0.476525783539 -0.001096 -0.991465 -0.130369
-0.670285701752 -0.999012291431 -0.496101886034 -0.001096 -0.991465 -0.130369
-0.622288644314 -1.000661373138 -0.529086291790 -0.001096 -0.991465 0.130369
-0.719883918762 -1.012205958366 -0.589205563068 -0.001278 -0.924094 0.382163
-0.840670704842 -1.011845469475 -0.588595569134 -0.001278 -0.924094 0.382163
-0.687510192394 -1.037723064423 -0.646196842194 -0.001369 -0.792878 0.609379
-0.843745231628 -1.061562299728 -0.677446484566 -0.001369 -0.792878 0.609379
-0.768875539303 -1.116089820862 -0.727082014084 -0.001369 -0.609379 0.792878
-0.814307451248 -1.155713677406 -0.749105036259 -0.001278 -0.382163 0.924094
-0.651085019112 -1.180324792862 -0.759238898754 -0.001278 -0.382163 0.924094
-0.609992563725 -1.134961843491 -0.752451360226 0.813685 -0.223033 0.536817
-0.613512873650 -1.365260243416 -0.761055767536 0.813685 0.223033 0.536817
-0.719679653645 -1.456566572189 -0.789542734623 -0.001369 -0.609379 -0.792878
-0.773284494877 -1.479094624519 -0.772219598293 -0.001369 -0.609379 -0.792878
-0.857006251812 -1.454843401909 -0.776644527912 -0.999999 0.000978 0.000978
-0.857016682625 -1.466572761536 -0.721795618534 -0.999999 0.000978 0.000978
-0.718050897121 -1.162144303322 -0.831728160381 0.001278 0.382163 -0.924094
-0.746645808220 -1.102857232094 -0.807181298733 0.001278 0.382163 -0.924094
-0.609835803509 -1.280027627945 -0.806815207005 0.999999 -0.000978 0.000978
-0.609724223614 -1.155061960220 -0.788604259491 0.999999 -0.000978 0.000978
-0.631578743458 -1.425726890564 -0.808907508850 -0.001278 -0.382163 -0.924094
-0.798194944859 -1.407653331757 -0.816332221031 -0.001278 -0.382163 -0.924094
-0.853357493877 -1.373687982559 -0.823864817619 -0.792566 -0.234203 -0.563017
-0.776294648647 -1.246585965157 -0.847190737724 0.001096 0.130369 -0.991465
-0.687554061413 -1.182316064835 -0.838719069958 0.001096 0.130369 -0.991465
-0.720695316792 -1.293596029282 -0.846198558807 -0.001096 -0.130369 -0.991465
-0.808179080486 -1.321619749069 -0.842498838902 -0.001096 -0.130369 -0.991465
-0.829088449478 -1.477900028229 -0.239889830351 -0.001369 -0.609379 0.792878
-0.650842785835 -1.504041552544 -0.259826749563 -0.001369 -0.609379 0.792878
-0.625619351864 -1.527898073196 -0.288148015738 -0.001369 -0.792878 0.609379
-0.811722159386 -1.534692525864 -0.297219157219 -0.001369 -0.792878 0.609379
-0.834030508995 -1.603497028351 -0.460604041815 -0.001096 -0.991465 0.130369
-0.755604565144 -1.600152373314 -0.434667497873 -0.001096 -0.991465 0.130369
-0.814977228642 -1.575080513954 -0.362653523684 -0.001278 -0.924094 0.382163
-0.712587654591 -1.572131037712 -0.355311930180 -0.001278 -0.924094 0.382163
-0.636233925819 -1.370373487473 -0.181153923273 -0.001278 -0.382163 0.924094
-0.780093908310 -1.370706081390 -0.181344866753 -0.001278 -0.382163 0.924094
-0.724075376987 -1.192490458488 -0.248682618141 -0.001278 -0.382163 -0.924094
-0.726772785187 -1.146286487579 -0.267820030451 -0.001278 -0.382163 -0.924094
-0.729304492474 -1.115899920464 -0.286078572273 -0.001369 -0.609379 -0.792878
-0.669683754444 -1.105072855949 -0.294427424669 -0.001369 -0.609379 -0.792878
-0.617868661880 -1.149786829948 -0.266080349684 0.813685 -0.223033 -0.536817
-0.631829679012 -1.349247336388 -0.252396583557 -0.001278 -0.382163 0.924094
-0.784997344017 -1.365803003311 -0.259310871363 -0.001278 -0.382163 0.924094
-0.669116497040 -1.306498646736 -0.243025392294 -0.001096 -0.130369 0.991465
-0.657092273235 -1.210332393646 -0.245127484202 0.001096 0.130369 0.991465
-0.695387125015 -1.217612504959 -0.244164526463 0.001096 0.130369 0.991465
-0.788117349148 -1.185864925385 -0.251403331757 0.001278 0.382163 0.924094
-0.832174241543 -1.158443093300 -0.262745559216 0.001278 0.382163 0.924094
-0.733106017113 -1.110324621201 -0.290354102850 0.001369 0.609379 0.792878
-0.799803614616 -1.095920801163 -0.301360785961 0.001369 0.609379 0.792878
-0.804455697536 -1.066613674164 -0.329003989697 0.001369 0.792878 0.609379
-0.770882248878 -1.033843874931 -0.371749401093 0.001369 0.792878 0.609379
-0.733210265636 -1.453185558319 -0.314016312361 -0.001369 -0.609379 0.792878
-0.798105716705 -1.409066557884 -0.280207127333 -0.001369 -0.609379 0.792878
-0.841661214828 -1.026193737984 -0.389750063419 0.001278 0.924094 0.382163
-0.817760586739 -1.006822943687 -0.436567217112 0.001278 0.924094 0.382163
-0.752133846283 -1.083530306816 -0.335934013128 -0.001369 -0.792878 -0.609379
-0.818210542202 -1.070838689804 -0.352397143841 -0.001369 -0.792878 -0.609379
-0.847080707550 -1.036811470985 -0.409606635571 -0.999999 0.000978 -0.000978
-0.695299804211 -1.005083680153 -0.449815154076 0.001096 0.991465 0.130369
-0.724518597126 -0.999758005142 -0.490069299936 0.001096 0.991465 0.130369
-0.786330699921 -1.038791418076 -0.405453711748 -0.001278 -0.924094 -0.382163
-0.720190525055 -1.327370285988 -0.272086113691 0.001096 0.130369 -0.991465
-0.679745495319 -1.261212944984 -0.264733195305 -0.001096 -0.130369 -0.991465
-0.660903692245 -1.254205822945 -0.265657931566 -0.001096 -0.130369 -0.991465
-0.794028103352 -1.177768588066 -0.282985597849 -0.001278 -0.382163 -0.924094
-0.728863656521 -1.143854856491 -0.297503769398 -0.001369 -0.609379 -0.792878
-0.664296984673 -1.068410992622 -0.369668990374 -0.001369 -0.792878 -0.609379
-0.723990201950 -1.035684108734 -0.435247182846 -0.001278 -0.924094 -0.382163
-0.779476046562 -1.001968622208 -0.540081679821 0.001096 0.991465 -0.130369
-0.631526648998 -1.006091356277 -0.570394396782 0.001096 0.991465 -0.130369
-0.693070411682 -1.022298216820 -0.453931123018 -0.001096 -0.991465 -0.130369
-0.686789929867 -1.021892786026 -0.555933952332 -0.001096 -0.991465 0.130369
-0.798654675484 -1.020131826401 -0.543317258358 -0.001096 -0.991465 0.130369
-0.802223086357 -1.023452758789 -0.568566024303 -0.001096 -0.991465 0.130369
-0.847068786621 -1.023442029953 -0.568870604038 -0.999999 0.000978 -0.000978
-0.670077145100 -1.338916182518 -0.276362270117 0.001278 0.382163 -0.924094
-0.657933115959 -1.379396557808 -0.293125301600 0.001278 0.382163 -0.924094
-0.777193129063 -1.437461137772 -0.334856212139 0.001369 0.609379 -0.792878
-0.750468492508 -1.457781553268 -0.361163407564 0.001369 0.792878 -0.609379
-0.634735941887 -1.415797710419 -0.311700552702 -0.999999 0.000978 0.000978
-0.767560899258 -1.418051004410 -0.309267729521 0.001369 0.609379 -0.792878
-0.662542700768 -1.447124958038 -0.333244472742 0.001369 0.792878 -0.609379
-0.740711092949 -1.478467226028 -0.374181449413 0.001369 0.792878 -0.609379
-0.678487598896 -1.487397074699 -0.389795809984 0.001278 0.924094 -0.382163
-0.693085312843 -1.493829250336 -0.405355721712 0.001278 0.924094 -0.382163
-0.722432017326 -1.512862682343 -0.405371785164 -0.001278 -0.924094 0.382163
-0.810337305069 -1.517453789711 -0.416645288467 -0.001278 -0.924094 0.382163
-0.847486317158 -1.491062760353 -0.372720092535 -0.999999 0.000978 0.000978
-0.833655416965 -1.331639289856 -0.264230698347 0.001278 0.382163 -0.924094
-0.786519408226 -1.138203740120 -0.291112571955 -0.001369 -0.609379 -0.792878
-0.637546122074 -1.252752065659 -0.257299602032 -0.001096 -0.130369 -0.991465
-0.642409741879 -1.369292974472 -0.279756635427 0.001278 0.382163 -0.924094
-0.763022840023 -1.366335511208 -0.278576225042 0.001278 0.382163 -0.924094
-0.793241381645 -1.505612611771 -0.482857406139 0.001096 0.991465 -0.130369
-0.822503209114 -1.498393535614 -0.416653931141 0.001278 0.924094 -0.382163
-0.787574052811 -1.534385800362 -0.501551330090 -0.001096 -0.991465 0.130369
-0.620560765266 -1.531567215919 -0.479009926319 -0.001096 -0.991465 0.130369
-0.755180478096 -1.529706716537 -0.547197461128 -0.001096 -0.991465 -0.130369
-0.789380431175 -1.515528440475 -0.519799292088 0.001096 0.991465 0.130369
-0.732432186604 -1.512079834938 -0.546381413937 0.001096 0.991465 0.130369
-0.655308127403 -1.516706943512 -0.598479688168 -0.001278 -0.924094 -0.382163
-0.798102617264 -1.483841776848 -0.631517469883 0.001278 0.924094 0.382163
-0.741686224937 -1.501936912537 -0.558399796486 0.001096 0.991465 0.130369
-0.746669530869 -1.507852435112 -0.513432919979 0.001096 0.991465 0.130369
-0.731364607811 -1.481418371201 -0.615354776382 0.001278 0.924094 0.382163
-0.723143339157 -1.468437194824 -0.637969493866 0.001369 0.792878 0.609379
-0.755113244057 -1.443988680840 -0.669794082642 0.001369 0.792878 0.609379
-0.634758830070 -1.441442966461 -0.677286446095 -0.999999 0.000978 0.000978
-0.652416706085 -1.413005590439 -0.696982502937 0.001369 0.609379 0.792878
-0.793774843216 -1.427665114403 -0.685636997223 0.001369 0.609379 0.792878
-0.729101896286 -1.371717214584 -0.723017096519 0.001278 0.382163 0.924094
-0.765854954720 -1.258149981499 -0.747861444950 -0.001096 -0.130369 0.991465
-0.667201459408 -1.206680178642 -0.741073787212 -0.001096 -0.130369 0.991465
-0.662498474121 -1.122499465942 -0.699051976204 -0.001369 -0.609379 0.792878
-0.724759757519 -1.122713446617 -0.699258804321 -0.001369 -0.609379 0.792878
-0.782185733318 -1.074311852455 -0.651146233082 -0.001369 -0.792878 0.609379
-0.671550512314 -1.026485443115 -0.487235486507 -0.001096 -0.991465 -0.130369
-0.840329647064 -1.074063181877 -0.664818704128 -0.001369 -0.792878 0.609379
-0.817829072475 -1.033594250679 -0.640967786312 0.001369 0.792878 -0.609379
-0.625855207443 -1.074539542198 -0.694105088711 0.001369 0.792878 -0.609379
-0.767097771168 -1.049668192863 -0.632941126823 -0.001369 -0.792878 0.609379
-0.743103146553 -1.123220086098 -0.732535660267 0.001369 0.609379 -0.792878
-0.719938993454 -1.088883399963 -0.706172227859 0.001369 0.609379 -0.792878
-0.729079842567 -1.211038351059 -0.750207185745 -0.001096 -0.130369 0.991465
-0.680826187134 -1.244251847267 -0.754574179649 -0.001096 -0.130369 0.991465
-0.645845472813 -1.294229626656 -0.753825902939 0.001096 0.130369 0.991465
-0.781222224236 -1.400120258331 -0.717469453812 0.001369 0.609379 0.792878
-0.721491277218 -1.424375891685 -0.698898255825 0.001369 0.609379 0.792878
-0.826957643032 -1.458274006844 -0.665022373199 0.001369 0.792878 0.609379
-0.847446918488 -1.446889281273 -0.680120110512 -0.999999 0.000978 -0.000978
-0.847182452679 -1.150788545609 -0.738844096661 -0.999999 0.000978 0.000978
-0.759452581406 -1.143002033234 -0.743819415569 0.001278 0.382163 -0.924094
-0.618121147156 -1.183887243271 -0.751159548759 0.999999 -0.000978 -0.000978
-0.634537458420 -1.193511128426 -0.741233766079 -0.999999 0.000978 0.000978
-0.628633916378 -1.283646821976 -0.755221188068 0.001096 0.130369 0.991465
-0.669725418091 -1.469813108444 -0.679082572460 -0.001369 -0.792878 -0.609379
-0.667699813843 -1.446538925171 -0.704116463661 -0.001369 -0.609379 -0.792878
-0.648095667362 -1.447283864021 -0.703558266163 -0.001369 -0.609379 -0.792878
-0.818911910057 -1.370232582092 -0.751829564571 -0.001278 -0.382163 -0.924094
-0.761900544167 -1.336660981178 -0.765756487846 -0.001278 -0.382163 -0.924094
-0.799442768097 -1.269590497017 -0.774806141853 -0.001096 -0.130369 -0.991465
-0.819164216518 -1.259670853615 -0.774374842644 0.001096 0.130369 -0.991465
-0.847421705723 -1.418708086014 -0.725262343884 -0.999999 0.000978 -0.000978
-0.651800334454 -1.040278196335 -0.610833168030 -0.001278 -0.924094 0.382163
-0.791493713856 -1.053987979889 -0.622075498104 -0.001278 -0.924094 0.382163
-0.631648004055 -1.512652993202 -0.470276147127 0.001096 0.991465 -0.130369
-0.681645631790 -1.513437628746 -0.476574867964 0.001096 0.991465 -0.130369
-0.827496886253 -1.483869671822 -0.352407753468 -0.001369 -0.792878 0.609379
-0.693598031998 -1.484352231026 -0.352880716324 -0.001369 -0.792878 0.609379
-0.753611028194 -1.294733881950 -0.260641813278 -0.001061 -0.996116 0.088049
-0.805823326111 -1.236039280891 -0.317911624908 0.942721 -0.045014 -0.330531
-0.830860972404 -1.277287483215 -0.285806268454 -0.847631 -0.069108 0.526067
-0.844886481762 -1.282375216484 -0.329806834459 -0.977387 -0.027248 0.209694
-0.852444887161 -1.354170799255 -0.459941446781 -0.998948 0.042355 -0.017562
-0.847685813904 -1.413023233414 -0.470993310213 -0.001227 -0.302950 -0.953006
-0.852222681046 -1.394631266594 -0.500426411629 -0.999195 -0.039804 0.005103
-0.734996259212 -1.395443558693 -0.720508277416 0.151842 0.602859 0.783266
-0.848036587238 -1.209460496902 -0.605585753918 -0.001362 -0.815569 -0.578659
-0.845307707787 -1.155392646790 -0.641668260098 -0.977395 0.128244 -0.168087
-0.849131882191 -1.159548521042 -0.619664072990 -0.985386 0.103913 -0.134968
-0.852030396461 -1.202909588814 -0.574560821056 -0.999081 -0.025883 0.034165
-0.847274005413 -1.191007256508 -0.603404223919 0.999136 -0.023764 0.034097
-0.842914104462 -1.087702035904 -0.464552819729 0.001215 0.285453 -0.958392
-0.787106752396 -1.053814768791 -0.440125435591 0.710643 -0.650230 -0.268677
-0.847377657890 -1.270795941353 -0.386638909578 0.999131 -0.001016 -0.041673
-0.849403679371 -1.276734948158 -0.354548752308 -0.000978 -0.999999 -0.000978
-0.811805248260 -1.212551712990 -0.454017698765 0.988681 0.118174 0.092433
-0.814697146416 -1.351103782654 -0.443032205105 0.998708 -0.040785 0.030327
-0.852649271488 -1.366633534431 -0.534419834614 -0.998948 0.042355 0.017562
-0.849121332169 -1.315877199173 -0.548753499985 -0.985696 0.134684 0.101311
-0.754395246506 -1.107966661453 -0.698565304279 0.001369 0.609379 -0.792878
-0.754442155361 -1.032346725464 -0.436193495989 0.373506 -0.857049 -0.354908
-0.813418567181 -1.120373725891 -0.491673678160 0.996381 -0.084186 -0.011722
-0.818126320839 -1.211643457413 -0.648201346397 -0.001380 -0.760132 -0.649768
-0.852489531040 -1.158531427383 -0.517376601696 -0.999999 -0.000978 0.000978
-0.827864944935 -1.065015554428 -0.478412926197 0.001278 0.382163 -0.924094
-0.809766650200 -1.221055150032 -0.549244165421 0.983098 0.144252 -0.112735
-0.715292572975 -1.266370654106 -0.498426616192 0.999999 -0.000978 0.000978
-0.733026385307 -1.255986452103 -0.484916388988 0.175702 0.375689 0.909938
-0.806085526943 -1.298515677452 -0.470396608114 0.885272 -0.284069 0.368237
-0.751691043377 -1.274954676628 -0.532459616661 0.175513 -0.378138 -0.908959
-0.814427971840 -1.140577673912 -0.465254962444 0.998705 -0.046863 -0.019787
-0.796720385551 -1.389412999153 -0.677023053169 0.822106 0.346900 0.451445
-0.852678656578 -1.366047859192 -0.557087719440 -0.999995 0.002938 0.000979
-0.825094699860 -1.373515009880 -0.578615605831 -0.001171 -0.975213 0.221267
-0.764449417591 -1.491731047630 -0.426228255033 0.447067 0.826206 -0.342804
-0.787821173668 -1.130639076233 -0.457774847746 -0.999999 0.000978 0.000978
-0.754850685596 -1.071808099747 -0.497939914465 0.001096 0.991465 0.130369
-0.749593794346 -1.088143825531 -0.440726101398 0.999999 -0.000978 0.000978
-0.776400506496 -1.291107416153 -0.452241748571 -0.001278 -0.382163 0.924094
-0.767286121845 -1.329216718674 -0.574783146381 -0.999999 0.000978 -0.000978
-0.765605986118 -1.363292932510 -0.528107821941 0.001096 0.991465 0.130369
-0.775932848454 -1.385187149048 -0.532600045204 -0.999999 0.000978 0.000978
-0.775893747807 -1.341404795647 -0.634384155273 -0.999999 0.000978 -0.000978
-0.763976812363 -1.257184147835 -0.606762647629 -0.001096 -0.130369 0.991465
-0.761557996273 -1.327378034592 -0.596076786518 0.999999 -0.000978 0.000978
-0.761569201946 -1.339921474457 -0.637600839138 0.999999 -0.000978 0.000978
-0.761656045914 -1.437184214592 -0.474674463272 0.999999 -0.000978 -0.000978
-0.775792419910 -1.353364586830 -0.460007667542 0.001278 0.924094 -0.382163
-0.761602342129 -1.376972079277 -0.441483706236 0.999999 -0.000978 -0.000978
-0.775840878487 -1.282207608223 -0.383354872465 -0.999999 0.000978 0.000978
-0.761498332024 -1.260540962219 -0.386339545250 0.999999 -0.000978 -0.000978
-0.767256319523 -1.295865774155 -0.565384984016 -0.999999 0.000978 0.000978
-0.775780200958 -1.214248180389 -0.660651743412 -0.999999 0.000978 0.000978
-0.761419951916 -1.172731757164 -0.602326631546 0.999999 -0.000978 0.000978
-0.761427462101 -1.181118130684 -0.581668972969 0.999999 -0.000978 0.000978
-0.775777637959 -1.211374759674 -0.591931581497 -0.999999 0.000978 0.000978
-0.775700271130 -1.124774694443 -0.550129115582 -0.999999 0.000978 -0.000978
-0.767171144485 -1.200470685959 -0.534602999687 -0.999999 0.000978 -0.000978
-0.823363184929 -1.206048965454 -0.521165788174 0.001096 0.991465 -0.130369
-0.816958904266 -1.205518841743 -0.498887300491 0.001096 0.991465 0.130369
-0.764558851719 -1.244059085846 -0.473877161741 0.001278 0.924094 -0.382163
-0.775517463684 -1.238604068756 -0.468831837177 0.001278 0.382163 -0.924094
-0.767180621624 -1.211070656776 -0.450482815504 -0.999999 0.000978 0.000978
-0.775720477104 -1.147367715836 -0.423412263393 -0.999999 0.000978 -0.000978
-0.775760114193 -1.191835522652 -0.416814297438 -0.999999 0.000978 -0.000978
-0.761449217796 -1.205521106720 -0.365129739046 0.999999 -0.000978 0.000978
-0.757032155991 -1.280943512917 -0.567669510841 0.001096 0.130369 0.991465
-0.759588181973 -1.217863440514 -0.470350563526 -0.001369 -0.792878 -0.609379
0.028036110103 2.037893772125 0.050276555121 0.330055 -0.123601 0.935835
0.276111483574 0.298252195120 0.243255078793 -0.001379 -0.743362 -0.668888
0.431210130453 0.276584833860 0.280609309673 -0.001216 -0.959055 -0.283219
0.438829630613 0.269824057817 0.310563296080 -0.001069 -0.995256 0.097281
0.282596677542 0.274619698524 0.358004301786 -0.001069 -0.995256 0.097281
0.433133482933 0.283247441053 0.384096175432 -0.001279 -0.921899 0.387428
0.471384048462 0.308929264545 0.341063112020 0.999999 -0.000978 0.000978
0.471384584904 0.309345245361 0.304241716862 0.999999 -0.000978 -0.000978
0.471373498440 0.297020494938 0.266370177269 0.999999 -0.000978 -0.000978
0.239403590560 0.308676242828 0.231996461749 -0.001156 -0.204554 -0.978855
0.294259965420 0.366814374924 0.230353906751 0.001380 0.680398 -0.732842
0.446021646261 0.337002158165 0.227340325713 0.001034 0.061026 -0.998136
0.471399903297 0.326570928097 0.239194482565 0.999999 -0.000978 -0.000978
0.280876666307 0.381872445345 0.253320306540 0.001150 0.980932 -0.194346
0.396024554968 0.379542618990 0.242221295834 0.001380 0.680398 -0.732842
0.287533998489 0.383940041065 0.301932126284 0.000987 0.999941 0.010858
0.361556559801 0.383795231581 0.309664011002 0.000987 0.999941 0.010858
0.242615520954 0.376124143600 0.348452627659 0.001164 0.976541 0.215328
0.230582654476 0.353984087706 0.377499669790 -0.999999 0.000978 0.000978
0.430344045162 0.322519481182 0.418380498886 0.001052 0.081042 0.996710
0.302203595638 0.353808909655 0.398350089788 0.001325 0.881065 0.472993
0.365767538548 0.374311774969 0.356169700623 0.001164 0.976541 0.215328
0.447629541159 0.316745668650 0.410461455584 -0.001073 -0.101947 -0.994789
0.300990074873 0.316626012325 0.410487532616 -0.001073 -0.101947 -0.994789
-0.826679110527 -0.945403099060 -0.071867041290 -0.974357 -0.017802 0.224304
-0.830601334572 -1.142195105553 -0.097507707775 -0.979868 -0.012816 0.199236
-0.829524993896 -1.095143556595 -0.088789723814 -0.980160 -0.017524 0.197434
-0.808136403561 -0.870332419872 0.022032568231 -0.983956 -0.012630 0.177962
-0.811191082001 -0.822858214378 0.007781451568 -0.986312 -0.010215 0.164574
-0.822785913944 -1.147845387459 -0.061689514667 -0.965202 -0.015783 0.261029
-0.846027791500 -1.234332442284 -0.111434057355 -0.904632 0.061032 0.421800
-0.834755837917 -0.960130572319 -0.122109055519 -0.987671 0.019277 0.155351
-0.829120039940 -0.787439703941 -0.070944406092 -0.988200 -0.014682 0.152465
-0.810481309891 -0.790502667427 -0.617352783680 -0.534955 0.001347 -0.844879
-0.808550059795 -0.765540182590 -0.586969196796 -0.970072 0.001184 0.242814
-0.806066334248 -0.754896342754 -0.577212274075 -0.968656 -0.001189 0.248404
-0.826173484325 -0.792611122131 -0.415628850460 -0.991672 0.016657 -0.127707
-0.834073781967 -0.879081189632 -0.350175708532 -0.994762 0.003226 -0.102165
-0.817217171192 -0.930992782116 -0.396562159061 0.001268 -0.929435 -0.368984
-0.846550583839 -0.993480741978 -0.210664868355 -0.929507 0.244756 0.275881
-0.839459836483 -0.980990111828 -0.182840049267 -0.999299 -0.035726 0.011228
-0.839516580105 -0.867797672749 -0.158381804824 -0.996811 -0.007415 0.079448
-0.839183449745 -0.831523835659 -0.150634124875 -0.996825 -0.007400 0.079281
-0.836932241917 -0.781153678894 -0.275457143784 -0.705625 0.708419 -0.015370
-0.829652786255 -0.868251442909 -0.434187293053 -0.905311 0.424406 -0.017081
-0.838116884232 -0.889455556870 -0.399030685425 -0.962384 0.271689 0.001208
-0.840333521366 -0.874455153942 -0.236211940646 -0.999685 0.001003 -0.025067
-0.831703782082 -1.272091388702 -0.160131022334 -0.003026 0.031266 -0.999507
-0.859358489513 -1.300672531128 -0.151225626469 -0.999775 -0.003002 0.021016
-0.811625480652 -1.717231988907 -0.243743255734 -0.990305 -0.112088 0.082044
-0.798746645451 -1.017605185509 0.045469745994 -0.952050 -0.026341 0.304807
-0.790801703930 -0.855782270432 0.079630099237 -0.925513 -0.027259 0.377734
-0.790612816811 -1.015295147896 0.067482262850 -0.918838 -0.035492 0.393036
-0.805022656918 -1.128411054611 0.013713437133 -0.963706 -0.025715 0.265723
-0.808376312256 -1.335937142372 -0.033490456641 -0.969612 -0.042795 0.240875
-0.821271061897 -1.506189823151 -0.105013921857 -0.953207 -0.164901 0.253384
-0.813417494297 -1.567896604538 -0.114301666617 -0.946315 -0.161104 0.280239
-0.805611371994 -1.513881325722 -0.065966017544 -0.920776 -0.114237 0.372990
-0.787649333477 -1.118691802025 0.063256740570 -0.907872 -0.055145 0.415604
-0.779731810093 -1.173933625221 0.071277588606 -0.889398 -0.096643 0.446800
-0.754002094269 -0.998193800449 0.129653424025 -0.261791 -0.072087 0.962429
-0.767694711685 -1.175845146179 0.094581671059 -0.891899 -0.093517 0.442460
-0.749510884285 -1.130206227303 0.118910156190 -0.438084 -0.114099 0.891663
-0.762014985085 -1.527912378311 0.005071619526 -0.730616 -0.219652 0.646494
-0.791022241116 -1.667515635490 -0.106993630528 0.015072 -0.563145 0.826220
-0.793836534023 -1.651634454727 -0.097614310682 -0.929331 -0.192034 0.315384
-0.756745219231 -0.991220951080 0.069057345390 0.975186 0.064849 -0.211678
-0.751244664192 -0.876943290234 0.123657904565 0.974368 0.042259 -0.220953
-0.749867975712 -0.772296667099 0.145838841796 0.975629 0.025016 -0.217998
-0.754432439804 -0.738329052925 0.148901954293 -0.292836 -0.073532 0.953331
-0.817367851734 -0.772407352924 -0.477775216103 -0.987489 -0.001118 -0.157685
-0.811835765839 -0.872050821781 -0.599392652512 -0.969220 0.003568 0.246170
-0.819526910782 -0.846558034420 -0.464647382498 -0.985961 -0.007942 -0.166785
-0.811210513115 -0.787693679333 -0.616892218590 -0.528668 0.001345 -0.848828
0.239288061857 -0.223783910275 -0.258945703506 -0.225291 0.049929 0.973011
0.217510700226 -0.073061652482 -0.273758292198 -0.185518 0.201307 0.961800
0.274857312441 -0.284451246262 -0.248860761523 -0.055544 0.062079 0.996525
0.320511519909 -0.201424151659 -0.251657515764 -0.026827 0.074043 0.996894
0.381573587656 -0.220077797771 -0.250556766987 0.037951 0.074817 0.996475
0.399955898523 -0.207042530179 -0.252183437347 0.026717 0.071601 0.997075
0.471903532743 -0.213510930538 -0.261784493923 0.180921 0.065898 0.981287
0.453970044851 0.161404281855 -0.107210844755 0.140995 -0.917166 0.372729
0.446491301060 0.224377349019 0.035983346403 0.099984 -0.939854 0.326616
0.382659673691 0.219401568174 0.032186832279 0.011204 -0.949861 0.312471
0.264818489552 0.108895860612 -0.294253826141 -0.128197 -0.970998 0.201815
0.248208492994 0.139114692807 -0.177890315652 -0.227927 -0.948559 0.219738
0.348242700100 0.236826688051 0.083354935050 -0.006507 -0.909722 0.415166
0.361903011799 0.183087944984 -0.050071258098 0.028895 -0.840693 0.540740
0.289601057768 0.115603022277 -0.259277492762 0.001156 -0.979315 0.202338
0.331678807735 0.091681219637 -0.301998168230 0.008339 0.239443 0.970875
0.366712152958 0.093062222004 -0.302657842636 -0.010590 0.220032 0.975435
0.425811052322 0.026173543185 -0.287337750196 0.199226 0.215271 0.956017
0.446242809296 0.063364207745 -0.299090027809 0.125699 0.201880 0.971311
0.451458454132 0.122713834047 -0.235512331128 0.115599 -0.969253 0.217224
0.372903704643 0.163319393992 -0.084923438728 0.027703 -0.911547 0.410262
0.372742414474 0.108865626156 -0.288511604071 -0.003381 -0.986174 0.165677
0.254549682140 -0.007046602666 -0.280981212854 -0.121737 0.221689 0.967488
0.479217559099 -0.320159077644 -0.264777928591 0.074250 -0.497332 0.864377
0.857712864876 -1.284224987030 -0.139831632376 0.999775 -0.003002 0.021016
0.765263557434 -1.244538187981 0.082344509661 0.832537 -0.114783 0.541948
0.797288239002 -1.246273040771 0.014927456155 0.925490 -0.076343 0.370999
0.803866982460 -1.241067647934 -0.003842064412 0.958807 -0.046495 0.280228
0.819089412689 -1.180264949799 -0.050683781505 0.964995 0.018253 0.261632
0.825636625290 -1.239759922028 -0.071647636592 0.971033 0.017960 0.238268
0.843892097473 -1.159183502197 -0.120726034045 0.903596 0.060962 0.424026
0.797872602940 -1.469958782196 -0.037783563137 0.891119 -0.108398 0.440632
0.827549755573 -1.150448799133 -0.089128233492 0.978341 -0.020014 0.206029
0.834507167339 -1.214049220085 -0.096143849194 0.865259 0.071290 0.496231
0.833450973034 -1.115014314651 -0.116159781814 0.841116 0.148779 0.519989
0.847868680954 -1.035709142685 -0.186081334949 0.924519 0.187727 0.331698
0.832254886627 -1.041233658791 -0.243268683553 -0.001373 -0.627537 -0.778585
0.853689670563 -0.975682139397 -0.293100684881 0.998670 0.009314 -0.050710
0.803489565849 -0.771041870117 -0.547837018967 0.978191 -0.001160 -0.207706
0.847657680511 -1.010585665703 -0.203735381365 0.930148 0.242093 0.276071
0.839125096798 -0.817808628082 -0.249841555953 0.999680 0.003014 -0.025118
0.839986979961 -0.853381693363 -0.208234161139 0.999987 -0.000983 0.004916
0.836340904236 -0.894680798054 -0.131757616997 0.988200 -0.014682 0.152465
0.828591108322 -0.956864655018 -0.088108219206 0.987802 -0.014710 0.155016
0.818319201469 -0.878096520901 -0.033520270139 0.975145 -0.015366 0.221033
0.802515983582 -0.952129185200 0.035449326038 0.968571 -0.020556 0.247886
0.809561669827 -0.773025393486 0.017689503729 0.986224 -0.012513 0.164939
0.823617637157 -0.766848862171 -0.047265522182 0.972394 -0.017897 0.232659
