0.740555047989 1.186486363411 -0.627620458603 0.746448 0.663983 -0.044076
0.721963286400 1.422068119049 -0.507490515709 0.999889 0.014865 0.000991
0.723090171814 1.344992637634 -0.766588985920 0.999889 0.014865 0.000991
-0.625744640827 0.210864663124 -0.437142729759 -0.991711 -0.106377 -0.072062
-0.609471082687 0.150467306376 -0.487741142511 -0.277726 -0.408242 -0.869601
-0.508221507072 0.168883085251 -0.507359147072 0.001304 -0.434129 -0.900850
-0.555109143257 0.185527697206 -0.394056230783 0.519402 -0.808133 0.277747
-0.579632163048 0.163366049528 -0.356820255518 0.853595 -0.506957 0.119879
-0.572950541973 0.196302786469 -0.260489970446 0.852727 -0.510486 0.110725
-0.572614967823 0.212958037853 -0.216771081090 0.324006 -0.834277 0.446096
-0.604106485844 0.315811038017 -0.038756757975 -0.986927 0.057230 0.150667
-0.625870585442 0.308323293924 -0.196158260107 -0.998124 -0.013616 0.059699
-0.628489375114 0.262250810862 -0.257164955139 -0.999326 0.029724 -0.021524
-0.626633644104 0.261950165033 -0.346262633801 -0.999326 0.029724 -0.021524
-0.628011286259 0.206603914499 -0.360369145870 -0.999326 0.029724 -0.021524
-0.595919907093 0.320013642311 -0.328312486410 -0.215333 0.930293 -0.296962
-0.553533971310 0.438373237848 -0.017731627449 -0.219831 0.915242 -0.337648
-0.447573691607 0.388275951147 -0.150206759572 -0.016694 0.928436 -0.371118
-0.437926918268 0.397174000740 -0.128380805254 -0.016694 0.928436 -0.371118
-0.532429516315 0.396296411753 -0.126621961594 -0.016694 0.928436 -0.371118
-0.417701780796 0.410071969032 -0.097051769495 -0.016694 0.928436 -0.371118
-0.419556140900 0.442719221115 -0.015477526933 -0.016694 0.928436 -0.371118
-0.407765507698 0.451069027185 0.041711635888 -0.001310 0.446689 0.894688
-0.523991227150 0.443437218666 0.045402131975 -0.001311 0.444588 0.895734
-0.595273494720 0.413715034723 0.009585469030 -0.988796 -0.010078 0.148935
-0.576420247555 0.275619924068 -0.091231822968 -0.271773 -0.849100 0.452956
-0.565208792686 0.264933854342 -0.122529655695 0.320776 -0.877193 0.357262
-0.529837906361 0.201276004314 -0.346428424120 0.015773 -0.964588 0.263290
-0.433056950569 0.188718736172 -0.398272603750 0.015773 -0.964588 0.263290
-0.388377100229 0.182140633464 -0.425073683262 0.015773 -0.964588 0.263290
-0.324379831553 0.200079277158 -0.362364798784 0.013316 -0.964790 0.262684
-0.288034886122 0.168340474367 -0.480586051941 0.013316 -0.964790 0.262684
-0.196581602097 0.385827660561 0.048097927123 0.232187 -0.114169 0.965948
-0.219934508204 0.452616453171 0.005906825885 0.191264 0.922319 -0.335775
-0.175344526768 0.445758819580 0.012560952455 0.191082 0.921439 -0.338286
-0.153990328312 0.368497788906 -0.117003723979 0.988410 0.019247 0.150583
-0.143731325865 0.347569763660 -0.176350742579 0.984600 0.087122 0.151569
-0.177360102534 0.194085836411 -0.253685355186 -0.299371 -0.842272 0.448281
-0.195179387927 0.213839784265 -0.240647658706 -0.837183 -0.535391 0.111721
-0.337686717510 0.142358794808 -0.493766874075 0.009179 -0.434034 -0.900850
-0.295535653830 0.204056173563 -0.522907912731 0.006540 -0.427740 -0.903878
-0.409894943237 0.199528202415 -0.521553993225 0.006540 -0.427740 -0.903878
-0.487162321806 0.281141221523 -0.472298175097 -0.013606 0.953663 -0.300571
-0.503352046013 0.316615760326 -0.358834952116 -0.013606 0.953663 -0.300571
-0.446200042963 0.258871108294 -0.544958531857 -0.013606 0.953663 -0.300571
-0.547493338585 0.257797300816 -0.543665111065 -0.013606 0.953663 -0.300571
-0.525320291519 0.350907176733 -0.249006360769 -0.016117 0.953403 -0.301270
-0.452858090401 0.349591732025 -0.256912291050 -0.016117 0.953403 -0.301270
-0.526087522507 0.354989051819 -0.236036345363 -0.016117 0.953403 -0.301270
-0.406873136759 0.298643469810 -0.420675516129 -0.016117 0.953403 -0.301270
-0.273049086332 0.363963007927 -0.219493061304 -0.011133 0.953692 -0.300580
-0.306837588549 0.319136351347 -0.360112637281 -0.011133 0.953692 -0.300580
-0.281663864851 0.366096168756 -0.212382018566 -0.011133 0.953692 -0.300580
-0.334852099419 0.331194788218 -0.320763528347 -0.011133 0.953692 -0.300580
-0.286219179630 0.294505357742 -0.439171195030 -0.013606 0.953663 -0.300571
-0.194740831852 0.315779775381 -0.375826388597 -0.013606 0.953663 -0.300571
-0.239888817072 0.260983109474 -0.547831594944 -0.013606 0.953663 -0.300571
-0.152634054422 0.279807627201 -0.463214665651 0.196547 0.935340 -0.294123
-0.142259433866 0.290135592222 -0.424055725336 0.187352 0.936760 -0.295600
-0.134582594037 0.226652890444 -0.281658262014 0.997993 0.060069 -0.020023
-0.140269100666 0.332155793905 -0.253343522549 0.997993 0.060069 -0.020023
-0.139394730330 0.307439118624 -0.214055687189 0.998124 0.013616 0.059699
-0.175365582108 0.152127236128 -0.430861949921 0.249704 -0.964591 0.084925
-0.141745418310 0.210060358047 -0.482759535313 0.994547 -0.077019 -0.070321
-0.295817196369 0.410323530436 -0.100532785058 -0.011520 0.927973 -0.372469
-0.246426895261 0.417941778898 -0.083042368293 -0.011520 0.927973 -0.372469
-0.292214214802 0.449279665947 -0.003364622360 -0.011520 0.927973 -0.372469
-0.373137354851 0.424514383078 -0.062764890492 -0.011520 0.927973 -0.372469
-0.275024831295 0.430528044701 0.053431820124 -0.011872 0.444542 0.895679
-0.577308595181 0.277681112289 -0.475800722837 -0.224723 0.928571 -0.295390
-0.349479883909 0.355618685484 0.033505454659 -0.003570 -0.243934 0.969785
-0.345921933651 0.423727303743 0.050644133240 -0.003570 -0.243934 0.969785
-0.430655509233 0.375642687082 0.038935597986 0.010765 -0.242803 0.970016
-0.520677089691 0.290523588657 -0.085374779999 0.017103 -0.903820 0.427571
-0.434448122978 0.242169693112 -0.218243196607 0.016103 -0.955037 0.296049
-0.451804697514 0.224253565073 -0.275014460087 0.016103 -0.955037 0.296049
-0.485114574432 0.246798381209 -0.200642764568 0.016103 -0.955037 0.296049
-0.293942928314 0.256841897964 -0.177392929792 0.011115 -0.954619 0.297624
-0.378560602665 0.219135418534 -0.295339465141 0.011115 -0.954619 0.297624
-0.268953710794 0.323846429586 -0.022712022066 0.011785 -0.904845 0.425578
-0.373083472252 0.316224634647 -0.036393627524 0.009156 -0.903860 0.427731
-0.446463674307 0.314092725515 -0.038206748664 0.017103 -0.903820 0.427571
-0.412185698748 0.339398413897 0.014002296142 0.017103 -0.903820 0.427571
-0.312487632036 0.228409424424 -0.268190890551 0.011115 -0.954619 0.297624
-0.609399616718 0.162312343717 -0.305930614471 -0.173040 -0.856326 0.486583
-0.626022815704 0.164305955172 -0.320517838001 -0.209230 -0.974342 0.082949
-0.750546157360 -1.174425005913 -0.487124711275 -0.874782 0.484515 -0.001327
-0.747602641582 -1.136945366859 -0.567893087864 -0.961960 -0.018335 0.272576
-0.756939649582 -1.099683880806 -0.574985980988 -0.962979 0.095914 -0.251935
-0.753427147865 -1.078053236008 -0.753959536552 -0.723620 0.400546 -0.562083
-0.757059693336 -1.113118410110 -0.756176888943 -0.999207 -0.031966 0.023717
-0.756476104259 -1.144720554352 -0.724866688251 -0.748111 -0.576838 -0.328006
-0.747405886650 -1.159421086311 -0.775756418705 -0.720313 -0.265546 0.640808
-0.741834759712 -1.166227579117 -0.739707529545 -0.917888 -0.290544 -0.270307
-0.750159084797 -1.060459017754 -0.542403221130 -0.747303 -0.565746 -0.348525
-0.758486270905 -1.034012675285 -0.577645182610 -0.999889 -0.014865 -0.000991
-0.758124589920 -1.058747768402 -0.719495773315 -0.999889 -0.014865 0.000991
0.071151643991 -1.799550175667 -0.557006835938 0.061951 -0.996657 -0.053256
-0.162133008242 -1.795000314713 -0.582756280899 -0.035000 -0.998035 -0.051970
-0.205763787031 -1.794450521469 -0.563506603241 -0.035000 -0.998035 -0.051970
0.134182572365 -1.797060728073 -0.528676092625 0.061824 -0.996784 -0.050978
-0.049064014107 -1.799604773521 -0.601294338703 0.001028 0.052451 -0.998623
-0.094602152705 -1.798061728477 -0.592875778675 -0.014052 -0.364074 0.931264
0.242403864861 -1.787413120270 -0.592291593552 0.028444 -0.480840 0.876347
0.019988626242 -1.808579325676 -0.490037530661 0.003085 -0.052451 0.998619
-0.415729135275 -0.113589838147 -0.461945235729 0.005367 0.099821 0.994991
-0.459841787815 -0.073948346078 -0.463076382875 0.000981 0.004907 0.999987
-0.523876309395 -0.094577193260 -0.462880760431 0.000981 0.004907 0.999987
-0.390179663897 0.083956040442 -0.466457158327 0.005629 0.158734 0.987305
-0.394123643637 0.086694397032 -0.466873109341 0.005629 0.158734 0.987305
-0.322485804558 0.078238137066 -0.464975744486 -0.010154 0.159082 0.987213
-0.380468249321 0.194438695908 -0.484271883965 -0.010154 0.159082 0.987213
-0.273703426123 0.131466090679 -0.472989708185 -0.010154 0.159082 0.987213
-0.178080767393 0.211248487234 -0.479540556669 -0.143556 0.186750 0.971862
-0.215412572026 0.154154345393 -0.475986987352 -0.010154 0.159082 0.987213
-0.250318169594 0.017202742398 -0.463346064091 -0.000981 0.004907 0.999987
-0.362071782351 0.009053025395 -0.463523238897 -0.000981 0.004907 0.999987
-0.374351173639 0.059862714261 -0.463749378920 -0.000981 0.004907 0.999987
-0.319331645966 -0.120647549629 -0.460988193750 -0.007529 0.100033 0.994956
-0.411310523748 -0.151138365269 -0.458111435175 0.003226 0.102165 0.994762
-0.527573883533 -0.225552782416 -0.497576177120 0.003910 -0.905843 0.423596
-0.616857647896 -0.183669418097 -0.518674612045 -0.999446 -0.023528 0.023528
-0.612037777901 -0.144642934203 -0.559350967407 -0.185871 -0.015008 -0.982460
-0.534513354301 -0.131214678288 -0.568293333054 -0.000985 -0.008867 -0.999960
-0.493951320648 -0.060891821980 -0.568934738636 -0.000985 -0.008867 -0.999960
-0.498558372259 0.024511376396 -0.569633901119 -0.000985 -0.008867 -0.999960
-0.504379153252 -0.170283138752 -0.568008065224 0.000985 -0.008867 -0.999960
-0.421732485294 -0.113742560148 -0.568527460098 0.000985 -0.008867 -0.999960
-0.472345143557 -0.248201504350 -0.545868635178 0.001302 -0.902354 0.430994
-0.365466952324 -0.217366158962 -0.482101827860 0.025232 -0.901712 0.431600
-0.377281039953 -0.009404405951 -0.569485664368 0.000985 -0.008867 -0.999960
-0.276757419109 -0.135516792536 -0.568300604820 0.000985 -0.008867 -0.999960
-0.334585160017 -0.174449265003 -0.567958593369 0.000985 -0.008867 -0.999960
-0.317615360022 0.033086109906 -0.569775760174 0.000987 -0.008884 -0.999960
-0.270080447197 -0.008249819279 -0.569354116917 0.000987 -0.008884 -0.999960
-0.314595341682 -0.045753724873 -0.569122552872 0.000987 -0.008884 -0.999960
-0.177409842610 -0.093953922391 -0.566754341125 0.192997 -0.008090 -0.981166
-0.204854682088 -0.223841696978 -0.504342138767 0.022467 -0.905278 0.424225
-0.196681946516 -0.101732127368 -0.441147208214 -0.830152 0.054782 0.554839
-0.184481665492 -0.034473318607 -0.437243878841 -0.828746 0.130546 0.544185
-0.208051905036 0.002191111445 -0.462187021971 -0.280324 0.003641 0.959898
-0.210760980844 -0.178132414818 -0.454380333424 -0.011882 0.100459 0.994870
-0.175593525171 -0.040220588446 -0.426690399647 0.179801 0.225084 0.957606
-0.157257005572 0.066287517548 -0.455224871635 0.179801 0.225084 0.957606
-0.137371823192 0.115184657276 -0.476201742887 0.999775 0.003002 0.021016
-0.136383906007 0.000807205215 -0.503642201424 0.999775 0.003002 0.021016
-0.135608375072 -0.003301670775 -0.539345920086 0.999672 0.005023 0.025117
-0.141691938043 0.106529891491 -0.566811025143 0.184955 -0.089415 -0.978671
-0.136107146740 0.156719386578 -0.543509542942 0.999775 0.003002 0.021016
-0.177349954844 0.150411471725 -0.577609121799 0.184955 -0.089415 -0.978671
-0.349704265594 0.252684861422 -0.589659094810 0.005336 -0.092843 -0.995666
-0.222600027919 0.150092735887 -0.579517245293 0.005336 -0.092843 -0.995666
-0.208040907979 0.062167190015 -0.571282625198 0.005336 -0.092843 -0.995666
-0.292057514191 0.094636723399 -0.574698626995 0.005336 -0.092843 -0.995666
-0.408131301403 0.069818265736 -0.572749376297 -0.001065 -0.092648 -0.995698
-0.395366936922 0.210213005543 -0.585838854313 -0.001065 -0.092648 -0.995698
-0.510675311089 0.137581259012 -0.578845083714 -0.001065 -0.092648 -0.995698
-0.455774217844 0.193688631058 -0.584177315235 -0.001065 -0.092648 -0.995698
-0.518885135651 0.244754880667 -0.588788688183 -0.001065 -0.092648 -0.995698
-0.588666439056 0.051491774619 -0.567681849003 -0.182901 -0.096974 -0.978337
-0.626526772976 0.181480869651 -0.543753206730 -0.999444 -0.025522 0.021439
-0.626014471054 0.201869338751 -0.494500398636 -0.999444 -0.025522 0.021439
-0.620497286320 0.022588588297 -0.450753182173 -0.999444 -0.025522 0.021439
-0.618641376495 -0.072693496943 -0.478719979525 -0.999444 -0.025522 0.021439
-0.599352657795 -0.114207722247 -0.422733753920 -0.193664 -0.172867 0.965718
-0.581872463226 0.009213102050 -0.439684629440 -0.187739 0.219694 0.957334
-0.469669938087 0.178703695536 -0.481196075678 0.005629 0.158734 0.987305
-0.456479161978 0.229552090168 -0.496382862329 0.025775 0.866867 0.497872
-0.496813714504 0.241899326444 -0.515803158283 0.025810 0.868038 0.495827
-0.488676756620 0.261173635721 -0.562855601311 -0.001050 0.996891 -0.078785
-0.436116069555 0.260008484125 -0.572364747524 0.007631 0.993144 -0.116648
0.257462620735 0.329344511032 -0.027445951477 0.017103 -0.903820 0.427571
0.278348267078 0.304569512606 -0.080713614821 0.017103 -0.903820 0.427571
0.181309401989 0.435512483120 -0.049803204834 -0.219831 0.915242 -0.337648
0.289121478796 0.406115621328 -0.132513582706 -0.016694 0.928436 -0.371118
0.225803494453 0.412295043468 -0.114428475499 -0.016694 0.928436 -0.371118
0.300127744675 0.452793300152 -0.016443151981 -0.016694 0.928436 -0.371118
0.221294984221 0.467898279428 0.024654824287 -0.016694 0.928436 -0.371118
0.261780828238 0.452684044838 0.046249959618 -0.001311 0.444588 0.895734
0.361057788134 0.427421033382 -0.082361511886 -0.011520 0.927973 -0.372469
0.473482489586 0.456843227148 -0.012279256247 -0.011520 0.927973 -0.372469
0.494067758322 0.394339561462 -0.169069468975 -0.011520 0.927973 -0.372469
0.393320739269 0.386351227760 -0.185880154371 -0.011520 0.927973 -0.372469
0.521632790565 0.393272340298 -0.172596916556 -0.011520 0.927973 -0.372469
0.547544658184 0.450035572052 -0.016814205796 0.191264 0.922319 -0.335775
0.569760262966 0.402208536863 0.005852458999 0.988410 0.019247 0.150583
0.569393515587 0.357172220945 0.018744034693 0.984600 0.087122 0.151569
0.564462304115 0.325448989868 -0.035962890834 0.198577 -0.861494 0.467327
0.561451911926 0.325687199831 -0.034002251923 0.296904 -0.840968 0.452351
0.292644917965 0.366983622313 0.034260690212 0.010765 -0.242803 0.970016
0.325175046921 0.344360619783 0.001736092847 0.017103 -0.903820 0.427571
0.391036123037 0.353463590145 0.018942765892 0.009156 -0.903860 0.427731
0.381074965000 0.283827453852 -0.128220260143 0.011785 -0.904845 0.425578
0.459619283676 0.266190201044 -0.182699516416 0.011115 -0.954619 0.297624
0.482804894447 0.272661089897 -0.162812590599 0.011115 -0.954619 0.297624
0.274074286222 0.254737913609 -0.210916057229 0.016103 -0.955037 0.296049
0.342131674290 0.270035922527 -0.165288358927 0.016103 -0.955037 0.296049
0.230705007911 0.232047840953 -0.281708151102 0.016103 -0.955037 0.296049
0.229078039527 0.235684335232 -0.269909501076 0.016103 -0.955037 0.296049
0.174208164215 0.215199559927 -0.256580591202 0.852727 -0.510486 0.110725
0.132056638598 0.344773977995 -0.089623138309 -0.986927 0.057230 0.150667
0.120906382799 0.282901167870 -0.139582395554 -0.998124 -0.013616 0.059699
0.115923576057 0.229119628668 -0.394600570202 -0.999326 0.029724 -0.021524
0.116399794817 0.256807744503 -0.377368748188 -0.999326 0.029724 -0.021524
0.119284376502 0.266667276621 -0.500947773457 -0.999326 0.029724 -0.021524
0.127150729299 0.282316178083 -0.466163337231 -0.215333 0.930293 -0.296962
0.136420369148 0.406140118837 -0.065108165145 -0.988796 -0.010078 0.148935
0.151911333203 0.400929510593 0.036605715752 -0.988796 -0.010078 0.148935
0.142616182566 0.279344320297 -0.487262427807 -0.224723 0.928571 -0.295390
0.184030935168 0.268398314714 -0.543963074684 -0.013606 0.953663 -0.300571
0.177244484425 0.270600259304 -0.536651730537 -0.013606 0.953663 -0.300571
0.208339586854 0.333347141743 -0.338734060526 -0.013606 0.953663 -0.300571
0.239506050944 0.269468486309 -0.543139815331 -0.013606 0.953663 -0.300571
0.236445248127 0.369659394026 -0.224982962012 -0.016117 0.953403 -0.301270
0.181780695915 0.372295051813 -0.213813319802 -0.016117 0.953403 -0.301270
0.319158196449 0.330690503120 -0.352693974972 -0.016117 0.953403 -0.301270
0.486276388168 0.371145993471 -0.231818631291 -0.011133 0.953692 -0.300580
0.366920232773 0.311104774475 -0.417125642300 -0.011133 0.953692 -0.300580
0.371995270252 0.288260161877 -0.489702999592 -0.011133 0.953692 -0.300580
0.529997408390 0.336602270603 -0.343333065510 -0.013606 0.953663 -0.300571
0.483085364103 0.291524022818 -0.484378457069 -0.013606 0.953663 -0.300571
0.489221274853 0.298148632050 -0.463615536690 -0.013606 0.953663 -0.300571
0.471340954304 0.277612894773 -0.528032004833 -0.013606 0.953663 -0.300571
0.569618761539 0.352789551020 -0.280299156904 0.187352 0.936760 -0.295600
0.608499109745 0.216751858592 -0.330333024263 0.997993 0.060069 -0.020023
0.606186985970 0.261472970247 -0.313642203808 0.997993 0.060069 -0.020023
0.604119360447 0.314373314381 -0.262052059174 0.997993 0.060069 -0.020023
0.607668936253 0.244236722589 -0.266186803579 0.998124 0.013616 0.059699
0.575230717659 0.184229254723 -0.292232215405 0.196037 -0.851488 0.486351
0.588121831417 0.248523190618 -0.184885203838 0.196037 -0.851488 0.486351
0.556078195572 0.222060233355 -0.227756887674 -0.299371 -0.842272 0.448281
0.491977214813 0.356649845839 0.023928433657 -0.006517 -0.905831 0.423590
0.445938259363 0.250033855438 -0.234164685011 0.011115 -0.954619 0.297624
0.440717965364 0.247957527637 -0.240636318922 0.011115 -0.954619 0.297624
0.417101085186 0.194715425372 -0.421867132187 0.013316 -0.964790 0.262684
0.291506230831 0.212332785130 -0.350364297628 0.015773 -0.964588 0.263290
0.246076256037 0.200820833445 -0.389924794436 0.015773 -0.964588 0.263290
0.115695595741 0.211200341582 -0.401442110538 -0.991711 -0.106377 -0.072062
0.136877641082 0.192693889141 -0.503703057766 -0.261947 -0.416390 -0.870634
0.260879844427 0.166154384613 -0.500750541687 0.001304 -0.434129 -0.900850
0.551193654537 0.202724516392 -0.515913903713 0.009179 -0.434034 -0.900850
0.386373192072 0.244651511312 -0.537426233292 0.006540 -0.427740 -0.903878
0.301933437586 0.243458047509 -0.537445664406 0.006540 -0.427740 -0.903878
0.580960154533 0.183309704065 -0.497976243496 0.287911 -0.400638 -0.869826
0.550273776054 0.201444193721 -0.331949412823 -0.839221 -0.530876 0.117811
0.545592725277 0.193608075380 -0.398657858372 -0.494915 -0.822776 0.279463
0.474561035633 0.188921749592 -0.445854604244 0.013316 -0.964790 0.262684
0.604550302029 0.176570549607 -0.381867676973 0.237871 -0.967846 0.081807
0.607313096523 0.213834896684 -0.388469964266 0.994547 -0.077019 -0.070321
0.210668534040 -0.169457897544 -0.454723268747 0.007546 0.100248 0.994934
0.209983706474 -0.136163651943 -0.458057582378 0.007546 0.100248 0.994934
0.307812303305 -0.079000957310 -0.463055253029 0.000981 0.004907 0.999987
0.261803090572 0.066775999963 -0.463564187288 0.000981 0.004907 0.999987
0.295880198479 0.043086227030 -0.463528573513 0.000981 0.004907 0.999987
0.357883632183 0.150697261095 -0.475478410721 0.005629 0.158734 0.987305
0.278779864311 0.087699428201 -0.464852362871 0.005629 0.158734 0.987305
0.402379155159 0.204365119338 -0.483683407307 -0.010154 0.159082 0.987213
0.474413871765 0.270826458931 -0.541581809521 -0.051144 0.866681 0.496234
0.595178306103 0.257531881332 -0.511128723621 0.238344 0.889720 0.389345
0.578644812107 0.156408265233 -0.468776404858 0.269488 0.154184 0.950581
0.445819169283 0.076071776450 -0.463625341654 -0.000981 0.004907 0.999987
0.432803213596 -0.044425942004 -0.463168859482 -0.000981 0.004907 0.999987
0.440884381533 -0.090856626630 -0.462755888700 -0.007529 0.100033 0.994956
0.344930917025 -0.117153577507 -0.460536748171 0.003226 0.102165 0.994762
0.191472887993 -0.241805687547 -0.555076837540 0.003910 -0.905843 0.423596
0.174654051661 -0.230101600289 -0.530093193054 -0.075151 -0.905911 0.416746
0.122680157423 -0.068765215576 -0.552763164043 -0.999446 -0.023528 0.023528
0.159153968096 0.001050615567 -0.566711008549 -0.185871 -0.015008 -0.982460
0.157258436084 -0.190703645349 -0.563687801361 -0.193427 -0.012741 -0.981032
0.194380849600 -0.051316983998 -0.568843305111 -0.000985 -0.008867 -0.999960
0.197441637516 -0.027038402855 -0.569048523903 -0.000985 -0.008867 -0.999960
0.182460337877 -0.157976433635 -0.567943930626 -0.000985 -0.008867 -0.999960
0.295661866665 -0.085311561823 -0.568688929081 0.000985 -0.008867 -0.999960
0.219525083899 -0.191011965275 -0.567717909813 0.000985 -0.008867 -0.999960
0.336995512247 -0.218329757452 -0.506178677082 0.001302 -0.902354 0.430994
0.192945390940 -0.245856150985 -0.563639402390 0.001302 -0.902354 0.430994
0.370602190495 -0.240870177746 -0.553417980671 0.025232 -0.901712 0.431600
0.454133033752 -0.177033185959 -0.567822873592 0.000985 -0.008867 -0.999960
0.535928666592 -0.241279542446 -0.567210972309 0.000985 -0.008867 -0.999960
0.542823433876 -0.194912761450 -0.567609846592 0.000987 -0.008884 -0.999960
0.396920204163 -0.000005964655 -0.569463312626 0.000987 -0.008884 -0.999960
0.583779692650 -0.165643900633 -0.562492609024 0.192997 -0.008090 -0.981166
0.569193422794 -0.225955128670 -0.535422503948 0.101513 -0.902494 0.418568
0.555521547794 -0.231803163886 -0.545327603817 0.022467 -0.905278 0.424225
0.441319614649 -0.213877141476 -0.501344859600 0.022467 -0.905278 0.424225
0.555192470551 0.031318701804 -0.455180644989 -0.828746 0.130546 0.544185
0.538093686104 0.023174844682 -0.461256206036 -0.280324 0.003641 0.959898
0.571678340435 0.061637118459 -0.448945492506 0.179801 0.225084 0.957606
0.606344282627 0.149676144123 -0.520710229874 0.999775 0.003002 0.021016
0.606439709663 0.006418751553 -0.500725388527 0.999775 0.003002 0.021016
0.605787098408 -0.108096197248 -0.450055778027 0.999775 0.003002 0.021016
0.604960441589 -0.098866268992 -0.426540970802 0.198836 -0.167646 0.965588
0.607870042324 -0.168659299612 -0.526753008366 0.999672 0.005023 0.025117
0.607117414474 -0.169615954161 -0.495546013117 0.999672 0.005023 0.025117
0.581419169903 -0.050663899630 -0.563905656338 0.187688 -0.008060 -0.982196
0.585802733898 0.169157207012 -0.574505805969 0.184955 -0.089415 -0.978671
0.606279730797 0.227900311351 -0.531030833721 0.999775 0.003002 0.021016
0.591347694397 0.275204986334 -0.553523123264 0.257789 0.959907 -0.110111
0.571402609348 0.207902222872 -0.580811977386 0.184955 -0.089415 -0.978671
0.554358422756 0.255791813135 -0.588156759739 0.005336 -0.092843 -0.995666
0.493545323610 0.136861622334 -0.577410221100 0.005336 -0.092843 -0.995666
0.469257533550 0.136880338192 -0.577528357506 0.005336 -0.092843 -0.995666
0.367765605450 0.149507269263 -0.579182684422 0.005336 -0.092843 -0.995666
0.236672520638 0.118562221527 -0.576076626778 -0.001065 -0.092648 -0.995698
0.259407222271 0.072400189936 -0.571827113628 -0.001065 -0.092648 -0.995698
0.178887397051 0.115631908178 -0.575681567192 -0.001065 -0.092648 -0.995698
0.169606536627 0.147399827838 -0.578614413738 -0.001065 -0.092648 -0.995698
0.134839296341 0.196514666080 -0.577228784561 -0.182901 -0.096974 -0.978337
0.161219567060 0.075808688998 -0.570307672024 -0.182901 -0.096974 -0.978337
0.117101602256 0.161595031619 -0.545001685619 -0.999444 -0.025522 0.021439
0.118788160384 0.147343546152 -0.482142388821 -0.999444 -0.025522 0.021439
0.120981447399 0.037932083011 -0.511296093464 -0.999444 -0.025522 0.021439
0.123969800770 -0.054199200124 -0.481530547142 -0.999444 -0.025522 0.021439
0.181912124157 -0.014309115708 -0.457894831896 0.825642 0.153227 0.542989
0.187512978911 -0.092189922929 -0.445068627596 0.828390 0.078419 0.554636
0.289079755545 0.207954406738 -0.484252750874 0.005629 0.158734 0.987305
0.245120093226 0.268597394228 -0.543443381786 0.025810 0.868038 0.495827
0.168950766325 0.265996813774 -0.537757694721 -0.001333 0.867668 0.497143
0.405307561159 -0.184299945831 -0.456891000271 0.022470 -0.429568 0.902755
-0.253993183374 1.112287521362 0.191223919392 -0.009594 0.582507 0.812769
-0.248362809420 1.144673585892 0.131993740797 -0.013990 0.934819 0.354850
-0.213588759303 1.106815934181 0.160228118300 0.999889 0.014865 -0.000991
-0.274484992027 1.069346666336 0.196081414819 0.006625 -0.467756 0.883833
-0.328979313374 1.147044420242 0.122623637319 -0.013990 0.934819 0.354850
-0.348729729652 1.151527881622 0.104990437627 -0.013460 0.960555 -0.277765
-0.428556174040 1.034693360329 0.152354210615 0.013562 -0.955504 0.294665
-0.458891034126 1.113932490349 0.129927426577 -0.999889 -0.014865 0.000991
-0.377916306257 1.136545777321 0.054649963975 -0.013460 0.960555 -0.277765
-0.244425162673 1.077867865562 0.048811890185 0.003670 -0.294858 -0.955534
-0.383408546448 1.092969775200 0.043531548232 0.003670 -0.294858 -0.955534
-0.310935854912 1.057034969330 0.065766468644 0.012169 -0.858620 -0.512468
-0.420971333981 1.033545613289 0.102459661663 0.012169 -0.858620 -0.512468
-0.777928709984 -0.796563565731 -0.232389912009 -0.987087 -0.081373 0.137980
-0.376827687025 1.756731748581 -0.613225221634 -0.342251 0.061631 -0.937585
-0.367199718952 1.781172394753 -0.627991259098 -0.707106 0.685725 0.172577
-0.400284051895 1.736527681351 -0.609940171242 -0.341437 -0.069869 0.937304
-0.407621175051 1.771677136421 -0.637489914894 -0.984846 -0.003400 -0.173396
-0.511242449284 -1.036177515984 -0.442491948605 -0.999889 -0.014865 0.000991
-0.512917101383 -0.921629071236 -0.464470952749 -0.999889 -0.014865 0.000991
-0.511258304119 -1.035091400146 -0.442098885775 -0.999889 -0.014865 0.000991
-0.506794393063 -1.340423345566 -0.526460051537 -0.999889 -0.014865 -0.000991
-0.508086562157 -1.252041339874 -0.495690464973 -0.999889 -0.014865 -0.000991
-0.505048930645 -1.459816098213 -0.496636688709 -0.999889 -0.014865 -0.000991
-0.508426606655 -1.228779077530 -0.523745477200 -0.999889 -0.014865 -0.000991
-0.505011975765 -1.462336897850 -0.557798564434 -0.999889 -0.014865 -0.000991
-0.510312736034 -1.099765539169 -0.550616919994 -0.999889 -0.014865 0.000991
-0.512182712555 -0.971860706806 -0.561085045338 -0.999889 -0.014865 0.000991
-0.511403858662 -1.025135874748 -0.565674662590 -0.999889 -0.014865 0.000991
-0.513018548489 -0.914691865444 -0.614937186241 -0.999889 -0.014865 0.000991
-0.510670363903 -1.075306534767 -0.651397883892 -0.999889 -0.014865 0.000991
-0.510358452797 -1.096643328667 -0.639444291592 -0.999889 -0.014865 0.000991
-0.212967634201 -0.831565380096 -0.673934102058 0.001047 -0.072214 -0.997389
-0.307491570711 -0.978392958641 -0.663395762444 0.001047 -0.072214 -0.997389
0.022470235825 -0.871896922588 -0.670762479305 0.001047 -0.072214 -0.997389
0.459073394537 -0.833050847054 -0.673114597797 0.001047 -0.072214 -0.997389
-0.184172213078 -1.233855724335 -0.644755303860 0.001047 -0.072214 -0.997389
-0.501224100590 -1.286337971687 -0.641288518906 0.001047 -0.072214 -0.997389
-0.381762981415 -1.304441213608 -0.639850318432 0.001047 -0.072214 -0.997389
0.089135438204 -0.987349212170 -0.662326633930 0.001047 -0.072214 -0.997389
-0.467395335436 -1.455309271812 -0.629009723663 0.001047 -0.072214 -0.997389
0.199703529477 -0.905682325363 -0.668126761913 0.001047 -0.072214 -0.997389
-0.434259444475 -0.881229817867 -0.670570075512 0.001047 -0.072214 -0.997389
-0.081692636013 -1.162483572960 -0.649818122387 0.001047 -0.072214 -0.997389
-0.467217296362 -1.128032684326 -0.652722656727 0.001047 -0.072214 -0.997389
-0.201005667448 -0.903556942940 -0.668705224991 0.001047 -0.072214 -0.997389
-0.466846257448 -1.461950659752 -0.628527939320 0.001047 -0.072214 -0.997389
0.119956076145 -0.843758106232 -0.672698020935 0.001047 -0.072214 -0.997389
-0.316985458136 -1.339956045151 -0.637208402157 0.001047 -0.072214 -0.997389
-0.229810744524 -1.249651193619 -0.643659174442 0.001047 -0.072214 -0.997389
-0.446260482073 -1.174934983253 -0.649302124977 0.001047 -0.072214 -0.997389
-0.151405274868 -1.132065057755 -0.652095973492 0.001047 -0.072214 -0.997389
0.305106222630 -0.875972628593 -0.670167744160 0.001047 -0.072214 -0.997389
-0.182985663414 -1.088637113571 -0.655276000500 0.001047 -0.072214 -0.997389
-0.474318623543 -1.338815331459 -0.637457728386 0.001047 -0.072214 -0.997389
-0.503766596317 -1.031511425972 -0.659754872322 0.001047 -0.072214 -0.997389
-0.186862587929 -1.183341860771 -0.648418188095 0.001047 -0.072214 -0.997389
-0.022396251559 -1.090177178383 -0.654994308949 0.001047 -0.072214 -0.997389
-0.390138179064 -1.252987504005 -0.643587291241 0.001047 -0.072214 -0.997389
-0.232765108347 -1.038676977158 -0.658948659897 0.001047 -0.072214 -0.997389
-0.012585267425 -1.035264372826 -0.658962666988 0.001047 -0.072214 -0.997389
-0.301063299179 -1.148270487785 -0.651080310345 0.001047 -0.072214 -0.997389
-0.368207633495 -1.064845919609 -0.657196044922 0.001047 -0.072214 -0.997389
-0.282719403505 -1.135422825813 -0.651991724968 0.001047 -0.072214 -0.997389
-0.418692648411 -1.329142689705 -0.638099670410 0.001047 -0.072214 -0.997389
-0.369091808796 -1.126243114471 -0.652748346329 0.001047 -0.072214 -0.997389
-0.340017616749 -1.041595816612 -0.658850789070 0.001047 -0.072214 -0.997389
0.102639630437 -1.267202615738 -0.642035305500 0.001047 -0.072214 -0.997389
-0.015218885615 -1.465737223625 -0.627775192261 0.001047 -0.072214 -0.997389
0.222745195031 -1.118200540543 -0.652704179287 0.001047 -0.072214 -0.997389
0.286031454802 -1.325270652771 -0.637633681297 0.001047 -0.072214 -0.997389
-0.238717794418 -1.394655585289 -0.633162200451 0.001047 -0.072214 -0.997389
-0.122231513262 -1.324418663979 -0.638127863407 0.001047 -0.072214 -0.997389
0.347586005926 -1.485423564911 -0.625964462757 0.001047 -0.072214 -0.997389
0.390198081732 -1.035454869270 -0.658522188663 0.001047 -0.072214 -0.997389
-0.130459547043 -1.273649811745 -0.641815125942 0.001047 -0.072214 -0.997389
0.439060539007 -1.319394111633 -0.637897372246 0.001047 -0.072214 -0.997389
0.350108861923 -1.028347134590 -0.659079670906 0.001047 -0.072214 -0.997389
0.270747900009 -1.129356980324 -0.651844978333 0.001047 -0.072214 -0.997389
0.356782615185 -1.345460057259 -0.636095881462 0.001047 -0.072214 -0.997389
-0.189980879426 -1.400915622711 -0.632656991482 0.001047 -0.072214 -0.997389
0.228853270411 -1.459552526474 -0.627964735031 0.001047 -0.072214 -0.997389
0.135246336460 -1.180645585060 -0.648272335529 0.001047 -0.072214 -0.997389
0.319496512413 -1.026972293854 -0.659211695194 0.001047 -0.072214 -0.997389
0.040028095245 -1.387293934822 -0.633400321007 0.001047 -0.072214 -0.997389
0.373057305813 -0.937357306480 -0.665648102760 0.001047 -0.072214 -0.997389
-0.300239384174 -1.456714630127 -0.628730833530 0.001047 -0.072214 -0.997389
0.127141311765 -1.350515484810 -0.635972857475 0.001047 -0.072214 -0.997389
0.124420069158 -1.197461605072 -0.647065401077 0.001047 -0.072214 -0.997389
0.403408497572 -1.289012551308 -0.640136480331 0.001047 -0.072214 -0.997389
0.453653752804 -1.455232262611 -0.628039658070 0.001047 -0.072214 -0.997389
0.467004686594 -1.142807126045 -0.650662541389 0.001047 -0.072214 -0.997389
0.275763690472 -0.994411885738 -0.661617219448 0.001047 -0.072214 -0.997389
0.411419153214 -1.018458366394 -0.659731209278 0.001047 -0.072214 -0.997389
0.388320922852 -1.071770787239 -0.655892908573 0.001047 -0.072214 -0.997389
0.369972974062 -1.276863813400 -0.641052126884 0.001047 -0.072214 -0.997389
0.283118575811 -1.004605293274 -0.660870850086 0.001047 -0.072214 -0.997389
0.345741093159 -1.386474728584 -0.633135855198 0.001047 -0.072214 -0.997389
0.305335640907 -1.331025004387 -0.637196302414 0.001047 -0.072214 -0.997389
-0.098630487919 -1.398642778397 -0.632724940777 0.001047 -0.072214 -0.997389
0.330527603626 -1.409902691841 -0.631454467773 0.001047 -0.072214 -0.997389
-0.210953950882 -1.379129648209 -0.634257733822 0.001047 -0.072214 -0.997389
0.066958695650 -1.551914930344 -0.658129870892 -0.006784 0.538618 -0.842523
-0.130832850933 -1.532491803169 -0.643874764442 -0.006784 0.538618 -0.842523
-0.050632685423 -1.555791616440 -0.659508228302 -0.006784 0.538618 -0.842523
0.239659935236 -1.615248680115 -0.700201749802 -0.006784 0.538618 -0.842523
0.365657687187 -1.565646886826 -0.669691920280 -0.006784 0.538618 -0.842523
0.039661794901 -1.519905567169 -0.637426733971 -0.006784 0.538618 -0.842523
-0.170196473598 -1.509645342827 -0.628912270069 -0.006784 0.538618 -0.842523
0.084589719772 -1.517133712769 -0.636075615883 -0.006784 0.538618 -0.842523
0.445011615753 -1.520098328590 -0.641335606575 -0.006784 0.538618 -0.842523
0.389870792627 -1.584145426750 -0.681735277176 -0.006784 0.538618 -0.842523
0.383862644434 -1.641098022461 -0.719146192074 -0.088240 0.597428 -0.797053
0.499943226576 -1.560478329659 -0.671545624733 -0.088240 0.597428 -0.797053
0.583589613438 -1.557847738266 -0.676684141159 -0.009678 0.620780 -0.783925
0.601725518703 -1.470497369766 -0.531513571739 -0.013072 0.973256 -0.229351
0.742055535316 -1.459358930588 -0.492864221334 -0.013072 0.973256 -0.229351
0.694651007652 -1.469891309738 -0.534714579582 -0.013072 0.973256 -0.229351
0.598173320293 -1.372409582138 -0.380292624235 -0.009720 0.687365 -0.726247
0.536926388741 -1.382223963737 -0.388740092516 -0.009720 0.687365 -0.726247
0.656227767467 -1.308693408966 -0.333233028650 -0.003470 0.200117 -0.979766
0.576036036015 -1.305080533028 -0.332251280546 -0.003470 0.200117 -0.979766
0.671617746353 -1.345355033875 -0.355685263872 -0.009720 0.687365 -0.726247
0.676203370094 -1.389691233635 -0.397741228342 -0.009720 0.687365 -0.726247
0.761602222919 -1.358513236046 -0.369393944740 -0.009720 0.687365 -0.726247
0.724322676659 -1.258522629738 -0.321182727814 0.035530 0.253609 -0.966654
0.771899163723 -1.229926705360 -0.311987489462 0.035530 0.253609 -0.966654
0.586511909962 -1.147805929184 -0.304805040359 0.042477 -0.335951 -0.940921
0.726092994213 -1.154513239861 -0.296175211668 0.042477 -0.335951 -0.940921
0.528039097786 -1.091349482536 -0.375531077385 0.999889 0.014865 -0.000991
0.527774274349 -1.073235750198 -0.386657476425 0.999889 0.014865 -0.000991
0.527610361576 -1.062024235725 -0.395162910223 0.999889 0.014865 0.000991
0.527126729488 -1.028946042061 -0.461946368217 0.999889 0.014865 0.000991
0.529454290867 -1.188149213791 -0.449573516846 0.999889 0.014865 0.000991
0.533117711544 -1.438728332520 -0.456967562437 0.999889 0.014865 0.000991
0.633670032024 -0.948466241360 -0.386761248112 0.070471 -0.783814 -0.616984
0.537190198898 -0.891566395760 -0.469855427742 0.070471 -0.783814 -0.616984
0.582526743412 -0.875319302082 -0.489746421576 -0.006714 -0.860773 -0.508944
0.711499989033 -0.924081206322 -0.408978253603 -0.006714 -0.860773 -0.508944
0.673346817493 -0.894902229309 -0.457837432623 -0.006714 -0.860773 -0.508944
0.684541046619 -0.845308601856 -0.545307636261 0.089375 -0.978225 -0.187320
0.632737100124 -0.840898394585 -0.591830253601 0.013406 -0.961575 -0.274214
0.530117571354 -0.851485431194 -0.559927463531 0.013406 -0.961575 -0.274214
0.527230203152 -1.036021590233 -0.572499215603 0.999889 0.014865 -0.000991
0.527216017246 -1.035051226616 -0.568413317204 0.999889 0.014865 -0.000991
0.525530040264 -0.919730246067 -0.575263023376 0.999889 0.014865 -0.000991
0.525878608227 -0.943573117256 -0.626418232918 0.999889 0.014865 -0.000991
0.527204513550 -1.034263610840 -0.568854570389 0.999889 0.014865 -0.000991
0.531361341476 -1.318594455719 -0.622036814690 0.999889 0.014865 -0.000991
0.529614984989 -1.199138998985 -0.548925101757 0.999889 0.014865 -0.000991
0.525364995003 -0.908441007137 -0.506481289864 0.999889 0.014865 -0.000991
0.527359366417 -1.044857501984 -0.534582793713 0.999889 0.014865 -0.000991
0.525703728199 -0.931610226631 -0.506013453007 0.999889 0.014865 -0.000991
0.533033251762 -1.432950854301 -0.570269703865 0.999889 0.014865 -0.000991
0.634946763515 -0.789989233017 -0.672151803970 -0.001042 0.069839 -0.997558
0.671045839787 -0.618038773537 -0.669367611408 0.023109 0.005024 -0.999720
0.669346034527 -0.226341634989 -0.667068064213 0.023109 0.005024 -0.999720
0.711684167385 -0.663615822792 -0.668674886227 0.023109 0.005024 -0.999720
0.692043304443 -0.246604263783 -0.666650056839 0.023109 0.005024 -0.999720
0.719271779060 -0.267156183720 -0.666126251221 0.023109 0.005024 -0.999720
0.673697352409 -0.142978489399 -0.666466712952 0.023109 0.005024 -0.999720
0.629885375500 -0.516877412796 -0.669740736485 0.023109 0.005024 -0.999720
0.661220312119 -0.546974837780 -0.669176399708 0.023109 0.005024 -0.999720
0.701438128948 -0.115684814751 -0.665644884109 0.023109 0.005024 -0.999720
0.589498102665 0.394913613796 -0.674552202225 0.072364 -0.005244 -0.997364
0.514706015587 0.609210729599 -0.680830359459 0.072364 -0.005244 -0.997364
0.546462059021 -0.134363472462 -0.675377249718 0.072364 -0.005244 -0.997364
0.547128021717 0.555615782738 -0.678276717663 0.072364 -0.005244 -0.997364
0.648500919342 0.254478603601 -0.669721722603 0.072364 -0.005244 -0.997364
0.528716444969 0.034307628870 -0.677370190620 0.072364 -0.005244 -0.997364
0.524527609348 -0.716052293777 -0.674465417862 0.072364 -0.005244 -0.997364
0.585951447487 -0.447276830673 -0.671209216118 0.072364 -0.005244 -0.997364
0.647461175919 0.062183663249 -0.668974876404 0.072364 -0.005244 -0.997364
0.664369225502 -0.062578819692 -0.667229592800 0.072364 -0.005244 -0.997364
0.628115534782 0.154000252485 -0.670754253864 0.072364 -0.005244 -0.997364
0.561459481716 -0.509177744389 -0.672700941563 0.072364 -0.005244 -0.997364
0.571019232273 0.021257072687 -0.674281179905 0.072364 -0.005244 -0.997364
0.549507319927 -0.346343994141 -0.674253463745 0.072364 -0.005244 -0.997364
0.530173897743 0.328906297684 -0.678524017334 0.072364 -0.005244 -0.997364
0.528937399387 0.871436357498 -0.680930078030 0.072364 -0.005244 -0.997364
0.521099686623 -0.472163617611 -0.675752937794 0.072364 -0.005244 -0.997364
0.574650883675 0.682119548321 -0.676843583584 0.072364 -0.005244 -0.997364
0.575938463211 0.626760959625 -0.676514804363 0.072364 -0.005244 -0.997364
0.418082982302 -0.196569442749 -0.677378058434 0.000981 -0.004907 -0.999987
-0.088264659047 -0.059041082859 -0.678148865700 0.000981 -0.004907 -0.999987
0.257767438889 -0.654095470905 -0.674957156181 0.000981 -0.004907 -0.999987
0.449681431055 -0.627576470375 -0.675083279610 0.000981 -0.004907 -0.999987
0.393054246902 0.186480998993 -0.679417312145 0.000981 -0.004907 -0.999987
0.463559925556 -0.209079205990 -0.677308022976 0.000981 -0.004907 -0.999987
0.412837922573 -0.174771964550 -0.677494406700 0.000981 -0.004907 -0.999987
0.375206440687 -0.298332750797 -0.676840186119 0.000981 -0.004907 -0.999987
0.026250850409 -0.380881249905 -0.676428258419 0.000981 -0.004907 -0.999987
0.487339407206 0.431781351566 -0.680714607239 0.000981 -0.004907 -0.999987
0.269603073597 -0.157941102982 -0.677595078945 0.000981 -0.004907 -0.999987
0.002479274292 -0.358285367489 -0.676550269127 0.000981 -0.004907 -0.999987
0.291165679693 -0.725580036640 -0.674574375153 0.000981 -0.004907 -0.999987
0.271096885204 -0.015094816685 -0.678354680538 0.000981 -0.004907 -0.999987
0.295700430870 0.422242105007 -0.680678784847 0.000981 -0.004907 -0.999987
0.426300972700 -0.668787777424 -0.674865901470 0.000981 -0.004907 -0.999987
0.277249306440 -0.091520369053 -0.677947700024 0.000981 -0.004907 -0.999987
0.218580737710 0.169643521309 -0.679341316223 0.000981 -0.004907 -0.999987
0.168693751097 -0.022711694241 -0.678322136402 0.000981 -0.004907 -0.999987
0.350425034761 0.368339776993 -0.680387854576 0.000981 -0.004907 -0.999987
-0.110818631947 -0.284467697144 -0.676951706409 0.000981 -0.004907 -0.999987
0.351528406143 -0.389928758144 -0.676354825497 0.000981 -0.004907 -0.999987
-0.242338225245 -0.702358961105 -0.674739360809 0.000981 -0.004907 -0.999987
0.025265660137 -0.510960936546 -0.675736486912 0.000981 -0.004907 -0.999987
0.365909487009 -0.149304866791 -0.677633523941 0.000981 -0.004907 -0.999987
0.190381005406 0.156402409077 -0.679273068905 0.000981 -0.004907 -0.999987
0.501463651657 0.070377111435 -0.678791344166 0.000981 -0.004907 -0.999987
0.040443554521 0.137534141541 -0.679184377193 0.000981 -0.004907 -0.999987
-0.490774929523 -0.799204707146 -0.674243569374 0.000981 -0.004907 -0.999987
-0.093211196363 -0.512069880962 -0.675739824772 0.000981 -0.004907 -0.999987
-0.326710700989 -0.611305415630 -0.675230205059 0.000981 -0.004907 -0.999987
0.327400743961 -0.553721785545 -0.675485551357 0.000981 -0.004907 -0.999987
0.287474274635 -0.138999342918 -0.677694439888 0.000981 -0.004907 -0.999987
0.453705310822 0.616632461548 -0.681700348854 0.000981 -0.004907 -0.999987
0.329811364412 0.456602096558 -0.680858850479 0.000981 -0.004907 -0.999987
-0.324879616499 -0.752454638481 -0.674479305744 0.000981 -0.004907 -0.999987
0.424583464861 0.253724873066 -0.679772496223 0.000981 -0.004907 -0.999987
0.210021272302 -0.209703445435 -0.677324414253 0.000981 -0.004907 -0.999987
0.064046666026 -0.235819101334 -0.677196860313 0.000981 -0.004907 -0.999987
0.032076168805 -0.464820176363 -0.675981342793 0.000981 -0.004907 -0.999987
0.015614812262 -0.203779280186 -0.677371025085 0.000981 -0.004907 -0.999987
-0.005671725608 -0.468876600266 -0.675962746143 0.000981 -0.004907 -0.999987
0.407924473286 -0.044864594936 -0.678185701370 0.000981 -0.004907 -0.999987
0.488154828548 -0.132408082485 -0.677713871002 0.000981 -0.004907 -0.999987
0.444169253111 0.547328293324 -0.681332528591 0.000981 -0.004907 -0.999987
0.488483726978 -0.358553856611 -0.676511049271 0.000981 -0.004907 -0.999987
0.444403231144 0.004121065140 -0.678443431854 0.000981 -0.004907 -0.999987
0.488970249891 -0.329525738955 -0.676665425301 0.000981 -0.004907 -0.999987
0.314798861742 -0.671353757381 -0.674860894680 0.000981 -0.004907 -0.999987
0.433917820454 0.694412350655 -0.682115614414 0.000981 -0.004907 -0.999987
0.411707192659 -0.155034840107 -0.677599489689 0.000981 -0.004907 -0.999987
0.038598101586 -0.044706165791 -0.678215265274 0.000981 -0.004907 -0.999987
0.207074597478 -0.710680902004 -0.674660146236 0.000981 -0.004907 -0.999987
-0.009457692504 -0.529043197632 -0.675643026829 0.000981 -0.004907 -0.999987
0.388990104198 -0.435514926910 -0.676109492779 0.000981 -0.004907 -0.999987
0.339143782854 -0.666184782982 -0.674886524677 0.000981 -0.004907 -0.999987
0.307065457106 0.438060581684 -0.680762052536 0.000981 -0.004907 -0.999987
0.426105558872 0.236499726772 -0.679680764675 0.000981 -0.004907 -0.999987
-0.208105832338 -0.461259603500 -0.676019012928 0.000981 -0.004907 -0.999987
-0.280083298683 -0.623306870461 -0.675162732601 0.000981 -0.004907 -0.999987
-0.234218046069 -0.806032419205 -0.674187302589 0.000981 -0.004907 -0.999987
0.231841310859 -0.493786156178 -0.675811767578 0.000981 -0.004907 -0.999987
-0.038852408528 -0.368694335222 -0.676498115063 0.000981 -0.004907 -0.999987
0.384130805731 -0.207540452480 -0.677322328091 0.000981 -0.004907 -0.999987
0.316618382931 -0.148551404476 -0.677641332150 0.000981 -0.004907 -0.999987
0.294193774462 -0.565591573715 -0.675425052643 0.000981 -0.004907 -0.999987
0.377837419510 -0.395495563745 -0.676323175430 0.000981 -0.004907 -0.999987
-0.320642739534 -0.714289665222 -0.674681961536 0.000981 -0.004907 -0.999987
-0.051744803786 -0.230112612247 -0.677236199379 0.000981 -0.004907 -0.999987
0.342785507441 0.509398043156 -0.681138634682 0.000981 -0.004907 -0.999987
0.128268122673 0.118095040321 -0.679074168205 0.000981 -0.004907 -0.999987
0.208671689034 -0.399418175220 -0.676315486431 0.000981 -0.004907 -0.999987
-0.056304447353 -0.461893051863 -0.676003813744 0.000981 -0.004907 -0.999987
0.492922693491 -0.184557974339 -0.677436113358 0.000981 -0.004907 -0.999987
0.461282014847 0.186269223690 -0.679410874844 0.000981 -0.004907 -0.999987
0.364492475986 0.648200571537 -0.681875228882 0.000981 -0.004907 -0.999987
0.477931827307 -0.344120532274 -0.676588654518 0.000981 -0.004907 -0.999987
0.235498383641 -0.200467288494 -0.677371561527 0.000981 -0.004907 -0.999987
0.048264812678 0.121692240238 -0.679099500179 0.000981 -0.004907 -0.999987
0.187760218978 0.379178822041 -0.680458128452 0.000981 -0.004907 -0.999987
0.088847100735 -0.231754601002 -0.677216529846 0.000981 -0.004907 -0.999987
0.164313495159 0.356135785580 -0.680337429047 0.000981 -0.004907 -0.999987
0.488139748573 -0.682604134083 -0.674787580967 0.000981 -0.004907 -0.999987
-0.388207972050 -0.709991693497 -0.674710094929 0.000981 -0.004907 -0.999987
0.220182165504 0.384925246239 -0.680486202240 0.000981 -0.004907 -0.999987
0.447474062443 -0.098861396313 -0.677895426750 0.000981 -0.004907 -0.999987
0.437357038260 0.427345514297 -0.680694878101 0.000981 -0.004907 -0.999987
0.079462520778 -0.382181763649 -0.676417231560 0.000981 -0.004907 -0.999987
-0.046678040177 -0.740631997585 -0.674520552158 0.000981 -0.004907 -0.999987
0.219366610050 -0.120305776596 -0.677799105644 0.000981 -0.004907 -0.999987
-0.043109491467 -0.079916119576 -0.678034365177 0.000981 -0.004907 -0.999987
0.392016559839 -0.506500244141 -0.675731718540 0.000981 -0.004907 -0.999987
0.071606516838 -0.137845575809 -0.677717328072 0.000981 -0.004907 -0.999987
0.369096875191 -0.375246495008 -0.676431596279 0.000981 -0.004907 -0.999987
0.476994425058 0.076904535294 -0.678828001022 0.000981 -0.004907 -0.999987
-0.059473067522 0.202572613955 -0.679538071156 0.000981 -0.004907 -0.999987
-0.386447489262 -0.014848068357 -0.678407132626 0.000981 -0.004907 -0.999987
-0.027455007657 0.095435462892 -0.678965747356 0.000981 -0.004907 -0.999987
-0.398170709610 0.980794489384 -0.683703422546 0.000981 -0.004907 -0.999987
0.303617477417 0.688446223736 -0.682093977928 0.000981 -0.004907 -0.999987
-0.206614881754 0.415749490261 -0.680683314800 0.000981 -0.004907 -0.999987
0.250509381294 0.587686717510 -0.681562244892 0.000981 -0.004907 -0.999987
0.218321695924 0.731246411800 -0.682328283787 0.000981 -0.004907 -0.999987
0.452210247517 0.977953076363 -0.683622181416 0.000981 -0.004907 -0.999987
-0.374704182148 0.745445013046 -0.682449877262 0.000981 -0.004907 -0.999987
0.329785525799 0.971821844578 -0.683599114418 0.000981 -0.004907 -0.999987
-0.289260923862 0.949634134769 -0.683529257774 0.000981 -0.004907 -0.999987
-0.423726201057 -0.443245530128 -0.676131546497 0.000981 -0.004907 -0.999987
-0.511938929558 -0.741068959236 -0.674554407597 0.000981 -0.004907 -0.999987
-0.402648210526 0.541025340557 -0.681364834309 0.000981 -0.004907 -0.999987
-0.129114717245 0.884903967381 -0.683172523975 0.000981 -0.004907 -0.999987
-0.131346479058 0.148659482598 -0.679256916046 0.000981 -0.004907 -0.999987
-0.276478976011 -0.372044593096 -0.676498770714 0.000981 -0.004907 -0.999987
-0.107917487621 0.369201570749 -0.680428087711 0.000981 -0.004907 -0.999987
-0.488499194384 -0.664780437946 -0.674958348274 0.000981 -0.004907 -0.999987
-0.012669801712 0.548084974289 -0.681372046471 0.000981 -0.004907 -0.999987
-0.399460166693 0.904882669449 -0.683299779892 0.000981 -0.004907 -0.999987
0.277107715607 0.944393038750 -0.683457314968 0.000981 -0.004907 -0.999987
-0.510367870331 -0.034883789718 -0.678310215473 0.000981 -0.004907 -0.999987
-0.425549864769 0.864693343639 -0.683088064194 0.000981 -0.004907 -0.999987
0.388045072556 0.881434798241 -0.683113873005 0.000981 -0.004907 -0.999987
0.266485214233 0.832163989544 -0.682861268520 0.000981 -0.004907 -0.999987
-0.418243765831 0.558053553104 -0.681456625462 0.000981 -0.004907 -0.999987
-0.267641812563 -0.137723654509 -0.677744388580 0.000981 -0.004907 -0.999987
-0.284519731998 0.883311927319 -0.683176100254 0.000981 -0.004907 -0.999987
-0.501535117626 0.392512023449 -0.680582642555 0.000981 -0.004907 -0.999987
-0.076297760010 0.479557007551 -0.681012511253 0.000981 -0.004907 -0.999987
0.052251130342 0.688430845737 -0.682113468647 0.000981 -0.004907 -0.999987
-0.366875201464 -0.498279541731 -0.675834417343 0.000981 -0.004907 -0.999987
-0.455462515354 -0.399723947048 -0.676365494728 0.000981 -0.004907 -0.999987
0.098719164729 0.397706925869 -0.680563628674 0.000981 -0.004907 -0.999987
0.153783470392 0.586505234241 -0.681563436985 0.000981 -0.004907 -0.999987
0.209592595696 0.585480630398 -0.681553661823 0.000981 -0.004907 -0.999987
