0.441377580166 -0.523280441761 -0.484240859747 -0.000979 0.002938 -0.999995
0.468810021877 0.848336398602 -0.480200827122 -0.000979 0.002938 -0.999995
0.194198355079 -0.071655839682 -0.482909739017 -0.000979 0.002938 -0.999995
0.771349072456 0.499182820320 -0.481230288744 -0.000979 0.002938 -0.999995
0.193987771869 -0.181685820222 -0.483233839273 -0.000979 0.002938 -0.999995
-0.270640164614 -0.529368400574 -0.484256356955 -0.000979 0.002938 -0.999995
-0.724193930626 0.668411493301 -0.480726748705 -0.000979 0.002938 -0.999995
0.221703976393 -0.684994816780 -0.484716415405 -0.000979 0.002938 -0.999995
-0.031827926636 -0.892174899578 -0.485325813293 -0.000979 0.002938 -0.999995
-0.734990954399 -0.236920416355 -0.483393371105 -0.000979 0.002938 -0.999995
-0.496151447296 -0.287961244583 -0.483544528484 -0.000979 0.002938 -0.999995
-0.283327698708 0.211367249489 -0.482074469328 -0.000979 0.002938 -0.999995
-0.476088345051 -0.225201010704 -0.483359754086 -0.000979 0.002938 -0.999995
-0.238606989384 -0.301832675934 -0.483586251736 -0.000979 0.002938 -0.999995
-0.102576315403 -0.536316752434 -0.484277397394 -0.000979 0.002938 -0.999995
0.384893000126 -0.905829548836 -0.485367447138 -0.000979 0.002938 -0.999995
-0.113982170820 -0.834694862366 -0.485156238079 -0.000979 0.002938 -0.999995
-0.712265610695 0.167716979980 -0.482201606035 -0.000979 0.002938 -0.999995
-0.112087309361 -0.212832093239 -0.483324527740 -0.000979 0.002938 -0.999995
-0.301283657551 -0.389320433140 -0.483843743801 -0.000979 0.002938 -0.999995
-0.412965238094 0.330410242081 -0.481723397970 -0.000979 0.002938 -0.999995
-0.445489108562 -0.117373824120 -0.483042240143 -0.000979 0.002938 -0.999995
-0.270258456469 -0.886136412621 -0.485307216644 -0.000979 0.002938 -0.999995
-0.517034888268 0.312288999557 -0.481776416302 -0.000979 0.002938 -0.999995
-0.408078223467 -0.101089119911 -0.482994407415 -0.000979 0.002938 -0.999995
0.033683747053 -0.745707511902 -0.484894603491 -0.000979 0.002938 -0.999995
-0.795887649059 -0.144888162613 -0.483122110367 -0.000979 0.002938 -0.999995
-0.205584228039 -0.511999487877 -0.484205424786 -0.000979 0.002938 -0.999995
-0.236903458834 -0.282510936260 -0.483529359102 -0.000979 0.002938 -0.999995
-0.729105472565 -0.162607252598 -0.483174502850 -0.000979 0.002938 -0.999995
0.158546686172 -0.380078434944 -0.483818084002 -0.000979 0.002938 -0.999995
-0.796446979046 0.147452473640 -0.482261002064 -0.000979 0.002938 -0.999995
0.609499454498 -1.031821250916 -0.485739320517 -0.000979 0.002938 -0.999995
-0.447477042675 -1.100251436234 -0.485937297344 -0.000979 0.002938 -0.999995
0.246896803379 -1.099234700203 -0.485936641693 -0.000979 0.002938 -0.999995
-0.057226404548 -0.858223199844 -0.485225737095 -0.000979 0.002938 -0.999995
0.012141630054 -0.907966852188 -0.485372483730 -0.000979 0.002938 -0.999995
-0.405832529068 0.366470813751 -0.481617212296 -0.000979 0.002938 -0.999995
-0.406989514828 -0.269488930702 -0.483490437269 -0.000979 0.002938 -0.999995
-0.297544389963 -1.091414451599 -0.485911786556 -0.000979 0.002938 -0.999995
-0.785838603973 0.035200238228 -0.482591688633 -0.000979 0.002938 -0.999995
-0.079532921314 -0.169107913971 -0.483195871115 -0.000979 0.002938 -0.999995
-0.651167809963 0.313300609589 -0.481772989035 -0.000979 0.002938 -0.999995
-0.789839386940 0.693972706795 -0.480651259422 -0.000979 0.002938 -0.999995
-0.630609810352 -0.190139114857 -0.483255952597 -0.000979 0.002938 -0.999995
0.036870479584 -0.905001878738 -0.485363841057 -0.000979 0.002938 -0.999995
0.443623155355 -1.026175260544 -0.485722124577 -0.000979 0.002938 -0.999995
-0.537011861801 0.249653458595 -0.481960833073 -0.000979 0.002938 -0.999995
-0.088397681713 -0.133097171783 -0.483089745045 -0.000979 0.002938 -0.999995
-0.235945940018 -0.198299288750 -0.483281314373 -0.000979 0.002938 -0.999995
-0.685098052025 0.203182339668 -0.482097238302 -0.000979 0.002938 -0.999995
-0.574865341187 -0.899552166462 -0.485345721245 -0.000979 0.002938 -0.999995
0.405151307583 -0.709819197655 -0.484790176153 -0.000979 0.002938 -0.999995
0.119322948158 -1.112792730331 -0.485976159573 -0.000979 0.002938 -0.999995
-0.367769718170 -0.495331883430 -0.484155774117 -0.000979 0.002938 -0.999995
-0.267405986786 0.041936397552 -0.482573598623 -0.000979 0.002938 -0.999995
-0.733463048935 0.455198287964 -0.481354743242 -0.000979 0.002938 -0.999995
0.415088891983 -1.125203728676 -0.486013710499 -0.000979 0.002938 -0.999995
-0.779834389687 0.607074499130 -0.480907231569 -0.000979 0.002938 -0.999995
-0.395772576332 -0.923830568790 -0.485417813063 -0.000979 0.002938 -0.999995
-0.322001665831 -0.628196954727 -0.484547287226 -0.000979 0.002938 -0.999995
-0.670676469803 0.152924418449 -0.482245326042 -0.000979 0.002938 -0.999995
0.072461515665 -0.845475792885 -0.485188603401 -0.000979 0.002938 -0.999995
0.548359811306 -1.052259325981 -0.485799312592 -0.000979 0.002938 -0.999995
-0.078910976648 -0.447370290756 -0.484015494585 -0.000979 0.002938 -0.999995
-0.659544706345 0.222408771515 -0.482040673494 -0.000979 0.002938 -0.999995
-0.733333468437 0.484194993973 -0.481269329786 -0.000979 0.002938 -0.999995
-0.365378379822 -0.213479220867 -0.483325600624 -0.000979 0.002938 -0.999995
0.406561195850 -0.846832990646 -0.485193759203 -0.000979 0.002938 -0.999995
0.514874637127 -0.932765483856 -0.485447227955 -0.000979 0.002938 -0.999995
-0.437189936638 -0.692348480225 -0.484735846519 -0.000979 0.002938 -0.999995
-0.133068084717 -0.046495676041 -0.482834517956 -0.000979 0.002938 -0.999995
-0.529139876366 -0.638928055763 -0.484578192234 -0.000979 0.002938 -0.999995
0.500863909721 -0.971475481987 -0.485561192036 -0.000979 0.002938 -0.999995
-0.104616105556 -0.897886276245 -0.485342383385 -0.000979 0.002938 -0.999995
-0.631574749947 0.322530031204 -0.481745868921 -0.000979 0.002938 -0.999995
-0.730408072472 0.438393473625 -0.481404244900 -0.000979 0.002938 -0.999995
-0.465261697769 0.106013059616 -0.482384175062 -0.000979 0.002938 -0.999995
-0.403003245592 -0.545702874660 -0.484304040670 -0.000979 0.002938 -0.999995
-0.148194193840 -0.460845291615 -0.484054952860 -0.000979 0.002938 -0.999995
-0.770891189575 0.231113672256 -0.482014656067 -0.000979 0.002938 -0.999995
-0.089679360390 -0.088368892670 -0.482958018780 -0.000979 0.002938 -0.999995
-0.219002515078 -1.102225184441 -0.485943883657 -0.000979 0.002938 -0.999995
-0.336717903614 -0.088738799095 -0.482958257198 -0.000979 0.002938 -0.999995
-0.390485942364 -0.723507344723 -0.484827786684 -0.000979 0.002938 -0.999995
-0.742472410202 0.736403703690 -0.480526417494 -0.000979 0.002938 -0.999995
-0.358384132385 0.294718265533 -0.481828719378 -0.000979 0.002938 -0.999995
0.530288457870 -0.950038850307 -0.485498160124 -0.000979 0.002938 -0.999995
0.169715613127 -0.643285393715 -0.484593391418 -0.000979 0.002938 -0.999995
-0.671632051468 -0.883365273476 -0.485297709703 -0.000979 0.002938 -0.999995
0.584937214851 -1.103393673897 -0.485950052738 -0.000979 0.002938 -0.999995
-0.525486230850 -0.827115416527 -0.485132515430 -0.000979 0.002938 -0.999995
-0.175585478544 -0.575774967670 -0.484393358231 -0.000979 0.002938 -0.999995
-0.268918544054 -0.839773058891 -0.485170662403 -0.000979 0.002938 -0.999995
-0.773821175098 -0.244201779366 -0.483414709568 -0.000979 0.002938 -0.999995
-0.587580502033 -0.783665478230 -0.485004335642 -0.000979 0.002938 -0.999995
0.309799969196 -0.944341480732 -0.485480636358 -0.000979 0.002938 -0.999995
-0.572224080563 -1.144336462021 -0.486066728830 -0.000979 0.002938 -0.999995
-0.136973947287 -0.523093700409 -0.484238326550 -0.000979 0.002938 -0.999995
-0.544032752514 0.381666183472 -0.481571972370 -0.000979 0.002938 -0.999995
-0.143195629120 -0.788104891777 -0.485018908978 -0.000979 0.002938 -0.999995
-0.534590661526 -0.297391533852 -0.483572185040 -0.000979 0.002938 -0.999995
0.158228874207 -0.399876892567 -0.483876407146 -0.000979 0.002938 -0.999995
-0.642022132874 0.266557455063 -0.481910705566 -0.000979 0.002938 -0.999995
-0.577678263187 -0.024499893188 -0.482768237591 -0.000979 0.002938 -0.999995
-0.717546641827 -1.014427661896 -0.485683590174 -0.000979 0.002938 -0.999995
-0.806113064289 0.138065218925 -0.482288628817 -0.000979 0.002938 -0.999995
-0.257060825825 -1.088218450546 -0.485902488232 -0.000979 0.002938 -0.999995
0.345217466354 -0.942267417908 -0.485474646091 -0.000979 0.002938 -0.999995
-0.760760188103 -0.238042891026 -0.483396589756 -0.000979 0.002938 -0.999995
-0.667244791985 -0.891904234886 -0.485322862864 -0.000979 0.002938 -0.999995
-0.122142016888 -0.731452405453 -0.484852105379 -0.000979 0.002938 -0.999995
-0.657468199730 -0.829890847206 -0.485140234232 -0.000979 0.002938 -0.999995
-0.039623498917 -0.286030471325 -0.483540385962 -0.000979 0.002938 -0.999995
0.333043485880 -0.745150566101 -0.484893977642 -0.000979 0.002938 -0.999995
-0.738957047462 -0.959817707539 -0.485522657633 -0.000979 0.002938 -0.999995
-0.124308347702 -0.421371519566 -0.483938753605 -0.000979 0.002938 -0.999995
0.124340273440 -1.041190385818 -0.485765278339 -0.000979 0.002938 -0.999995
-0.726404070854 -0.058411836624 -0.482867628336 -0.000979 0.002938 -0.999995
-0.161820769310 -0.913732171059 -0.485388875008 -0.000979 0.002938 -0.999995
-0.250576764345 -0.658267021179 -0.484636098146 -0.000979 0.002938 -0.999995
-0.603312611580 0.105918049812 -0.482383996248 -0.000979 0.002938 -0.999995
-0.450165033340 -0.338905811310 -0.483694732189 -0.000979 0.002938 -0.999995
-0.705514967442 0.410121679306 -0.481487631798 -0.000979 0.002938 -0.999995
-0.609892070293 -0.756429910660 -0.484924018383 -0.000979 0.002938 -0.999995
-0.555524885654 -0.013790011406 -0.482736766338 -0.000979 0.002938 -0.999995
-0.718652546406 -0.326052367687 -0.483655989170 -0.000979 0.002938 -0.999995
0.021917240694 -1.121581435204 -0.486001729965 -0.000979 0.002938 -0.999995
-0.463248312473 -0.517967402935 -0.484222114086 -0.000979 0.002938 -0.999995
-0.713864088058 -1.132265448570 -0.486030697823 -0.000979 0.002938 -0.999995
-0.679434418678 -0.293985188007 -0.483561664820 -0.000979 0.002938 -0.999995
-0.197060555220 -0.726167619228 -0.484836280346 -0.000979 0.002938 -0.999995
-0.105319768190 -1.105456709862 -0.485953778028 -0.000979 0.002938 -0.999995
-0.118843615055 -0.909790337086 -0.485377401114 -0.000979 0.002938 -0.999995
-0.059329956770 -0.567663967609 -0.484369874001 -0.000979 0.002938 -0.999995
-0.498828440905 -0.555166423321 -0.484331578016 -0.000979 0.002938 -0.999995
0.676461040974 -1.139278054237 -0.486056059599 -0.000979 0.002938 -0.999995
0.240514814854 -0.485785722733 -0.484129726887 -0.000979 0.002938 -0.999995
-0.564266800880 0.389311909676 -0.481549382210 -0.000979 0.002938 -0.999995
-0.394193410873 0.035249233246 -0.482592850924 -0.000979 0.002938 -0.999995
-0.455758750439 0.045806884766 -0.482561558485 -0.000979 0.002938 -0.999995
0.499006778002 -0.856082201004 -0.485221296549 -0.000979 0.002938 -0.999995
0.500229597092 -0.926458239555 -0.485428601503 -0.000979 0.002938 -0.999995
-0.114626944065 -0.111962795258 -0.483027428389 -0.000979 0.002938 -0.999995
0.158969685435 -0.977805495262 -0.485578685999 -0.000979 0.002938 -0.999995
0.351543843746 -0.887413740158 -0.485313087702 -0.000979 0.002938 -0.999995
-0.369669318199 -0.109002590179 -0.483017832041 -0.000979 0.002938 -0.999995
0.032093465328 -0.762563347816 -0.484944254160 -0.000979 0.002938 -0.999995
-0.105858027935 -0.175174474716 -0.483213633299 -0.000979 0.002938 -0.999995
-0.682051599026 -0.832539081573 -0.485147953033 -0.000979 0.002938 -0.999995
-0.211777001619 -0.265882432461 -0.483480453491 -0.000979 0.002938 -0.999995
0.554869592190 -0.857564806938 -0.485225856304 -0.000979 0.002938 -0.999995
-0.763742804527 -0.703308105469 -0.484767019749 -0.000979 0.002938 -0.999995
-0.777690172195 -0.857518434525 -0.485221207142 -0.000979 0.002938 -0.999995
0.656406998634 -1.092428565025 -0.485917985439 -0.000979 0.002938 -0.999995
-0.566348552704 -0.695335626602 -0.484744220972 -0.000979 0.002938 -0.999995
-0.571148753166 -0.805128574371 -0.485067605972 -0.000979 0.002938 -0.999995
0.082596316934 -1.116871356964 -0.485988050699 -0.000979 0.002938 -0.999995
0.536710321903 -0.976814508438 -0.485577046871 -0.000979 0.002938 -0.999995
-0.722491502762 -0.648696362972 -0.484606325626 -0.000979 0.002938 -0.999995
-0.172988951206 -0.215636253357 -0.483332604170 -0.000979 0.002938 -0.999995
-0.219758570194 -0.022623538971 -0.482763916254 -0.000979 0.002938 -0.999995
-0.481901854277 -0.075984239578 -0.482920199633 -0.000979 0.002938 -0.999995
-0.289803951979 -0.838677763939 -0.485167354345 -0.000979 0.002938 -0.999995
0.451352834702 -0.826975822449 -0.485135406256 -0.000979 0.002938 -0.999995
-0.224851995707 -0.458582103252 -0.484048008919 -0.000979 0.002938 -0.999995
-0.340795099735 0.187184453011 -0.482145518064 -0.000979 0.002938 -0.999995
-0.472770214081 -0.778845667839 -0.484990507364 -0.000979 0.002938 -0.999995
0.112879559398 -0.941986978054 -0.485473036766 -0.000979 0.002938 -0.999995
-0.076785922050 -0.477435529232 -0.484104037285 -0.000979 0.002938 -0.999995
-0.299788713455 1.020065784454 -0.467771917582 -0.001044 0.072063 -0.997400
-0.470114678144 1.490844488144 -0.433618545532 -0.001044 0.072063 -0.997400
0.049151539803 1.060228466988 -0.464888513088 -0.001044 0.072063 -0.997400
-0.464974910021 0.946560323238 -0.473088532686 -0.001044 0.072063 -0.997400
-0.084756493568 0.927550792694 -0.474498689175 -0.001044 0.072063 -0.997400
-0.457927763462 1.585381031036 -0.426764070988 -0.001044 0.072063 -0.997400
-0.564487814903 0.861084878445 -0.479278624058 -0.001044 0.072063 -0.997400
0.148714482784 1.097796559334 -0.462172508240 -0.001044 0.072063 -0.997400
-0.609788358212 0.917021036148 -0.475218564272 -0.001044 0.072063 -0.997400
-0.203591793776 1.265456080437 -0.449985086918 -0.001044 0.072063 -0.997400
0.196167558432 1.088247299194 -0.462868928909 -0.001044 0.072063 -0.997400
-0.589541733265 1.100897431374 -0.461886167526 -0.001044 0.072063 -0.997400
0.119353055954 1.200780272484 -0.454702049494 -0.001044 0.072063 -0.997400
-0.327735483646 1.488770723343 -0.433780759573 -0.001044 0.072063 -0.997400
0.180707499385 0.960464060307 -0.472134053707 -0.001044 0.072063 -0.997400
-0.525556445122 1.509551048279 -0.432257384062 -0.001044 0.072063 -0.997400
-0.451717913151 0.942238032818 -0.473403066397 -0.001044 0.072063 -0.997400
-0.531277537346 1.014675974846 -0.468143492937 -0.001044 0.072063 -0.997400
-0.132574200630 1.365997314453 -0.442700117826 -0.001044 0.072063 -0.997400
-0.007824540138 1.278951287270 -0.449022769928 -0.001044 0.072063 -0.997400
-0.457446247339 0.929960250854 -0.474292933941 -0.001044 0.072063 -0.997400
-0.337364852428 0.954394102097 -0.472531080246 -0.001044 0.072063 -0.997400
-0.407616734505 1.224011898041 -0.452973484993 -0.001044 0.072063 -0.997400
-0.562747955322 1.177026152611 -0.456367820501 -0.001044 0.072063 -0.997400
-0.613771140575 1.071314454079 -0.464029401541 -0.001044 0.072063 -0.997400
0.038715720177 1.249312758446 -0.451175928116 -0.001044 0.072063 -0.997400
0.344089448452 1.026483893394 -0.467360109091 -0.001044 0.072063 -0.997400
-0.176378428936 1.232272624969 -0.452393710613 -0.001044 0.072063 -0.997400
-0.551851332188 1.126008510590 -0.460068345070 -0.001044 0.072063 -0.997400
-0.399257779121 0.935435950756 -0.473900705576 -0.001044 0.072063 -0.997400
-0.156514137983 1.090728282928 -0.462659657001 -0.001044 0.072063 -0.997400
-0.546404302120 0.899051606655 -0.476526916027 -0.001044 0.072063 -0.997400
-0.382766604424 1.449905276299 -0.436594575644 -0.001044 0.072063 -0.997400
-0.324643492699 1.497883915901 -0.433120161295 -0.001044 0.072063 -0.997400
-0.399986445904 1.456744074821 -0.436097204685 -0.001044 0.072063 -0.997400
-0.553897261620 1.251359462738 -0.450978159904 -0.001044 0.072063 -0.997400
0.156019181013 0.898692846298 -0.476611405611 -0.001044 0.072063 -0.997400
-0.489085912704 0.948664963245 -0.472933888435 -0.001044 0.072063 -0.997400
-0.246985673904 1.333030819893 -0.445081204176 -0.001044 0.072063 -0.997400
-0.264557898045 1.263460874557 -0.450124710798 -0.001044 0.072063 -0.997400
-0.051562041044 1.072324752808 -0.464002966881 -0.001044 0.072063 -0.997400
-0.172914862633 1.357476949692 -0.443314611912 -0.001044 0.072063 -0.997400
0.145519256592 1.105024576187 -0.461648106575 -0.001044 0.072063 -0.997400
-0.382234156132 1.342482566833 -0.444384545088 -0.001044 0.072063 -0.997400
-0.327322453260 1.150484800339 -0.458312094212 -0.001044 0.072063 -0.997400
-0.301799416542 1.218769550323 -0.453362464905 -0.001044 0.072063 -0.997400
-0.353380918503 0.949555337429 -0.472880631685 -0.001044 0.072063 -0.997400
-0.629622101784 0.951854288578 -0.472690910101 -0.001044 0.072063 -0.997400
-0.226237952709 0.987214207649 -0.470160335302 -0.001044 0.072063 -0.997400
-0.071747176349 0.915945649147 -0.475341349840 -0.001044 0.072063 -0.997400
-0.507007002831 1.089612722397 -0.462711364031 -0.001044 0.072063 -0.997400
0.009014666080 1.229174971581 -0.452633798122 -0.001044 0.072063 -0.997400
-0.471683144569 1.246946692467 -0.451305001974 -0.001044 0.072063 -0.997400
-0.284855663776 1.384406805038 -0.441352427006 -0.001044 0.072063 -0.997400
-0.564309239388 1.371282577515 -0.442280888557 -0.001044 0.072063 -0.997400
-0.533463001251 1.071921825409 -0.463992059231 -0.001044 0.072063 -0.997400
0.530209004879 1.339819669724 -0.444653630257 -0.001044 0.072063 -0.997400
0.312329500914 1.602922201157 -0.425556182861 -0.001044 0.072063 -0.997400
0.174458280206 1.418854713440 -0.438892662525 -0.001044 0.072063 -0.997400
0.019819498062 1.377824664116 -0.441855132580 -0.001044 0.072063 -0.997400
-0.000439536787 1.576859951019 -0.427420109510 -0.001044 0.072063 -0.997400
0.437250614166 1.605092287064 -0.425409227610 -0.001044 0.072063 -0.997400
0.160836383700 1.506256341934 -0.432553470135 -0.001044 0.072063 -0.997400
-0.013096086681 1.461058616638 -0.435816526413 -0.001044 0.072063 -0.997400
0.587714552879 1.447786331177 -0.436829030514 -0.001044 0.072063 -0.997400
-0.132509872317 1.649895071983 -0.422112852335 -0.001044 0.072063 -0.997400
-0.121676214039 1.527848005295 -0.430964171886 -0.001044 0.072063 -0.997400
-0.266152977943 1.624482035637 -0.423944622278 -0.001044 0.072063 -0.997400
-0.189917698503 1.660903453827 -0.421309798956 -0.001044 0.072063 -0.997400
0.481553316116 1.203841686249 -0.454510211945 -0.001044 0.072063 -0.997400
-0.559498727322 1.671099781990 -0.420539617538 -0.001044 0.072063 -0.997400
0.237145021558 1.428155660629 -0.438223391771 -0.001044 0.072063 -0.997400
0.599156916142 1.244107723236 -0.451600074768 -0.001044 0.072063 -0.997400
0.602167785168 1.289041042328 -0.448341876268 -0.001044 0.072063 -0.997400
0.522660136223 1.026773571968 -0.467353999615 -0.001044 0.072063 -0.997400
0.649763345718 1.264972805977 -0.450091183186 -0.001044 0.072063 -0.997400
0.616276264191 1.371702909470 -0.442348688841 -0.001044 0.072063 -0.997400
0.330252647400 1.173572897911 -0.456692606211 -0.001044 0.072063 -0.997400
0.454141199589 1.174171090126 -0.456659555435 -0.001044 0.072063 -0.997400
0.163253024220 1.493535041809 -0.433476150036 -0.001044 0.072063 -0.997400
0.611763656139 1.421956062317 -0.438704162836 -0.001044 0.072063 -0.997400
0.533399522305 1.133157968521 -0.459640264511 -0.001044 0.072063 -0.997400
0.382479131222 1.483490109444 -0.434222847223 -0.001044 0.072063 -0.997400
0.123019658029 1.564887881279 -0.428298562765 -0.001044 0.072063 -0.997400
0.408312678337 1.318857312202 -0.446163564920 -0.001044 0.072063 -0.997400
-0.133539021015 1.386892437935 -0.441184788942 -0.001044 0.072063 -0.997400
-0.039471652359 1.722334384918 -0.416867554188 -0.001044 0.072063 -0.997400
0.256410956383 1.322233915329 -0.445906043053 -0.001044 0.072063 -0.997400
0.636981487274 1.432162284851 -0.437966138124 -0.001044 0.072063 -0.997400
0.536397278309 1.647848963737 -0.422316938639 -0.001044 0.072063 -0.997400
0.526909768581 1.164789557457 -0.457345902920 -0.001044 0.072063 -0.997400
0.395001441240 1.266574382782 -0.449953854084 -0.001044 0.072063 -0.997400
-0.242513939738 1.535969495773 -0.430365175009 -0.001044 0.072063 -0.997400
0.101521484554 1.706035256386 -0.418061256409 -0.001044 0.072063 -0.997400
0.414626061916 1.304862380028 -0.447178989649 -0.001044 0.072063 -0.997400
0.645498573780 1.687488555908 -0.419451475143 -0.001044 0.072063 -0.997400
-0.318305611610 1.629820346832 -0.423553138971 -0.001044 0.072063 -0.997400
0.046614445746 1.620005369186 -0.424295276403 -0.001044 0.072063 -0.997400
-0.193982496858 1.533444523811 -0.430552333593 -0.001044 0.072063 -0.997400
-0.016489287838 1.622341275215 -0.424120634794 -0.001044 0.072063 -0.997400
-0.069998249412 1.355210423470 -0.443487554789 -0.001044 0.072063 -0.997400
0.335981965065 1.653335213661 -0.421902388334 -0.001044 0.072063 -0.997400
-0.169995248318 1.559855580330 -0.428639084101 -0.001044 0.072063 -0.997400
-0.040059097111 1.677632570267 -0.420109122992 -0.001044 0.072063 -0.997400
-0.020071394742 1.701088666916 -0.418409854174 -0.001044 0.072063 -0.997400
0.333323717117 1.609068512917 -0.425112217665 -0.001044 0.072063 -0.997400
0.556935429573 1.470614314079 -0.435171067715 -0.001044 0.072063 -0.997400
0.450437635183 1.601376533508 -0.425679773092 -0.001044 0.072063 -0.997400
0.621186196804 1.687655806541 -0.419437319040 -0.001044 0.072063 -0.997400
0.253044456244 1.185890436172 -0.455792933702 -0.001044 0.072063 -0.997400
0.429684877396 1.430219769478 -0.438089758158 -0.001044 0.072063 -0.997400
-0.118769474328 1.679666876793 -0.419955044985 -0.001044 0.072063 -0.997400
0.440895676613 1.411846041679 -0.439423084259 -0.001044 0.072063 -0.997400
0.024524539709 2.199061155319 -0.385582119226 -0.001038 0.065416 -0.997858
0.265251010656 1.859553933144 -0.407871693373 -0.001038 0.065416 -0.997858
-0.355653733015 1.778174519539 -0.413163334131 -0.001038 0.065416 -0.997858
-0.045726209879 1.914087772369 -0.404270887375 -0.001038 0.065416 -0.997858
0.171875745058 2.112830162048 -0.391249895096 -0.001038 0.065416 -0.997858
-0.043691247702 1.835704803467 -0.409412890673 -0.001038 0.065416 -0.997858
-0.360357314348 1.768024682999 -0.413828819990 -0.001038 0.065416 -0.997858
-0.286666870117 1.781624913216 -0.412942200899 -0.001038 0.065416 -0.997858
0.206372812390 1.792212009430 -0.412284821272 -0.001038 0.065416 -0.997858
0.044919341803 1.889706492424 -0.405877113342 -0.001038 0.065416 -0.997858
-0.073553830385 2.221556186676 -0.384099066257 -0.001038 0.065416 -0.997858
-0.045859366655 2.131417751312 -0.390014171600 -0.001038 0.065416 -0.997858
0.072076708078 1.849385976791 -0.408524155617 -0.001038 0.065416 -0.997858
0.207488358021 1.816215157509 -0.410710334778 -0.001038 0.065416 -0.997858
-0.056428939104 2.007629394531 -0.398133814335 -0.001038 0.065416 -0.997858
-0.396003842354 1.981074333191 -0.399850219488 -0.001038 0.065416 -0.997858
-0.278862774372 1.935154676437 -0.402871340513 -0.001038 0.065416 -0.997858
-0.007848083973 1.889030694962 -0.405917465687 -0.001038 0.065416 -0.997858
0.362124860287 2.029897212982 -0.396704584360 -0.001038 0.065416 -0.997858
-0.470994412899 1.887937545776 -0.405954301357 -0.001038 0.065416 -0.997858
-0.019958045334 1.762001633644 -0.414249569178 -0.001038 0.065416 -0.997858
-0.189468756318 1.806639313698 -0.411308586597 -0.001038 0.065416 -0.997858
0.461485475302 1.899232864380 -0.405283570290 -0.001038 0.065416 -0.997858
0.101028621197 1.848600983620 -0.408577829599 -0.001038 0.065416 -0.997858
0.255918979645 2.099915027618 -0.392103463411 -0.001038 0.065416 -0.997858
0.086694806814 2.212748765945 -0.384688913822 -0.001038 0.065416 -0.997858
-0.541404128075 1.801964759827 -0.411588728428 -0.001038 0.065416 -0.997858
0.023344621062 1.824260830879 -0.410168677568 -0.001038 0.065416 -0.997858
-0.081122532487 1.870772480965 -0.407109677792 -0.001038 0.065416 -0.997858
0.084116384387 1.944678902626 -0.402273893356 -0.001038 0.065416 -0.997858
0.526606380939 1.742983341217 -0.415538311005 -0.001038 0.065416 -0.997858
0.130728542805 2.264518260956 -0.381296187639 -0.001038 0.065416 -0.997858
-0.057959854603 1.925484061241 -0.403522372246 -0.001038 0.065416 -0.997858
-0.327506065369 1.907164931297 -0.404703795910 -0.001038 0.065416 -0.997858
-0.030338063836 1.873981833458 -0.406902968884 -0.001038 0.065416 -0.997858
0.267352342606 1.901040673256 -0.405150353909 -0.001038 0.065416 -0.997858
-0.299816071987 1.915918231010 -0.404131650925 -0.001038 0.065416 -0.997858
0.281852900982 1.762333273888 -0.414250552654 -0.001038 0.065416 -0.997858
-0.453106909990 1.787959933281 -0.412514090538 -0.001038 0.065416 -0.997858
-0.165263503790 2.210286378860 -0.384831458330 -0.001038 0.065416 -0.997858
-0.247018903494 1.744679212570 -0.415368795395 -0.001038 0.065416 -0.997858
0.020573049784 2.099803447723 -0.392093062401 -0.001038 0.065416 -0.997858
0.419580221176 1.876858353615 -0.406748145819 -0.001038 0.065416 -0.997858
-0.027086496353 1.790389060974 -0.412386834621 -0.001038 0.065416 -0.997858
-0.010231450200 1.967505335808 -0.400769382715 -0.001038 0.065416 -0.997858
0.478585720062 1.774299979210 -0.413480341434 -0.001038 0.065416 -0.997858
-0.407320737839 2.196696758270 -0.385608494282 -0.001038 0.065416 -0.997858
-0.584141433239 2.209887266159 -0.384635269642 -0.001038 0.065416 -0.997858
-0.445331513882 2.324321031570 -0.377154886723 -0.001038 0.065416 -0.997858
-0.184132248163 2.314696788788 -0.377941071987 -0.001038 0.065416 -0.997858
-0.261416912079 2.287106990814 -0.379719376564 -0.001038 0.065416 -0.997858
-0.470764070749 2.146806001663 -0.388868123293 -0.001038 0.065416 -0.997858
-0.529662728310 2.123399257660 -0.390380620956 -0.001038 0.065416 -0.997858
-0.637717485428 1.937808871269 -0.402579814196 -0.001038 0.065416 -0.997858
-0.540290832520 2.100029468536 -0.391918480396 -0.001038 0.065416 -0.997858
-0.458466649055 2.315397500992 -0.377736896276 -0.001038 0.065416 -0.997858
-0.459259390831 2.237229585648 -0.382900714874 -0.001038 0.065416 -0.997858
-0.555734872818 1.886131405830 -0.406041175127 -0.001038 0.065416 -0.997858
-0.606306850910 2.038289546967 -0.395959436893 -0.001038 0.065416 -0.997858
-0.108978882432 2.403288841248 -0.372131347656 -0.001038 0.065416 -0.997858
-0.584410786629 2.085553407669 -0.392849475145 -0.001038 0.065416 -0.997858
-0.607100009918 1.828729629517 -0.409803986549 -0.001038 0.065416 -0.997858
-0.345590502024 2.243525505066 -0.382550209761 -0.001038 0.065416 -0.997858
-0.547055125237 2.112534761429 -0.391088396311 -0.001038 0.065416 -0.997858
-0.586052298546 1.891782760620 -0.405650377274 -0.001038 0.065416 -0.997858
-0.520815372467 2.144738435745 -0.388975888491 -0.001038 0.065416 -0.997858
-0.663762748241 2.179406642914 -0.386637270451 0.001038 0.065416 -0.997858
-0.670295894146 2.145727872849 -0.388861894608 0.001038 0.065416 -0.997858
-0.658815145493 2.272419691086 -0.380496770144 0.001038 0.065416 -0.997858
-0.758650302887 2.265517473221 -0.380601763725 -0.007314 0.065824 -0.997804
-0.717716097832 2.061660766602 -0.394205361605 -0.007314 0.065824 -0.997804
-0.687283992767 1.864594221115 -0.407298356295 -0.007314 0.065824 -0.997804
-0.823123991489 1.952523708344 -0.401388287544 -0.001040 0.067624 -0.997710
-0.824353754520 1.756183743477 -0.414524942636 -0.001040 0.067624 -0.997710
-0.793909609318 1.727671384811 -0.416435629129 -0.001040 0.067624 -0.997710
-0.807624876499 1.750000715256 -0.414940267801 -0.001040 0.067624 -0.997710
-0.814954459667 1.978223323822 -0.399669587612 -0.001040 0.067624 -0.997710
0.191283866763 2.379394769669 -0.373677968979 0.001038 0.065416 -0.997858
0.152122423053 2.351182460785 -0.375562846661 0.001038 0.065416 -0.997858
0.541737794876 1.903310656548 -0.404989778996 0.001038 0.065416 -0.997858
0.335843503475 2.070860624313 -0.394010573626 0.001038 0.065416 -0.997858
0.407015115023 2.044980525970 -0.395687162876 0.001038 0.065416 -0.997858
0.361739426851 2.060125112534 -0.394707828760 0.001038 0.065416 -0.997858
0.005013390910 2.419521570206 -0.371115684509 0.001038 0.065416 -0.997858
0.445676088333 2.289312124252 -0.379510432482 0.001038 0.065416 -0.997858
0.567710399628 1.827133417130 -0.410014659166 0.001038 0.065416 -0.997858
0.361688345671 2.069512844086 -0.394087016582 0.001038 0.065416 -0.997858
0.306766629219 2.206103801727 -0.385081142187 0.001038 0.065416 -0.997858
0.406731396914 2.289173603058 -0.379538685083 0.001038 0.065416 -0.997858
0.528132259846 1.966080904007 -0.400845438242 0.001038 0.065416 -0.997858
0.088218294084 2.348751068115 -0.375754982233 0.001038 0.065416 -0.997858
0.381556153297 2.120932102203 -0.390676885843 0.001038 0.065416 -0.997858
0.614641070366 1.835531592369 -0.409436315298 0.001038 0.065416 -0.997858
0.436887860298 2.146918773651 -0.388931274414 0.001038 0.065416 -0.997858
0.465149313211 2.145937204361 -0.388982355595 0.001038 0.065416 -0.997858
0.534629642963 2.236500978470 -0.382959276438 0.001038 0.065416 -0.997858
0.505220949650 1.968114733696 -0.400722146034 0.001038 0.065416 -0.997858
0.756757438183 2.188048839569 -0.385827243328 0.003122 0.065552 -0.997844
0.743860483170 2.284966468811 -0.379433095455 0.003122 0.065552 -0.997844
0.652393817902 2.335801362991 -0.376257419586 0.003122 0.065552 -0.997844
0.672981798649 1.868552684784 -0.407171487808 0.003122 0.065552 -0.997844
0.678394794464 2.142300844193 -0.389023035765 0.003122 0.065552 -0.997844
0.637098550797 1.967678904533 -0.400679409504 0.003122 0.065552 -0.997844
0.739131152630 1.912086606026 -0.404259890318 -0.001040 0.067624 -0.997710
0.805877208710 1.852448940277 -0.408281266689 -0.001040 0.067624 -0.997710
0.783972740173 2.169808149338 -0.387046605349 -0.001040 0.067624 -0.997710
0.736624479294 1.748834371567 -0.415176391602 -0.001040 0.067624 -0.997710
0.766259193420 1.998570561409 -0.398489594460 -0.001040 0.067624 -0.997710
0.709289073944 2.341993331909 -0.375914782286 -0.003103 0.058964 -0.998255
0.810483455658 -1.525117993355 -0.333365827799 0.676694 0.192680 0.710605
0.816242039204 -1.506593942642 -0.405398279428 0.999999 0.000978 -0.000978
0.816231429577 -1.497432470322 -0.371345967054 0.999999 0.000978 0.000978
0.807546675205 -1.623593926430 -0.354455500841 0.678565 -0.517720 0.521071
0.793305814266 -1.489276409149 -0.467482417822 -0.001384 0.707106 -0.707106
0.816351652145 -1.602052450180 -0.404877275229 0.999999 0.000978 0.000978
0.773773550987 -1.611348390579 -0.519927442074 0.999999 0.000978 0.000978
0.773672461510 -1.523258328438 -0.537230432034 0.999999 0.000978 0.000978
0.773581027985 -1.443681836128 -0.483099579811 0.999999 0.000978 0.000978
0.773699820042 -1.547157406807 -0.411347478628 0.999999 0.000978 0.000978
0.762955069542 -1.462276101112 -0.435371249914 -0.999999 -0.000978 0.000978
0.763194322586 -1.670642256737 -0.417827844620 -0.999999 -0.000978 0.000978
0.773716151714 -1.561340332031 -0.414781332016 0.999999 0.000978 -0.000978
0.773860216141 -1.686803221703 -0.439770817757 0.999999 0.000978 -0.000978
0.773808658123 -1.641939640045 -0.349081039429 0.999999 0.000978 0.000978
0.763094305992 -1.421942234039 -0.332219541073 -0.001199 0.965534 0.260274
0.773641228676 -1.496057271957 -0.330014765263 0.999999 0.000978 0.000978
0.773675262928 -1.525782942772 -0.278720527887 0.999999 0.000978 -0.000978
0.749641299248 -1.438623189926 -0.384457290173 0.001334 -0.865851 -0.500299
0.725649952888 -1.428510308266 -0.373250454664 -0.999999 -0.000978 -0.000978
0.725613951683 -1.397175312042 -0.378372907639 -0.999999 -0.000978 0.000978
0.790160119534 1.295491218567 -0.323372125626 0.001199 -0.260274 0.965534
0.812439918518 1.363045454025 -0.354163885117 0.676751 0.522257 0.518898
0.812973380089 1.339812397957 -0.344081729650 0.999999 0.000978 0.000978
0.776058018208 1.372087955475 -0.472273170948 -0.001384 0.707106 -0.707106
0.783128738403 1.378111362457 -0.466257721186 -0.001384 0.707106 -0.707106
0.812980055809 1.334146022797 -0.444494456053 0.999999 0.000978 -0.000978
0.813075244427 1.251130461693 -0.388692021370 0.999999 0.000978 0.000978
0.813048124313 1.274940371513 -0.390589803457 0.999999 0.000978 0.000978
0.806861519814 1.392331361771 -0.400313347578 0.676694 0.710605 0.192680
0.770467102528 1.268103718758 -0.480993121862 0.999999 0.000978 0.000978
0.770574510098 1.174580454826 -0.447589129210 0.999999 0.000978 -0.000978
0.770597875118 1.154245615005 -0.406641483307 0.999999 0.000978 0.000978
0.770447969437 1.284806132317 -0.377834767103 0.999999 0.000978 0.000978
0.770359218121 1.362079381943 -0.380301147699 0.999999 0.000978 -0.000978
0.770401179790 1.325513124466 -0.397647738457 0.999999 0.000978 0.000978
0.770335793495 1.382463932037 -0.277603447437 0.999999 0.000978 0.000978
0.770291447639 1.421105504036 -0.458378583193 0.999999 0.000978 -0.000978
0.770303487778 1.410664319992 -0.519357562065 0.999999 0.000978 0.000978
0.770369827747 1.352846384048 -0.531528532505 0.999999 0.000978 0.000978
0.760288953781 1.281746149063 -0.561221003532 0.001199 -0.260274 -0.965534
0.759876787663 1.218566894531 -0.452193170786 -0.999999 -0.000978 -0.000978
0.759800672531 1.284806609154 -0.431121706963 -0.999999 -0.000978 0.000978
0.759777665138 1.304862618446 -0.517036497593 -0.999999 -0.000978 0.000978
0.759639382362 1.425352931023 -0.358097463846 -0.999999 -0.000978 0.000978
0.759719252586 1.355701565742 -0.276498526335 -0.999999 -0.000978 0.000978
0.759795308113 1.289479732513 -0.301798492670 -0.999999 -0.000978 0.000978
0.743494749069 1.405554175377 -0.346368938684 0.001334 -0.865851 -0.500299
0.725070893764 1.379646420479 -0.299362033606 0.001384 -0.707106 0.707106
0.775469064713 1.408093094826 -0.350702673197 0.001334 -0.865851 -0.500299
0.769558191299 1.441705584526 -0.297389686108 -0.001334 0.865851 0.500299
0.722309112549 1.480937004089 -0.376109451056 -0.999999 -0.000978 0.000978
0.722351729870 1.443803429604 -0.362091332674 -0.999999 -0.000978 -0.000978
-0.787962317467 -1.610678553581 -0.484968364239 0.001384 -0.707106 -0.707106
-0.814121007919 -1.571877479553 -0.407233655453 -0.999999 -0.000978 0.000978
-0.814119696617 -1.572805523872 -0.360621482134 -0.999999 -0.000978 0.000978
-0.793893516064 -1.545074343681 -0.323830187321 -0.001199 0.260274 0.965534
-0.771516442299 -1.585468649864 -0.509061336517 -0.999999 -0.000978 -0.000978
-0.771402478218 -1.684691190720 -0.484542250633 -0.999999 -0.000978 0.000978
-0.771383225918 -1.701488971710 -0.467439085245 -0.999999 -0.000978 0.000978
-0.760785698891 -1.658125877380 -0.490218222141 0.999999 0.000978 -0.000978
-0.760783791542 -1.659789085388 -0.463553696871 0.999999 0.000978 0.000978
-0.760759472847 -1.681018829346 -0.355010151863 0.999999 0.000978 0.000978
-0.760842740536 -1.608488321304 -0.379019469023 0.999999 0.000978 -0.000978
-0.761049151421 -1.428717374802 -0.395805001259 0.999999 0.000978 0.000978
-0.761007547379 -1.464917182922 -0.464604556561 0.999999 0.000978 0.000978
-0.760936975479 -1.526446223259 -0.457838088274 0.999999 0.000978 -0.000978
-0.760892510414 -1.565110445023 -0.428713381290 0.999999 0.000978 0.000978
-0.771646618843 -1.472152233124 -0.499449908733 -0.999999 -0.000978 0.000978
-0.771667420864 -1.454002022743 -0.392417877913 -0.999999 -0.000978 -0.000978
-0.771557450294 -1.549731850624 -0.278189778328 -0.999999 -0.000978 0.000978
-0.771498322487 -1.601193785667 -0.404765874147 -0.999999 -0.000978 -0.000978
-0.778253078461 -1.390221714973 -0.394857466221 -0.001342 0.857729 -0.514100
-0.756987512112 -1.421674847603 -0.305265784264 -0.001334 0.865851 0.500299
-0.788637936115 1.395125985146 -0.421070367098 -0.001199 0.965534 -0.260274
-0.805792808533 1.390742421150 -0.385104686022 -0.001199 0.965534 0.260274
-0.795499086380 1.248243808746 -0.477724611759 0.001384 -0.707106 -0.707106
-0.806767165661 1.237639546394 -0.355262875557 -0.676751 -0.522257 0.518898
-0.812967181206 1.257003068924 -0.343942224979 -0.676751 -0.522257 0.518898
-0.817499518394 1.370649933815 -0.389619231224 -0.999999 -0.000978 -0.000978
-0.803256630898 1.329181671143 -0.326018989086 -0.001199 0.260274 0.965534
-0.774764955044 1.243542194366 -0.427760392427 -0.999999 -0.000978 0.000978
-0.774759709835 1.238947749138 -0.408566474915 -0.999999 -0.000978 -0.000978
-0.764108896255 1.235893130302 -0.349457412958 0.999999 0.000978 -0.000978
-0.764344632626 1.441205978394 -0.398424953222 0.999999 0.000978 0.000978
-0.764291465282 1.394947886467 -0.440558046103 0.999999 0.000978 -0.000978
-0.764220952988 1.333482384682 -0.452229112387 0.999999 0.000978 -0.000978
-0.764178633690 1.296662926674 -0.478712260723 0.999999 0.000978 0.000978
-0.764094471931 1.223371744156 -0.538955628872 0.999999 0.000978 -0.000978
-0.774895191193 1.356865882874 -0.505470097065 -0.999999 -0.000978 0.000978
-0.774992525578 1.441764116287 -0.412066221237 -0.999999 -0.000978 -0.000978
-0.774957895279 1.411561846733 -0.389108240604 -0.999999 -0.000978 -0.000978
-0.774920761585 1.379205465317 -0.339985847473 -0.999999 -0.000978 0.000978
-0.774861752987 1.327859640121 -0.351011216640 -0.999999 -0.000978 0.000978
-0.774739980698 1.221852302551 -0.294710487127 -0.999999 -0.000978 0.000978
-0.774134337902 1.440218806267 -0.297884553671 -0.001334 0.865851 0.500299
0.468791365623 1.966304063797 -0.520271718502 -0.156473 0.126903 -0.979496
0.455764919519 1.779141187668 -0.539896309376 -0.373818 0.117249 -0.920061
0.435891568661 2.168936967850 -0.479798555374 -0.713011 0.089309 -0.695442
0.433459848166 1.751335978508 -0.530696153641 -0.713011 0.089309 -0.695442
0.418626129627 1.923162698746 -0.481011837721 -0.975568 0.027397 -0.217984
0.417412698269 1.903748631477 -0.470702797174 -0.968968 -0.032908 0.244984
0.420583069324 1.982213854790 -0.447715342045 -0.968968 -0.032908 0.244984
0.440215855837 1.777281165123 -0.447452932596 -0.709924 -0.092217 0.698214
0.453058898449 1.973067522049 -0.416787356138 -0.377019 -0.120149 0.918380
0.460447847843 2.200621366501 -0.400317728519 -0.001093 0.991782 0.127937
0.540948152542 1.880239844322 -0.416925430298 0.037294 -0.127703 0.991111
0.534418821335 1.966303467751 -0.405718773603 -0.037294 -0.127703 0.991111
0.526012063026 2.069105863571 -0.392770767212 -0.037294 -0.127703 0.991111
0.496595978737 1.759342551231 -0.434148550034 -0.159259 -0.127161 0.979013
0.478486388922 1.988217592239 -0.407514691353 -0.159259 -0.127161 0.979013
0.457607746124 1.738877415657 -0.445242077112 -0.377019 -0.120149 0.918380
0.563277423382 1.856349110603 -0.420865118504 0.037294 -0.127703 0.991111
0.589003384113 2.045650720596 -0.399273753166 0.159259 -0.127161 0.979013
0.614733874798 1.993102431297 -0.412111699581 0.377143 -0.117425 0.918681
0.588319540024 1.812237501144 -0.429237663746 0.159259 -0.127161 0.979013
0.621388673782 1.894363760948 -0.427534431219 0.377143 -0.117425 0.918681
0.641045987606 1.808226108551 -0.451468169689 0.711560 -0.089128 0.696949
0.652627468109 1.777263641357 -0.474768966436 0.972200 -0.027708 0.232509
0.652392864227 2.160563945770 -0.455855846405 0.972132 0.030116 -0.232492
0.645711600780 1.761286258698 -0.522823691368 0.713011 0.089309 -0.695442
0.627845168114 1.916919946671 -0.517615199089 0.377019 0.120149 -0.918380
0.615560114384 2.022077798843 -0.509030699730 0.377019 0.120149 -0.918380
0.606291234493 1.995750784874 -0.516047716141 0.159259 0.127161 -0.979013
0.549624860287 2.197821140289 -0.496088832617 0.037294 0.127703 -0.991111
0.539043307304 2.171182394028 -0.499930769205 0.037294 0.127703 -0.991111
0.509100794792 2.209614276886 -0.494052290916 -0.037294 0.127703 -0.991111
0.628352761269 -1.949030399323 -0.350624769926 -0.001059 0.996132 -0.087863
0.644096612930 -1.954100728035 -0.408673107624 -0.001059 0.996132 -0.087863
0.779061079025 -1.932310819626 -0.280429184437 -0.001179 0.972654 -0.232258
0.781111061573 -1.932443380356 -0.280996292830 -0.001179 0.972654 -0.232258
0.796760618687 -1.922765374184 -0.240842998028 -0.001178 0.972119 -0.234487
0.552377641201 -1.947916388512 -0.343824863434 -0.001178 0.972119 -0.234487
0.652269363403 -1.928383231163 -0.263275980949 -0.001178 0.972119 -0.234487
0.710775494576 -1.904915571213 -0.202401131392 -0.001344 0.855828 -0.517259
0.678624153137 -1.913177013397 -0.215997099876 -0.001344 0.855828 -0.517259
0.803638756275 -1.872959971428 -0.149736046791 -0.001342 0.854638 -0.519223
0.761162579060 -1.872503161430 -0.148901522160 -0.001342 0.854638 -0.519223
0.550446510315 -1.642843842506 -0.205770164728 0.999999 0.000978 -0.000978
0.550366997719 -1.573573589325 -0.164082169533 0.999999 0.000978 -0.000978
0.550167977810 -1.400296330452 -0.206879660487 0.999999 0.000978 -0.000978
0.550124645233 -1.362549066544 -0.169754400849 0.999999 0.000978 -0.000978
0.550132036209 -1.368986725807 -0.154433935881 0.999999 0.000978 -0.000978
0.558365225792 -1.263385176659 -0.126837298274 0.001359 -0.822094 -0.569351
0.569509148598 -1.241833925247 -0.157995596528 0.001359 -0.822094 -0.569351
0.833749890327 -1.200202107430 -0.225365191698 0.001241 -0.946931 -0.321435
0.857209801674 -1.181605100632 -0.279877603054 0.001241 -0.946931 -0.321435
0.591298282146 -1.179743647575 -0.286341845989 0.001241 -0.946931 -0.321435
0.550264954567 -1.484779715538 -0.220209941268 0.999999 0.000978 0.000978
0.550029039383 -1.279206156731 -0.240337193012 0.999999 0.000978 0.000978
0.550005316734 -1.258482813835 -0.275549590588 0.999999 0.000978 0.000978
0.550384163857 -1.588485360146 -0.316873252392 0.999999 0.000978 0.000978
0.550509393215 -1.697561502457 -0.285862773657 0.999999 0.000978 0.000978
0.550696551800 -1.860565900803 -0.322818636894 0.999999 0.000978 0.000978
0.550659477711 -1.828316569328 -0.283679753542 0.999999 0.000978 0.000978
0.550600051880 -1.776515483856 -0.309445261955 0.999999 0.000978 0.000978
0.550613701344 -1.788384914398 -0.347116172314 0.999999 0.000978 -0.000978
0.550495624542 -1.685520410538 -0.344538807869 0.999999 0.000978 -0.000978
0.550589084625 -1.766919851303 -0.343703806400 0.999999 0.000978 -0.000978
0.550540268421 -1.724441528320 -0.357998907566 0.999999 0.000978 -0.000978
0.751722931862 -1.164114236832 -0.370043873787 -0.001125 -0.986241 -0.165311
0.740876078606 -1.160035252571 -0.409851014614 -0.001022 -0.998940 -0.046011
0.839616060257 -1.158936738968 -0.433589249849 -0.001022 -0.998940 -0.046011
0.567916333675 -1.157680034637 -0.465222448111 0.001018 -0.999040 -0.043791
0.562388956547 -1.159213185310 -0.429820716381 0.001018 -0.999040 -0.043791
0.550491511822 -1.682037830353 -0.388304948807 0.999999 0.000978 -0.000978
0.549995422363 -1.249986529350 -0.437164336443 0.999999 0.000978 -0.000978
0.550367951393 -1.574399232864 -0.379952669144 0.999999 0.000978 -0.000978
0.550021886826 -1.273054957390 -0.409101963043 0.999999 0.000978 -0.000978
0.550338268280 -1.548538446426 -0.465924978256 0.999999 0.000978 0.000978
0.550674736500 -1.841586112976 -0.366741538048 0.999999 0.000978 0.000978
0.550230026245 -1.454333782196 -0.449922114611 0.999999 0.000978 0.000978
0.550314426422 -1.527748703957 -0.456988155842 0.999999 0.000978 0.000978
0.550639748573 -1.811101078987 -0.419384032488 0.999999 0.000978 0.000978
0.745949268341 -1.172522425652 -0.318635612726 0.001120 -0.987081 -0.160219
0.681027173996 -1.173346519470 -0.313998252153 0.001120 -0.987081 -0.160219
0.821936607361 -1.262028813362 -0.128359690309 0.001359 -0.822094 -0.569351
0.699387311935 -1.249221324921 -0.147080451250 0.001359 -0.822094 -0.569351
0.592668950558 -1.291322588921 -0.099997550249 0.001379 -0.671779 -0.740750
0.864226400852 -1.335034370422 -0.060039862990 0.001379 -0.671779 -0.740750
0.609237313271 -1.382235646248 -0.034379970282 0.001311 -0.444588 -0.895734
0.627963960171 -1.369635105133 -0.040620252490 0.001311 -0.444588 -0.895734
0.860747456551 -1.373078703880 -0.038920648396 -0.001305 -0.437266 -0.899331
0.788033664227 -1.430218100548 -0.011041011661 -0.001305 -0.437266 -0.899331
0.656595885754 -1.490342020988 -0.000766013516 -0.003325 -0.142972 -0.989721
0.603146791458 -1.481243014336 -0.001948400517 -0.003325 -0.142972 -0.989721
0.893786489964 -1.445176362991 -0.007807391230 0.001112 -0.150135 -0.988665
0.867493629456 -1.472851634026 -0.003581352998 0.001112 -0.150135 -0.988665
0.616911292076 -1.569154620171 0.003955221269 -0.001087 0.120688 -0.992690
0.602902293205 -1.637803196907 -0.004420768004 -0.001087 0.120688 -0.992690
0.763864040375 -1.637864112854 -0.004439528100 -0.001087 0.120688 -0.992690
0.902612328529 -1.657823085785 -0.006875928957 -0.001087 0.120688 -0.992690
0.628476321697 -1.709844946861 -0.024445177987 -0.001280 0.390517 -0.920595
0.551253914833 -1.676172494888 -0.010091027245 -0.001280 0.390517 -0.920595
0.682577490807 -1.730993151665 -0.033462610096 -0.001280 0.390517 -0.920595
0.690057873726 -1.756065249443 -0.044125497341 -0.001280 0.390517 -0.920595
0.756947636604 -1.741122245789 -0.037793293595 -0.001280 0.390517 -0.920595
0.855967760086 -1.754692077637 -0.043590430170 -0.001280 0.390517 -0.920595
0.675475597382 -1.828756213188 -0.098208859563 -0.001379 0.671779 -0.740750
0.572846293449 -1.821131229401 -0.091197781265 -0.001379 0.671779 -0.740750
0.849780857563 -1.809701442719 -0.081067003310 -0.001379 0.671779 -0.740750
0.733348250389 -1.835644960403 -0.104528993368 -0.001379 0.671779 -0.740750
0.550155043602 -1.388962507248 -0.112835176289 0.999999 0.000978 0.000978
0.550330579281 -1.541871786118 -0.095647051930 0.999999 0.000978 0.000978
0.550272464752 -1.491183996201 -0.075341105461 0.999999 0.000978 -0.000978
0.550553619862 -1.736080527306 -0.056181181222 0.999999 0.000978 -0.000978
0.550160050392 -1.393246412277 -0.052239723504 0.999999 0.000978 -0.000978
0.784537911415 -1.959877371788 -0.476100802422 -0.001061 0.996116 -0.088049
0.698346495628 -1.957491993904 -0.447995662689 -0.001061 0.996116 -0.088049
0.713240087032 0.901110649109 -0.358796924353 -0.001104 0.990125 -0.140185
0.741213679314 0.894783616066 -0.404042035341 -0.001104 0.990125 -0.140185
0.877586364746 0.915964186192 -0.305857777596 -0.001260 0.936173 -0.351537
0.808217227459 0.914808988571 -0.308638751507 -0.001260 0.936173 -0.351537
0.802565872669 0.934736847878 -0.255519539118 -0.001260 0.936173 -0.351537
0.653230011463 1.035282611847 -0.282429635525 0.999999 0.000978 0.000978
0.653028309345 1.210955023766 -0.255299061537 0.999999 0.000978 0.000978
0.652743399143 1.459143161774 -0.292265534401 0.999999 0.000978 0.000978
0.652792274952 1.416537165642 -0.275748074055 0.999999 0.000978 0.000978
0.652817487717 1.394562840462 -0.256899476051 0.999999 0.000978 0.000978
0.652683973312 1.510868072510 -0.279511630535 0.999999 0.000978 0.000978
0.652526319027 1.648209095001 -0.248820215464 0.999999 0.000978 0.000978
0.714635968208 1.690177440643 -0.297570109367 0.001322 -0.884429 -0.466672
0.656433701515 1.666991710663 -0.253756552935 0.001322 -0.884429 -0.466672
0.688830733299 1.695012569427 -0.317374616861 0.001172 -0.974073 -0.226229
0.691330790520 1.698841929436 -0.333853662014 0.001172 -0.974073 -0.226229
0.653137683868 1.115718126297 -0.349726796150 0.999999 0.000978 -0.000978
0.652641236782 1.548081398010 -0.372629135847 0.999999 0.000978 -0.000978
0.652953028679 1.276557087898 -0.327625244856 0.999999 0.000978 -0.000978
0.652778267860 1.428697824478 -0.380814045668 0.999999 0.000978 -0.000978
0.652586281300 1.596008300781 -0.342044889927 0.999999 0.000978 -0.000978
0.652672290802 1.521090030670 -0.312981426716 0.999999 0.000978 -0.000978
0.652629733086 1.558032512665 -0.447588741779 0.999999 0.000978 -0.000978
0.652932226658 1.294605135918 -0.412442147732 0.999999 0.000978 -0.000978
0.653096556664 1.151518464088 -0.419161647558 0.999999 0.000978 -0.000978
0.652851760387 1.364736437798 -0.443392425776 0.999999 0.000978 -0.000978
0.652878284454 1.341623067856 -0.443246990442 0.999999 0.000978 -0.000978
0.652702093124 1.495050907135 -0.450985461473 0.999999 0.000978 -0.000978
0.778376340866 1.647487998009 -0.216640830040 0.001320 -0.883337 -0.468736
0.767405927181 1.616595149040 -0.172569260001 -0.001374 -0.776155 -0.630540
0.665371656418 1.606393337250 -0.160007819533 -0.001374 -0.776155 -0.630540
0.652729332447 1.471344113350 -0.167492225766 0.999999 0.000978 0.000978
0.652686476707 1.508635640144 -0.146169096231 0.999999 0.000978 0.000978
0.653154551983 1.101003885269 -0.094633199275 0.999999 0.000978 -0.000978
