0.020646601915 -1.028427600861 0.219255253673 0.026150 -0.295123 0.955101
0.054046362638 -1.097537279129 0.196997523308 0.026150 -0.295123 0.955101
-0.163395434618 -0.926894485950 0.245999768376 -0.031224 -0.293504 0.955448
-0.015325069427 -1.124247670174 0.190009325743 -0.031224 -0.293504 0.955448
-0.390562146902 -1.022691845894 0.209155857563 -0.031224 -0.293504 0.955448
-0.497658073902 -1.109391093254 0.178994670510 -0.031224 -0.293504 0.955448
-0.310801446438 -1.014868378639 0.214143157005 -0.031224 -0.293504 0.955448
-0.019237313420 -1.032363057137 0.218179404736 -0.031224 -0.293504 0.955448
-0.224670201540 -1.113025426865 0.186698883772 -0.031224 -0.293504 0.955448
-0.232391744852 -1.089395761490 0.193726211786 -0.031224 -0.293504 0.955448
-0.361202061176 -1.095252513885 0.187759250402 -0.031224 -0.293504 0.955448
-0.048886418343 -0.899582803249 0.258111715317 -0.031224 -0.293504 0.955448
-0.372498303652 -1.005807042122 0.214939504862 -0.031224 -0.293504 0.955448
-0.069359272718 -1.081778526306 0.201341524720 -0.031224 -0.293504 0.955448
-0.356670737267 -0.955240249634 0.230613663793 -0.043401 -0.264128 0.963511
-0.579191446304 -0.865808606148 0.245199382305 -0.043401 -0.264128 0.963511
-0.184908166528 -0.858654141426 0.264748424292 -0.043401 -0.264128 0.963511
-0.150856420398 -0.846025168896 0.269728809595 -0.043401 -0.264128 0.963511
-0.470444411039 -0.885509431362 0.244650661945 -0.043401 -0.264128 0.963511
-0.290633887053 -0.931241273880 0.240137204528 -0.043401 -0.264128 0.963511
-0.686718940735 -1.054284930229 0.188744261861 -0.043401 -0.264128 0.963511
-0.597310543060 -0.909087300301 0.232529103756 -0.043401 -0.264128 0.963511
-0.637900710106 -0.848264157772 0.247389197350 -0.043401 -0.264128 0.963511
-0.633723616600 -0.897157490253 0.234174594283 -0.043401 -0.264128 0.963511
0.709160447121 -0.659512281418 0.152248129249 0.029219 0.813950 0.580200
0.349136888981 -0.647357523441 0.153882101178 0.029219 0.813950 0.580200
0.220568478107 -0.653775453568 0.169524371624 0.029219 0.813950 0.580200
-0.405974954367 -0.648515760899 0.159851089120 -0.020714 0.813372 0.581375
-0.061442025006 -0.643833160400 0.164980247617 -0.020714 0.813372 0.581375
-0.672100245953 -0.663482129574 0.171781063080 -0.020714 0.813372 0.581375
-0.424298018217 1.184298872948 0.475213348866 -0.011345 0.941596 0.336554
-0.454688310623 1.135429263115 0.479807108641 -0.573670 0.256187 0.777991
-0.370733559132 1.197482109070 0.356189250946 0.007587 0.993960 -0.109477
-0.294551610947 1.197576284409 0.361343860626 0.005420 0.993974 -0.109478
-0.245334759355 1.189998745918 0.445859164000 0.438479 0.841068 0.316766
-0.371328741312 1.073279857635 0.371208250523 -0.020374 -0.857075 -0.514788
-0.338351249695 1.163490056992 0.330739080906 0.026127 0.545914 -0.837434
-0.236012294888 1.102923631668 0.462719202042 0.566283 -0.456033 0.686555
-0.232669398189 1.152887701988 0.434390306473 0.999976 -0.006883 0.000983
-0.232948496938 1.109171152115 0.370496243238 0.999976 -0.006883 0.000983
0.061451435089 1.072785139084 0.428174227476 -0.003495 -0.977506 0.210880
0.002096646465 1.066505551338 0.397742807865 -0.008193 -0.977270 0.211839
-0.016907906160 1.198719501495 0.387850075960 0.007587 0.993960 -0.109477
0.051944710314 1.190853714943 0.350606709719 0.014975 0.529572 -0.848133
0.063151091337 1.149416327477 0.329985797405 0.026169 -0.292847 -0.955801
0.080407768488 1.082403302193 0.352347135544 0.009452 -0.857455 -0.514473
-0.089590661228 1.190922260284 0.361679583788 -0.352424 0.930345 -0.101271
-0.080687284470 1.195518851280 0.372987121344 -0.353311 0.929980 -0.101526
-0.027177635580 1.065925598145 0.394326955080 -0.005849 -0.976799 0.214077
0.081952750683 1.073038458824 0.367642462254 0.001346 -0.846861 -0.531813
0.472434073687 1.181254148483 0.450538307428 0.438479 0.841068 0.316766
0.468976408243 1.147991061211 0.479552745819 0.577373 0.248787 0.777654
0.448785543442 1.149256467819 0.486433595419 0.041872 0.308327 0.950358
0.375008374453 1.192710161209 0.441044747829 0.021597 0.941378 0.336660
0.420704990625 1.195919752121 0.387771099806 0.007587 0.993960 -0.109477
0.480586826801 1.167969942093 0.393087953329 0.999976 -0.006883 0.000983
0.420611530542 1.069250464439 0.422482252121 -0.008189 -0.976783 0.214073
0.353316694498 1.095877408981 0.476660788059 -0.032029 -0.575129 0.817435
0.358106881380 1.135784983635 0.493960916996 -0.034187 0.315283 0.948382
0.313556164503 1.199345231056 0.422850191593 -0.001260 0.936173 0.351537
0.425247609615 1.193506479263 0.366080820560 0.005420 0.993974 -0.109478
0.397039234638 1.124445676804 0.336493104696 0.021156 -0.297429 -0.954510
0.255026698112 1.178491950035 0.369242727757 -0.999976 0.006883 0.000983
0.272626519203 1.198021650314 0.409891366959 -0.353311 0.929980 -0.101526
0.301698267460 1.067534208298 0.411273002625 -0.005849 -0.976799 0.214077
0.441673189402 1.061910033226 0.381829142570 0.001346 -0.846861 -0.531813
-0.519443631172 1.069673776627 0.082924798131 -0.004051 0.849278 -0.527930
-0.376883566380 1.069633245468 0.081582702696 -0.004051 0.849278 -0.527930
-0.243125244975 1.124123573303 0.168172061443 -0.004051 0.849278 -0.527930
-0.451306343079 1.168484687805 0.241504892707 -0.004051 0.849278 -0.527930
-0.348343074322 1.151801705360 0.213705584407 -0.004051 0.849278 -0.527930
-0.435639500618 1.159896612167 0.227528825402 -0.004051 0.849278 -0.527930
-0.164277404547 1.122351288795 0.164610683918 -0.004051 0.849278 -0.527930
-0.532158434391 1.026879668236 0.014094663784 -0.004051 0.849278 -0.527930
-0.357339620590 1.120092988014 0.162701427937 -0.004051 0.849278 -0.527930
-0.291995465755 1.078331828117 0.094836570323 -0.004051 0.849278 -0.527930
-0.060572426766 1.014087796211 -0.014396052808 -0.009470 0.853611 -0.520825
-0.063132651150 1.052056670189 0.047783780843 -0.009470 0.853611 -0.520825
-0.355577439070 1.034429311752 0.024310290813 -0.009470 0.853611 -0.520825
-0.104767903686 1.063805222511 0.067774124444 -0.009470 0.853611 -0.520825
-0.043399024755 1.055953145027 0.053797472268 -0.009470 0.853611 -0.520825
-0.047253198922 1.100781679153 0.127226188779 -0.009470 0.853611 -0.520825
-0.074956193566 0.996944725513 -0.042185038328 -0.009470 0.853611 -0.520825
-0.122415296733 1.115441322327 0.152596190572 -0.009470 0.853611 -0.520825
-0.129810094833 1.116473555565 0.154421269894 -0.009470 0.853611 -0.520825
-0.278165519238 0.997533380985 -0.037488549948 -0.009470 0.853611 -0.520825
0.225135877728 1.138208985329 0.193132698536 0.012203 0.852849 -0.522014
0.532804548740 1.172291159630 0.256814062595 0.012203 0.852849 -0.522014
0.128170907497 1.139270782471 0.192374318838 0.012203 0.852849 -0.522014
0.106584228575 1.173321843147 0.247530728579 0.012203 0.852849 -0.522014
0.084229357541 1.115253090858 0.151947274804 0.012203 0.852849 -0.522014
0.107721939683 1.116052865982 0.153860345483 0.012203 0.852849 -0.522014
0.418723493814 1.151327848434 0.219579160213 0.012203 0.852849 -0.522014
0.528960824013 1.164822936058 0.244495987892 0.012203 0.852849 -0.522014
0.198636502028 1.050225257874 0.048497527838 0.012203 0.852849 -0.522014
0.119237862527 1.042822957039 0.034343034029 0.012203 0.852849 -0.522014
0.028518484905 1.047584652901 0.039799049497 0.012203 0.852849 -0.522014
0.006889249664 1.049983143806 0.043166458607 0.012203 0.852849 -0.522014
0.465510606766 1.173995494843 0.269332915545 0.019590 0.999080 0.038149
0.153463274240 1.179630637169 0.281791627407 0.019551 0.999160 0.036015
0.414501547813 1.174091458321 0.293357312679 0.019551 0.999160 0.036015
0.102946013212 1.176388263702 0.305322349072 0.011345 0.336554 0.941596
0.450098007917 1.173053622246 0.301975101233 0.011345 0.336554 0.941596
0.382601171732 1.171313405037 0.303483515978 0.011345 0.336554 0.941596
-0.181663498282 1.156192421913 0.312447249889 -0.006283 0.338001 0.941125
-0.031407184899 1.126166820526 0.324346661568 -0.006283 0.338001 0.941125
-0.005859051365 1.181768178940 0.300225675106 -0.009168 0.999322 0.035654
-0.296684443951 1.180784225464 0.260409742594 -0.009186 0.999244 0.037765
-0.005983485840 1.113039851189 0.329245179892 -0.006273 0.334978 0.942205
-0.396772384644 1.140301346779 0.316480845213 -0.006273 0.334978 0.942205
-0.004861482419 1.092255830765 0.310056716204 0.001383 -0.681775 0.731560
-0.254587620497 1.080403685570 0.292656928301 0.006330 -0.935528 0.353197
-0.101710565388 1.082747936249 0.296240091324 0.006330 -0.935528 0.353197
-0.321822494268 1.074153780937 0.277266740799 0.006330 -0.935528 0.353197
-0.521262288094 1.051540732384 0.226551741362 0.008973 -0.926750 0.375571
-0.341158449650 1.064845442772 0.254360288382 0.008973 -0.926750 0.375571
-0.027066737413 1.040194749832 0.180414840579 0.008803 -0.941904 0.335766
-0.088595122099 1.047345399857 0.202298834920 0.008803 -0.941904 0.335766
-0.343643844128 1.032782196999 0.168738529086 0.008803 -0.941904 0.335766
-0.070664405823 1.030020833015 0.153074279428 0.008803 -0.941904 0.335766
-0.117730736732 1.035135626793 0.168816193938 0.008803 -0.941904 0.335766
-0.159872025251 1.049486994743 0.210382491350 0.008803 -0.941904 0.335766
-0.510141313076 1.012304544449 0.101881332695 -0.006146 -0.955094 0.296239
-0.238082170486 1.012622833252 0.108334079385 -0.006146 -0.955094 0.296239
-0.305050909519 0.989349782467 0.032202243805 -0.006146 -0.955094 0.296239
-0.515107095242 1.037081122398 0.181409373879 -0.006146 -0.955094 0.296239
-0.539705395699 1.012513518333 0.101962946355 -0.006146 -0.955094 0.296239
-0.218911617994 1.008947014809 0.096903234720 -0.006146 -0.955094 0.296239
-0.415639370680 0.944862484932 -0.065652757883 -0.006533 -0.902865 0.429874
-0.314650774002 0.970906257629 -0.009678719565 -0.006533 -0.902865 0.429874
-0.516310930252 0.948455214500 -0.059454828501 -0.006533 -0.902865 0.429874
-0.536259412766 0.961480259895 -0.032398022711 -0.006533 -0.902865 0.429874
-0.279319137335 0.947907686234 -0.057452253997 -0.006533 -0.902865 0.429874
-0.423420041800 0.908499181271 -0.142034202814 -0.006533 -0.902865 0.429874
-0.491350293159 0.960018455982 -0.034867204726 -0.006533 -0.902865 0.429874
-0.202068626881 0.950872004032 -0.050206892192 -0.006533 -0.902865 0.429874
-0.188713788986 0.922334194183 -0.109882831573 -0.006533 -0.902865 0.429874
0.002247177064 0.920050144196 -0.112116217613 -0.006533 -0.902865 0.429874
-0.294353574514 0.899705410004 -0.158755064011 -0.006533 -0.902865 0.429874
-0.032731004059 0.890948235989 -0.173618018627 -0.006533 -0.902865 0.429874
-0.062417536974 0.905480504036 -0.143537908792 -0.006533 -0.902865 0.429874
-0.027573233470 0.894106268883 -0.166925832629 -0.006533 -0.902865 0.429874
-0.117464892566 0.878568887711 -0.200714737177 -0.006533 -0.902865 0.429874
-0.464771091938 0.883262932301 -0.195520341396 -0.006533 -0.902865 0.429874
0.280221462250 0.872232556343 -0.208678856492 -0.006533 -0.902865 0.429874
0.403501510620 0.862443864346 -0.227557316422 -0.006533 -0.902865 0.429874
0.569413959980 0.868812382221 -0.211979627609 -0.006533 -0.902865 0.429874
0.109493553638 0.954929590225 -0.037530172616 -0.006533 -0.902865 0.429874
0.256038993597 0.881056487560 -0.190496787429 -0.006533 -0.902865 0.429874
0.532610356808 0.878349781036 -0.192470237613 -0.006533 -0.902865 0.429874
0.167301386595 0.900435090065 -0.151043504477 -0.006533 -0.902865 0.429874
0.387823879719 0.899062991142 -0.150968566537 -0.006533 -0.902865 0.429874
0.254626989365 0.876549720764 -0.199967369437 -0.006533 -0.902865 0.429874
0.232491433620 0.973164439201 0.002373874653 -0.006533 -0.902865 0.429874
0.596822142601 0.876055181026 -0.196419432759 -0.006533 -0.902865 0.429874
0.486950159073 0.906658411026 -0.133704721928 -0.006533 -0.902865 0.429874
0.570724487305 0.922276318073 -0.099814713001 -0.006533 -0.902865 0.429874
0.417185008526 0.925564110279 -0.094986937940 -0.006533 -0.902865 0.429874
0.331203520298 0.970316588879 -0.002269806108 -0.006533 -0.902865 0.429874
0.322706192732 0.929166078568 -0.088704250753 -0.006533 -0.902865 0.429874
0.259936124086 0.944955885410 -0.056428309530 -0.006533 -0.902865 0.429874
0.623753666878 0.864655971527 -0.219968348742 -0.006533 -0.902865 0.429874
0.599801540375 1.020664215088 0.151032060385 -0.006142 -0.954396 0.298479
0.043710444123 0.985625684261 0.027220688760 -0.006142 -0.954396 0.298479
0.269017219543 1.000279664993 0.078849717975 -0.006142 -0.954396 0.298479
0.150274217129 0.997303843498 0.066838204861 -0.006142 -0.954396 0.298479
0.526992857456 1.030731558800 0.181739568710 -0.006142 -0.954396 0.298479
0.587231993675 0.991652190685 0.057886824012 -0.006142 -0.954396 0.298479
0.579200088978 0.986878097057 0.042434588075 -0.006142 -0.954396 0.298479
0.477386295795 1.040113449097 0.206301778555 -0.018966 -0.942001 0.335074
0.379676222801 1.024939417839 0.158049032092 -0.018966 -0.942001 0.335074
0.076804548502 1.015353798866 0.113743796945 -0.018966 -0.942001 0.335074
0.523131549358 1.045032024384 0.222749218345 -0.018966 -0.942001 0.335074
0.036111935973 1.043173670769 0.189607501030 -0.018966 -0.942001 0.335074
0.120354622602 1.011370420456 0.105043940246 -0.018966 -0.942001 0.335074
0.326459527016 1.047469735146 0.218327119946 -0.018966 -0.942001 0.335074
0.106275707483 1.055485844612 0.227149665356 -0.019362 -0.925517 0.378210
0.081420116127 1.055047273636 0.224797695875 -0.019362 -0.925517 0.378210
0.558292150497 1.052919030190 0.244049310684 -0.019362 -0.925517 0.378210
0.260078042746 1.063233137131 0.254193514585 -0.016548 -0.935624 0.352609
0.012483204715 1.084696292877 0.299860149622 -0.016548 -0.935624 0.352609
0.220722571015 1.073810219765 0.280416309834 -0.016548 -0.935624 0.352609
0.290547162294 1.090887427330 0.312088102102 -0.009719 -0.684509 0.728940
0.506764948368 1.100850701332 0.323941379786 -0.009718 -0.681643 0.731621
0.223485916853 1.128970742226 0.320755094290 0.013844 0.333512 0.942644
0.143760487437 1.122057318687 0.324282318354 0.013844 0.333512 0.942644
0.297113686800 1.008025527000 -0.015728130937 0.020466 0.847284 -0.530746
0.543596804142 1.068724870682 0.090389549732 0.020466 0.847284 -0.530746
0.462802350521 1.017418026924 0.005356512964 0.020466 0.847284 -0.530746
0.515455007553 1.063558816910 0.081095926464 0.020466 0.847284 -0.530746
0.590083897114 1.138811588287 0.204211130738 0.020466 0.847284 -0.530746
0.536155343056 0.982414543629 -0.047958124429 0.020466 0.847284 -0.530746
0.432618618011 0.986271858215 -0.045573495328 0.020466 0.847284 -0.530746
0.495148003101 1.102227568626 0.142214059830 0.020466 0.847284 -0.530746
0.565766155720 1.109361290932 0.156208574772 0.020466 0.847284 -0.530746
0.285133332014 1.019999623299 0.002989426255 0.020466 0.847284 -0.530746
0.559985101223 1.132811427116 0.193511545658 0.020466 0.847284 -0.530746
-0.549734890461 1.114665627480 0.163132548332 0.089837 0.845609 -0.526188
-0.522290170193 1.067180752754 0.122835204005 0.988851 -0.141264 -0.047088
-0.595284819603 1.152055382729 0.234054312110 -0.159898 0.861105 -0.482629
-0.598090887070 1.053713440895 0.057216912508 -0.218270 0.859531 -0.462130
-0.570887148380 1.079850435257 0.097544938326 0.269874 0.812743 -0.516349
-0.606084227562 0.900874614716 -0.191636756063 0.290459 0.782493 -0.550761
-0.575029850006 0.942554652691 -0.117532253265 -0.014887 0.856681 -0.515632
-0.535551071167 1.000993132591 0.105033963919 0.991433 -0.125198 -0.037221
-0.529241979122 1.069457650185 0.277437299490 0.339231 -0.856597 0.388799
-0.559095919132 1.054569482803 0.265894472599 -0.287792 -0.809906 0.511105
-0.585467457771 1.142521500587 0.320525467396 -0.902743 -0.044265 0.427897
-0.643273115158 0.982118129730 -0.013769725338 -0.988690 0.141570 0.049492
-0.610376536846 1.122014403343 0.227430552244 -0.976826 0.054470 0.206986
-0.646501958370 0.967592179775 -0.012535378337 -0.991309 0.125468 0.039562
-0.648058593273 0.878956973553 -0.116707094014 -0.983419 -0.170047 -0.063024
-0.626715540886 0.878308951855 -0.158108070493 -0.588804 -0.749242 -0.303226
-0.581001639366 0.852938711643 -0.057154789567 0.555559 -0.823861 0.112278
-0.634676814079 0.857452154160 -0.048649426550 -0.584378 -0.802232 0.122175
-0.642790973186 0.919131159782 0.073674365878 -0.905628 -0.283284 0.315575
-0.598466515541 0.945338785648 0.135267823935 -0.330507 -0.440154 0.834883
-0.606901466846 0.911976218224 0.106325082481 -0.417738 -0.718245 0.556434
-0.581548035145 0.891173183918 0.071022741497 0.501231 -0.747738 0.435495
-0.560876131058 0.878385663033 -0.042135670781 0.962720 -0.269266 0.025820
-0.548782050610 0.930678248405 0.029920198023 0.978955 -0.201932 -0.029522
0.596893668175 0.989502787590 -0.034268736839 0.256608 0.843579 -0.471728
0.606329143047 1.073558688164 0.107715830207 -0.077894 0.845501 -0.528261
0.613337099552 1.104847073555 0.153730273247 -0.259421 0.815545 -0.517288
0.665277719498 0.978748202324 -0.059544086456 0.231478 0.854803 -0.464468
0.645017027855 1.102551102638 0.157792001963 0.169981 0.858773 -0.483337
0.644863426685 1.136645197868 0.297458589077 0.934901 0.245289 0.256502
0.588873565197 1.171972155571 0.292434781790 -0.494368 0.768473 0.406263
0.568922877312 1.142024517059 0.324382811785 -0.512172 -0.034328 0.858197
0.579962193966 1.022170543671 0.117977261543 -0.990568 -0.128808 -0.046736
0.584384500980 1.018109202385 0.035013429821 -0.990568 -0.128808 -0.046736
0.614630579948 0.897911667824 -0.180090412498 0.439245 0.772353 -0.458840
0.657149553299 0.871262431145 -0.222445517778 0.286618 0.787012 -0.546316
0.577925443649 1.051336050034 0.245898395777 -0.387153 -0.850492 0.356056
0.577075779438 1.031624794006 0.164806708694 -0.919979 -0.385451 0.071181
0.595541357994 0.949404060841 0.019794121385 -0.992933 -0.112808 -0.036858
0.661754846573 0.865057229996 -0.186685755849 0.541897 -0.833798 -0.105489
0.646409511566 0.853572309017 -0.135751396418 -0.559615 -0.764860 -0.319093
0.621665060520 0.874663293362 0.044269517064 -0.502732 -0.740087 0.446690
0.616551816463 0.989182829857 0.161990970373 -0.414130 -0.777914 0.472595
0.654670000076 0.841254591942 0.026175066829 -0.512794 -0.737039 0.440245
0.671664834023 0.926711320877 0.119659870863 0.324458 -0.443583 0.835441
0.660853683949 0.837865352631 -0.011310196482 0.574397 -0.809445 0.121931
0.696493446827 0.955080032349 0.028659403324 0.992817 0.113049 0.039175
0.668824851513 1.094963550568 0.194119691849 0.990460 0.128794 0.049010
0.685689926147 1.005769371986 0.140510007739 0.962384 0.271689 -0.001208
0.705659031868 0.918793201447 -0.151174575090 0.973721 -0.223774 -0.042336
-0.557236194611 0.699273645878 -0.296573817730 0.591564 -0.055326 -0.804357
-0.564608335495 0.565480291843 -0.293658733368 0.531812 -0.045822 -0.845622
-0.554452121258 0.657738745213 -0.291902452707 0.990903 -0.104973 0.084209
-0.550890505314 0.741871476173 -0.213596358895 0.996891 -0.078785 0.001050
-0.588661134243 0.891792893410 -0.207566455007 0.303890 0.853051 -0.424212
-0.556306362152 0.838872909546 -0.282162606716 0.401369 0.797903 -0.449727
-0.541529059410 0.826301157475 -0.229026168585 0.990024 -0.112582 0.084727
-0.596364855766 0.689045488834 -0.305250674486 0.132081 -0.012209 -0.991164
-0.589081883430 0.493942409754 -0.296007007360 0.369342 -0.905251 -0.210018
-0.679996907711 0.499485045671 -0.201052486897 -0.983717 -0.169280 0.060373
-0.620647013187 0.773720562458 -0.304788917303 -0.163803 0.021764 -0.986253
-0.646824657917 0.525433301926 -0.304730117321 -0.129614 0.012186 -0.991490
-0.653681099415 0.855821549892 -0.230601534247 -0.802576 0.526150 -0.281137
-0.651310682297 0.832693696022 -0.277272313833 -0.932156 0.274993 -0.235507
-0.663863956928 0.791674017906 -0.255012154579 -0.990903 0.104973 -0.084209
-0.674124002457 0.707179725170 -0.237847924232 -0.996891 0.078785 0.001050
-0.673246145248 0.718217194080 -0.217067614198 -0.996891 0.078785 -0.001050
-0.681027948856 0.620371341705 -0.197106808424 -0.996891 0.078785 -0.001050
-0.654923379421 0.614312589169 -0.116577371955 -0.450681 0.036324 0.891946
-0.636020302773 0.802806913853 -0.190089061856 -0.241636 0.020437 0.970152
-0.663969755173 0.794895112514 -0.205074965954 -0.778696 0.061438 0.624386
-0.610847294331 0.637126207352 -0.110874451697 0.397167 0.311293 0.863340
-0.585489094257 0.602941334248 -0.118109732866 0.450681 -0.036324 0.891946
-0.657870650291 0.540740668774 -0.123577475548 -0.500682 -0.598459 0.625431
-0.592097938061 0.482249230146 -0.225363209844 0.400221 -0.892802 0.206708
-0.565621733665 0.556643188000 -0.212207794189 0.996891 -0.078785 0.001050
-0.573316037655 0.515776872635 -0.269344061613 0.940997 -0.332808 -0.061341
0.610098719597 0.605594098568 -0.295439958572 -0.532735 -0.037361 -0.845457
0.642998456955 0.474927604198 -0.263886660337 -0.379777 -0.900696 -0.210987
0.605824291706 0.635350823402 -0.180179402232 -0.997710 -0.067624 -0.001040
0.608223438263 0.599378168583 -0.244113147259 -0.997710 -0.067624 0.001040
0.598915040493 0.738948285580 -0.211497679353 -0.997710 -0.067624 -0.001040
0.594688296318 0.773409128189 -0.237808987498 -0.992219 -0.092485 0.083351
0.637228250504 0.878616452217 -0.217210784554 -0.289936 0.857536 -0.424933
0.613933444023 0.624697148800 -0.135299593210 -0.886780 0.117764 0.446937
0.610975921154 0.558107256889 -0.174195989966 -0.997710 -0.067624 -0.001040
0.691474795341 0.540735602379 -0.109274312854 0.451821 0.030836 0.891576
0.724132359028 0.575684189796 -0.137515977025 0.926571 0.062480 0.370894
0.684937477112 0.468424081802 -0.281656235456 0.446723 -0.868047 -0.216638
0.616378068924 0.811555683613 -0.302148580551 -0.164207 -0.010192 -0.986373
0.679365396500 0.573289096355 -0.305826514959 0.131794 0.009968 -0.991227
0.652716636658 0.754899799824 -0.183993503451 -0.243352 -0.015584 0.969813
0.706765174866 0.734236657619 -0.190654903650 0.322589 0.624103 0.711640
0.724779844284 0.656441569328 -0.174078941345 0.997710 0.067624 -0.001040
0.729097485542 0.591701686382 -0.254942774773 0.997710 0.067624 -0.001040
0.721720755100 0.691518783569 -0.251247465611 0.992219 0.092485 -0.083351
0.699097871780 0.792174220085 -0.298913270235 0.647903 0.058640 -0.759462
0.710513114929 0.819364070892 -0.239218220115 0.991452 0.099949 -0.083866
0.667813003063 0.671703457832 -0.125691041350 0.367898 0.364793 0.855323
-0.230242282152 0.455741852522 -0.250378996134 -0.031891 -0.830559 -0.556017
-0.064319774508 0.451909214258 -0.253961175680 -0.031891 -0.830559 -0.556017
-0.284838318825 0.448656022549 -0.236749663949 -0.031891 -0.830559 -0.556017
-0.321190774441 0.457198470831 -0.247456178069 -0.031891 -0.830559 -0.556017
-0.550936818123 0.454208612442 -0.227407887578 -0.037210 -0.991151 0.127418
-0.534348607063 0.460014432669 -0.177068799734 -0.037210 -0.991151 0.127418
-0.157894179225 0.444239586592 -0.189927309752 -0.037210 -0.991151 0.127418
-0.202268481255 0.449074327946 -0.165099054575 -0.037210 -0.991151 0.127418
0.067583240569 0.440148234367 -0.185905918479 0.021150 -0.991832 0.125788
0.042413845658 0.442676514387 -0.161954373121 0.021150 -0.991832 0.125788
0.389467626810 0.442143529654 -0.223122030497 0.021150 -0.991832 0.125788
0.490134000778 0.446356356144 -0.206634297967 0.021150 -0.991832 0.125788
0.534793198109 0.460226505995 -0.253397524357 0.017853 -0.830860 -0.556195
0.415398836136 0.461717605591 -0.259358227253 0.017853 -0.830860 -0.556195
0.200753360987 0.450477629900 -0.157920196652 0.012504 -0.643272 0.765536
0.391912221909 0.464618921280 -0.149407327175 0.012504 -0.643272 0.765536
0.598779022694 0.488419413567 -0.133064538240 0.012504 -0.643272 0.765536
0.398663461208 0.471897453070 -0.143414661288 0.012504 -0.643272 0.765536
0.106392145157 0.480340868235 -0.133016929030 -0.006210 0.319201 0.947667
0.292452722788 0.523195862770 -0.146103441715 -0.006210 0.319201 0.947667
0.241857111454 0.496991813183 -0.137656658888 -0.006210 0.319201 0.947667
0.541816771030 0.571827948093 -0.160679385066 -0.006210 0.319201 0.947667
0.107678532600 0.552124619484 -0.157123282552 -0.006210 0.319201 0.947667
0.442660033703 0.536574780941 -0.149538397789 -0.006210 0.319201 0.947667
0.626073241234 0.710788905621 -0.186710968614 -0.003425 0.183805 0.982957
0.624332487583 0.721198439598 -0.188660100102 -0.003425 0.183805 0.982957
0.583946108818 0.603466987610 -0.166850820184 -0.003425 0.183805 0.982957
0.609123826027 0.629443585873 -0.171599149704 -0.003425 0.183805 0.982957
0.642429769039 0.628068804741 -0.171212136745 -0.003425 0.183805 0.982957
0.199962794781 0.657645463943 -0.177671357989 0.001125 0.165311 0.986241
0.106366321445 0.672934651375 -0.180148974061 0.001125 0.165311 0.986241
0.110300064087 0.602550387383 -0.168332159519 0.001125 0.165311 0.986241
0.194054797292 0.677309513092 -0.180968120694 0.001125 0.165311 0.986241
0.393525630236 0.729671478271 -0.189954012632 0.001125 0.165311 0.986241
0.045486927032 0.602183341980 -0.168208122253 0.001125 0.165311 0.986241
0.521395206451 0.835729479790 -0.202266454697 0.001081 0.111381 0.993777
0.155153959990 0.746049821377 -0.191928476095 0.001081 0.111381 0.993777
0.448867261410 0.780409157276 -0.195988342166 0.001081 0.111381 0.993777
0.527029931545 0.814071416855 -0.199830532074 0.001081 0.111381 0.993777
0.229509219527 0.820934712887 -0.200396955013 0.001079 0.111142 0.993804
0.380674421787 0.838773548603 -0.202508166432 0.001079 0.111142 0.993804
0.080930203199 0.780851244926 -0.195790097117 0.001079 0.111142 0.993804
0.502958297729 0.846447050571 -0.203457355499 0.001079 0.111142 0.993804
-0.052092496306 0.804204285145 -0.198316708207 0.001079 0.111142 0.993804
-0.072084620595 0.842891693115 -0.202645987272 0.001079 0.111142 0.993804
-0.075118966401 0.850916028023 -0.203544750810 0.001079 0.111142 0.993804
-0.521831393242 0.798672199249 -0.197335779667 0.001081 0.111381 0.993777
-0.417302906513 0.745269715786 -0.191404640675 0.001081 0.111381 0.993777
-0.085587710142 0.752640426159 -0.192501336336 0.001081 0.111381 0.993777
-0.557813227177 0.750068187714 -0.191832244396 0.001081 0.111381 0.993777
-0.225095152855 0.637665808201 -0.173853114247 0.001127 0.165678 0.986179
-0.172799646854 0.723850250244 -0.188389778137 0.001127 0.165678 0.986179
-0.181094005704 0.700852096081 -0.184517472982 0.001127 0.165678 0.986179
-0.299746841192 0.706843495369 -0.185381561518 0.001127 0.165678 0.986179
-0.235775738955 0.692081451416 -0.182979017496 0.001127 0.165678 0.986179
-0.195904999971 0.606302917004 -0.168259561062 0.008031 0.182412 0.983189
-0.276601314545 0.644834935665 -0.174876973033 0.008031 0.182412 0.983189
-0.491219341755 0.709738135338 -0.185470521450 0.008031 0.182412 0.983189
-0.506332337856 0.586888432503 -0.162459149957 0.008031 0.182412 0.983189
-0.294706434011 0.600474834442 -0.166478887200 0.008031 0.182412 0.983189
-0.224844098091 0.552766799927 -0.155211344361 0.011240 0.318455 0.947871
-0.502168297768 0.575649440289 -0.159384429455 0.011240 0.318455 0.947871
-0.221919223666 0.561946034431 -0.158328935504 0.011240 0.318455 0.947871
-0.016718951985 0.545747160912 -0.155483767390 0.011240 0.318455 0.947871
-0.140228956938 0.492446392775 -0.136025488377 0.011240 0.318455 0.947871
-0.546882867813 0.470998495817 -0.154482364655 -0.023801 -0.642616 0.765819
-0.122773818672 0.457117587328 -0.152764186263 -0.023801 -0.642616 0.765819
-0.392151206732 0.324375331402 0.497776567936 -0.033906 0.178885 0.983285
-0.473723441362 0.355445444584 0.464160114527 -0.999976 0.006883 0.000983
-0.473649352789 0.367048770189 0.419927388430 -0.999976 0.006883 0.000983
-0.386297136545 0.295669913292 0.495035231113 -0.032495 -0.685223 0.727608
-0.289421916008 0.312145829201 0.498183995485 0.040961 0.172037 0.984239
-0.261888116598 0.362672269344 0.473679274321 0.438526 0.788052 0.432053
-0.397867679596 0.257074207067 0.402148693800 -0.005275 -0.997016 0.077018
-0.421078890562 0.263098955154 0.371982485056 -0.012482 -0.764168 -0.644897
-0.403075009584 0.303290307522 0.346844315529 -0.024063 -0.161564 -0.986569
-0.248243644834 0.332340508699 0.408165305853 0.999976 -0.006883 -0.000983
-0.253438234329 0.276210278273 0.368199348450 0.441234 -0.680998 -0.584426
-0.252313435078 0.265240013599 0.408505678177 0.444459 -0.893046 0.070178
-0.354211568832 0.302765935659 0.346061676741 0.021715 -0.163433 -0.986315
-0.278247982264 0.290125787258 0.349868118763 0.026313 -0.156731 -0.987291
-0.328551679850 0.369561612606 0.351713478565 0.026640 0.657576 -0.752917
-0.271530270576 0.356646716595 0.342345237732 0.015310 0.641614 -0.766875
-0.276874870062 0.353158175945 0.138379469514 0.037800 0.969377 -0.242649
-0.167981728911 0.296904921532 -0.069350987673 0.037800 0.969377 -0.242649
-0.171667963266 0.314493119717 0.000344008207 0.037800 0.969377 -0.242649
-0.164457932115 0.271369695663 -0.170822471380 0.037800 0.969377 -0.242649
-0.208460703492 0.374685734510 0.235083714128 0.037800 0.969377 -0.242649
-0.349590569735 0.367521733046 0.322094529867 0.027149 0.204209 0.978551
-0.436994969845 0.376648843288 0.318136304617 -0.029576 0.204668 0.978384
-0.395832777023 0.385916948318 0.297708988190 -0.036105 0.984165 0.173539
-0.494004011154 0.384602457285 0.285844922066 -0.033906 0.983285 0.178885
-0.387934952974 0.317723035812 -0.017339970917 -0.022907 0.970523 -0.239918
-0.458515346050 0.376255303621 0.226519197226 -0.022907 0.970523 -0.239918
-0.385264962912 0.279066234827 -0.174011245370 -0.022907 0.970523 -0.239918
-0.385248869658 0.288559764624 -0.135602056980 -0.022907 0.970523 -0.239918
-0.400605976582 0.365510582924 0.177271470428 -0.022907 0.970523 -0.239918
-0.444760441780 0.331860989332 0.045528676361 -0.022907 0.970523 -0.239918
-0.293992042542 0.262178272009 -0.231774210930 0.045370 0.969932 -0.239111
-0.309038430452 0.307451307774 -0.051553398371 0.045370 0.969932 -0.239111
-0.317739546299 0.331387788057 0.043589636683 0.045370 0.969932 -0.239111
-0.228195965290 0.266440242529 -0.201990932226 0.045370 0.969932 -0.239111
-0.251864254475 0.291418731213 -0.105488181114 0.045370 0.969932 -0.239111
-0.331118792295 0.349928230047 0.116018228233 0.045370 0.969932 -0.239111
-0.557980656624 0.339099556208 0.088987484574 -0.035343 0.968888 -0.244964
-0.561378717422 0.295064449310 -0.085610657930 -0.035343 0.968888 -0.244964
-0.389530420303 0.273556679487 -0.195838615298 -0.035343 0.968888 -0.244964
-0.438867121935 0.254379302263 -0.264994680882 -0.035343 0.968888 -0.244964
-0.532067716122 0.332568794489 0.059294506907 -0.035343 0.968888 -0.244964
-0.524522542953 0.282259345055 -0.141824409366 -0.035343 0.968888 -0.244964
-0.512313961983 0.324377208948 0.326510399580 -0.031897 0.199650 0.979348
-0.369413107634 0.284801989794 0.287514120340 0.025106 -0.974365 0.223566
-0.495423138142 0.271747231483 0.246196210384 0.035301 -0.970179 0.239806
-0.397989273071 0.258416593075 0.175962194800 0.034336 -0.979174 0.200097
-0.408126235008 0.247694492340 0.125348791480 0.034336 -0.979174 0.200097
-0.462400972843 0.224233269691 0.003481172025 -0.005639 -0.986892 0.161286
-0.476943165064 0.237557068467 0.083920583129 -0.005639 -0.986892 0.161286
-0.482502430677 0.181380212307 -0.126818180084 -0.006258 -0.942486 0.334188
-0.372617363930 0.217135578394 -0.024204568937 -0.006258 -0.942486 0.334188
-0.497150361538 0.182970523834 -0.122603833675 -0.006258 -0.942486 0.334188
-0.382890552282 0.177492067218 -0.135974317789 -0.006258 -0.942486 0.334188
-0.440016627312 0.159802377224 -0.186792194843 -0.006258 -0.942486 0.334188
-0.270214468241 0.173993781209 -0.143796145916 -0.006258 -0.942486 0.334188
-0.302715480328 0.172207757831 -0.149407371879 -0.006258 -0.942486 0.334188
-0.320599645376 0.195266291499 -0.084825620055 -0.006258 -0.942486 0.334188
-0.238231480122 0.200664386153 -0.068145722151 -0.006258 -0.942486 0.334188
-0.194417312741 0.144729286432 -0.224805161357 -0.006258 -0.942486 0.334188
-0.288311451674 0.191808030009 -0.093978725374 -0.006258 -0.942486 0.334188
-0.204839214683 0.229575634003 0.046493805945 -0.005639 -0.986892 0.161286
-0.156672149897 0.222334206104 0.004195600748 -0.005639 -0.986892 0.161286
-0.179625779390 0.251174807549 0.177960485220 -0.046718 -0.978672 0.200047
-0.239990115166 0.242771565914 0.122562810779 -0.046718 -0.978672 0.200047
-0.224568873644 0.257294833660 0.196487292647 -0.047931 -0.969675 0.239653
-0.337240576744 0.274552464485 0.246318832040 -0.039827 -0.973943 0.223271
-0.286234021187 0.290116608143 0.309803634882 -0.023703 -0.779424 0.626049
-0.194978073239 0.355277001858 0.320484638214 0.027112 0.199217 0.979580
-0.223397165537 0.358041048050 0.204666256905 -0.781997 0.583788 -0.218340
-0.204010635614 0.334153324366 0.096670784056 -0.182589 0.950817 -0.250215
-0.144526034594 0.257504522800 -0.238508880138 -0.173385 0.952948 -0.248653
-0.175245225430 0.308446228504 -0.022335886955 -0.173385 0.952948 -0.248653
-0.136296883225 0.252509295940 -0.262299120426 0.158106 0.963009 -0.218212
-0.153886944056 0.329596370459 0.063647583127 0.158106 0.963009 -0.218212
-0.135299652815 0.332335144281 0.095281139016 0.219824 0.953469 -0.206338
-0.149767860770 0.330293893814 0.070283725858 0.219824 0.953469 -0.206338
-0.139686360955 0.329757750034 0.295494139194 0.934939 0.205435 0.289286
-0.207139670849 0.376571953297 0.304474383593 -0.527850 0.711016 0.464575
-0.233651906252 0.354066401720 0.288479775190 -0.989745 0.137813 -0.037585
-0.216578200459 0.271421909332 0.137325584888 -0.993376 -0.084567 -0.077801
-0.212090805173 0.296317964792 0.052977211773 -0.993376 -0.084567 -0.077801
-0.202024370432 0.239338755608 0.006560930982 -0.973505 -0.215923 -0.075265
-0.190439671278 0.227102965117 -0.120957382023 -0.985875 -0.152309 -0.069661
-0.098682522774 0.220460161567 -0.249957114458 0.755680 -0.368902 -0.541164
-0.090162307024 0.223180085421 -0.229720577598 0.979842 -0.088855 -0.178928
-0.094703786075 0.233557119966 -0.044837281108 0.985643 0.152639 0.072178
-0.103865325451 0.273850053549 0.000454172492 0.993376 0.084567 0.077801
-0.113127425313 0.288880765438 0.101349130273 0.993376 0.084567 0.077801
-0.085571192205 0.250878006220 -0.208854034543 0.482854 0.861505 -0.157038
-0.219998225570 0.272152364254 0.259568631649 -0.385329 -0.893194 0.231788
-0.196973130107 0.220280215144 -0.018950477242 -0.993047 -0.093769 -0.071174
-0.134471848607 0.099646627903 -0.174943089485 -0.558300 -0.714027 -0.422452
-0.153637558222 0.091545164585 -0.035933084786 -0.549300 -0.835535 -0.012267
-0.118669703603 0.140780806541 -0.220956072211 0.590482 -0.546492 -0.593866
-0.084587372839 0.201949149370 -0.127385079861 0.986701 0.140620 0.081536
-0.131192356348 0.229830905795 0.155075043440 0.304514 -0.812563 0.497004
-0.182545959949 0.173222586513 0.083818018436 -0.517064 -0.577697 0.631593
-0.123193770647 0.137348785996 0.057843755931 0.408846 -0.793453 0.450862
-0.088121987879 0.130052000284 -0.074983976781 0.971027 -0.238894 0.005943
-0.092681653798 0.112396121025 -0.038513109088 0.964225 -0.264950 -0.008469
-0.542260944843 0.268448531628 -0.180002659559 0.194644 0.948719 -0.249090
-0.494491964579 0.362418055534 0.227862626314 0.847966 0.489501 -0.203331
-0.585960507393 0.332285672426 0.079414486885 -0.207262 0.956078 -0.207262
-0.564363718033 0.327185988426 0.037735261023 -0.144152 0.964910 -0.219475
-0.569954514503 0.317685872316 -0.000280812383 -0.144152 0.964910 -0.219475
-0.534394085407 0.360525429249 0.175951555371 0.188295 0.949600 -0.250608
-0.527351379395 0.283745884895 0.323678672314 -0.275879 -0.890269 0.362371
-0.579839885235 0.314379423857 0.300820440054 -0.902494 -0.101513 0.418568
-0.597533166409 0.337474167347 0.129347398877 -0.586932 0.799824 -0.125666
-0.625296950340 0.272134095430 -0.149520233274 -0.472439 0.867357 -0.156505
-0.632997095585 0.246963292360 -0.242329597473 -0.980772 -0.076001 -0.179748
-0.593823432922 0.230983495712 -0.278754860163 -0.522030 -0.188051 -0.831938
-0.606165587902 0.119366452098 -0.183615446091 -0.589778 -0.698813 -0.404750
-0.624003410339 0.230887874961 0.038367494941 -0.983491 0.165703 0.072719
-0.630622148514 0.212941750884 -0.024123400450 -0.991749 0.106137 0.071899
-0.636967778206 0.199347615242 -0.084105819464 -0.984712 0.153601 0.082159
-0.640426099300 0.187077119946 -0.103954449296 -0.999936 0.008919 0.006937
-0.591115355492 0.082441866398 -0.071259751916 -0.585627 -0.810552 0.006857
-0.538403511047 0.163529902697 -0.103122703731 0.999936 -0.008919 -0.006937
-0.527900218964 0.202011838555 -0.001099139452 0.991749 -0.106137 -0.071899
-0.543153882027 0.179404184222 0.086825884879 0.510096 -0.584169 0.631307
-0.625067353249 0.283705919981 -0.079144880176 -0.992193 0.096827 0.078601
-0.613515496254 0.281253904104 0.069498106837 -0.992193 0.096827 0.078601
-0.613190412521 0.121136173606 0.010865012184 -0.491702 -0.762873 0.419825
-0.574430465698 0.113621339202 0.018004139885 0.501896 -0.798254 0.333004
-0.571271061897 0.099488839507 -0.020463353023 0.492366 -0.801489 0.339398
-0.499142467976 0.279990524054 0.188480228186 0.985435 -0.010253 -0.169745
-0.515533924103 0.260014951229 0.041518136859 0.992193 -0.096827 -0.078601
-0.509122550488 0.287881165743 0.088450066745 0.992193 -0.096827 -0.078601
-0.173783600330 -0.327748566866 -0.346950381994 -0.587786 -0.046515 -0.807678
-0.183080434799 -0.230488196015 -0.263262897730 -0.998513 -0.054502 -0.001028
-0.187321141362 -0.153391689062 -0.233917206526 -0.998513 -0.054502 -0.001028
-0.188391432166 -0.133933886886 -0.302926182747 -0.998513 -0.054502 0.001028
-0.194186419249 -0.028580833226 -0.294705718756 -0.998513 -0.054502 0.001028
-0.166553035378 0.079074457288 -0.237085178494 -0.300370 0.054961 0.952238
-0.186931148171 -0.082930840552 -0.244840011001 -0.863292 0.272538 0.424794
-0.143663004041 -0.348978132010 -0.193885162473 -0.485313 -0.599504 0.636448
-0.084359437227 -0.378645926714 -0.315433025360 0.507705 -0.829814 -0.231612
-0.131123870611 -0.370959401131 -0.356437742710 -0.149003 -0.028436 -0.988428
-0.155020162463 -0.237973213196 -0.356646329165 -0.149003 -0.028436 -0.988428
-0.176024720073 0.096852555871 -0.362575769424 -0.161920 -0.026413 -0.986450
-0.106847599149 -0.347347050905 -0.357847839594 0.149262 -0.012345 -0.988721
-0.132590800524 -0.012671530247 -0.365721732378 0.149262 -0.012345 -0.988721
-0.084681950510 -0.040766209364 -0.357693046331 0.164207 -0.010192 -0.986373
-0.121701829135 0.001607622951 -0.231053799391 0.254709 0.013279 0.966927
-0.168333500624 -0.000270274671 -0.236002281308 -0.254709 -0.013279 0.966927
-0.105836071074 -0.074472904205 -0.222931593657 0.352613 0.573606 0.739351
-0.116575121880 -0.054051138461 -0.231596946716 0.254709 0.013279 0.966927
-0.061450883746 -0.253366798162 -0.234304860234 0.998513 0.054502 0.001028
-0.067668490112 -0.140330925584 -0.228369370103 0.998513 0.054502 -0.001028
-0.068660110235 -0.122303701937 -0.281316220760 0.998513 0.054502 0.001028
-0.064174205065 -0.203857570887 -0.345037668943 0.998513 0.054502 -0.001028
-0.078402079642 0.054805435240 -0.294462502003 0.998513 0.054502 -0.001028
-0.172184765339 -0.227150589228 -0.166621074080 -0.933538 -0.051063 0.354823
-0.530804038048 0.005019500852 -0.301155954599 0.997710 -0.067624 0.001040
-0.547031641006 -0.234247326851 -0.325106292963 0.997710 -0.067624 0.001040
-0.529179692268 0.028969189152 -0.287677735090 0.997710 -0.067624 0.001040
-0.533913433552 0.072103701532 -0.249029546976 0.833847 -0.015061 0.551790
-0.554795801640 -0.011075968854 -0.360144704580 0.162278 -0.028773 -0.986326
-0.572977364063 -0.310311287642 -0.354101747274 0.146768 -0.030719 -0.988694
-0.647617638111 -0.096500389278 -0.355946570635 -0.590235 0.023609 -0.806886
-0.614990055561 0.009952326305 -0.362638950348 -0.163844 -0.007910 -0.986455
-0.620598971844 -0.355164885521 -0.358302384615 -0.149266 -0.010101 -0.988746
-0.631267547607 0.151525706053 -0.253966480494 -0.960469 0.276367 -0.033462
-0.647891104221 0.054832506925 -0.269564598799 -0.997710 0.067624 -0.001040
-0.660168945789 -0.126197203994 -0.327561408281 -0.997710 0.067624 -0.001040
-0.619586110115 -0.346589148045 -0.177791625261 -0.540638 -0.544006 0.641692
-0.587908387184 -0.370636671782 -0.223063066602 0.459144 -0.859578 0.224303
-0.578451037407 -0.375345140696 -0.260350018740 0.459144 -0.859578 0.224303
-0.542595326900 -0.168837159872 -0.207706823945 0.997710 -0.067624 -0.001040
-0.545368254185 -0.209722325206 -0.305396199226 0.997710 -0.067624 -0.001040
-0.377377420664 -0.417037904263 -0.296732068062 -0.076168 -0.794735 -0.602159
-0.567743182182 -0.410436183214 -0.281916290522 -0.073350 -0.792463 -0.605493
-0.467063426971 -0.420081794262 -0.252018928528 -0.091770 -0.985629 0.141826
-0.463022589684 -0.414014518261 -0.207390651107 -0.091770 -0.985629 0.141826
-0.325000822544 -0.427253752947 -0.259194970131 0.079161 -0.986557 0.142962
-0.178251653910 -0.410273641348 -0.223819300532 0.079161 -0.986557 0.142962
-0.163580253720 -0.416600704193 -0.277124136686 0.064207 -0.794739 -0.603545
-0.239307254553 -0.366269707680 -0.176009804010 -0.023488 0.285567 0.958071
-0.357142210007 -0.356908231974 -0.181653678417 -0.023488 0.285567 0.958071
-0.182572066784 -0.334169030190 -0.184163257480 -0.023505 0.283294 0.958745
-0.165147051215 -0.238167583942 -0.209072127938 -0.012489 0.162361 0.986652
-0.195912748575 -0.208480462432 -0.214372456074 -0.012489 0.162361 0.986652
-0.355396687984 -0.187653928995 -0.218703150749 0.001110 0.147635 0.989041
-0.264895200729 -0.099162712693 -0.231899678707 0.001110 0.147635 0.989041
-0.278987735510 -0.177899733186 -0.220198631287 0.001110 0.147635 0.989041
-0.279919862747 -0.032595310360 -0.239846214652 0.001069 0.099398 0.995047
-0.205313205719 -0.061735522002 -0.236985489726 0.001069 0.099398 0.995047
-0.214730411768 -0.057831726968 -0.237368956208 0.001069 0.099398 0.995047
-0.286512404680 0.058749511838 -0.248894840479 0.001069 0.099398 0.995047
-0.355468511581 0.057934559882 -0.248770579696 0.001069 0.099398 0.995047
-0.232869565487 0.076285213232 -0.250664740801 0.001069 0.099398 0.995047
-0.422534942627 0.127273008227 -0.255592554808 0.001069 0.099398 0.995047
-0.433601766825 0.092344202101 -0.252127677202 0.001069 0.099398 0.995047
-0.414146870375 -0.066195271909 -0.236434772611 0.001069 0.099398 0.995047
-0.458291351795 -0.044236950576 -0.238575682044 0.001069 0.099398 0.995047
-0.463987231255 -0.068398177624 -0.236173525453 0.001069 0.099398 0.995047
-0.454257935286 -0.100420355797 -0.231536358595 0.001110 0.147635 0.989041
-0.425921708345 -0.141299232841 -0.225502356887 0.001110 0.147635 0.989041
-0.486388325691 -0.138350397348 -0.225862771273 0.001110 0.147635 0.989041
-0.585089862347 -0.142783775926 -0.223980188370 0.014793 0.162720 0.986561
-0.548249661922 -0.163878902793 -0.221103280783 0.014793 0.162720 0.986561
-0.482567071915 -0.315448284149 -0.190883845091 0.028517 0.283931 0.958421
-0.513568818569 -0.353767067194 -0.178639829159 0.026039 0.283950 0.958485
-0.380218625069 -0.393006116152 -0.184138610959 -0.055359 -0.594756 0.801998
0.428943395615 0.328150779009 0.495190650225 0.040961 0.172037 0.984239
0.444956272840 0.383241266012 0.407286077738 0.007089 0.999482 0.031392
0.478853136301 0.378175646067 0.393876105547 0.363847 0.930982 0.029781
0.331925302744 0.287887424231 0.491407126188 -0.032495 -0.685223 0.727608
0.320493072271 0.383590161800 0.421935677528 0.005063 0.999494 0.031392
0.363842964172 0.383738934994 0.407888680696 0.007089 0.999544 0.029369
0.423931300640 0.371515184641 0.357923656702 0.015310 0.641614 -0.766875
0.427996784449 0.328515380621 0.342281967402 0.026313 -0.156731 -0.987291
0.360756456852 0.263650894165 0.364414125681 -0.020925 -0.777010 -0.629141
0.259998887777 0.338380813599 0.435678720474 -0.999976 0.006883 -0.000983
0.268636524677 0.258969396353 0.406410008669 -0.454370 -0.888024 0.070434
0.194405168295 0.320096462965 0.030608935282 -0.025361 0.969759 -0.242742
0.181639671326 0.257459849119 -0.218407258391 -0.025361 0.969759 -0.242742
0.349377453327 0.371470332146 0.219634965062 -0.025361 0.969759 -0.242742
0.294278502464 0.381088107824 0.263878613710 -0.025361 0.969759 -0.242742
0.226869955659 0.297564238310 -0.062870956957 -0.025361 0.969759 -0.242742
0.326083242893 0.371890962124 0.223768875003 -0.025361 0.969759 -0.242742
0.192567959428 0.259391903877 -0.211976557970 -0.032792 0.970402 -0.239260
0.347645342350 0.251323223114 -0.266187757254 -0.032792 0.970402 -0.239260
0.179701611400 0.252502232790 -0.238064795732 -0.032792 0.970402 -0.239260
0.327975511551 0.321156769991 0.019110649824 -0.032792 0.970402 -0.239260
0.370639562607 0.374853461981 0.230447888374 -0.032792 0.970402 -0.239260
0.291119515896 0.320201665163 0.020370841026 -0.032792 0.970402 -0.239260
0.446922540665 0.375465691090 0.243712335825 0.035301 0.970179 -0.239806
0.477273344994 0.338113367558 0.097239434719 0.035301 0.970179 -0.239806
0.418343216181 0.367893993855 0.208763450384 0.035301 0.970179 -0.239806
0.398029237986 0.353302896023 0.146676421165 0.035301 0.970179 -0.239806
0.523714005947 0.362229853868 0.201805502176 0.035301 0.970179 -0.239806
0.408682823181 0.349629104137 0.133430778980 0.035301 0.970179 -0.239806
0.460925072432 0.379086434841 0.292860150337 0.046000 0.982506 0.180460
0.423638820648 0.378466546535 0.306584030390 0.048302 0.983705 0.173179
0.508282124996 0.358636319637 0.318711578846 0.032030 0.202855 0.978685
0.309310227633 0.364619374275 0.320496529341 -0.022378 0.203762 0.978765
0.271940827370 0.382125943899 0.280439227819 -0.033829 0.983363 0.178475
0.323269069195 0.316979557276 0.330723971128 -0.024699 0.198770 0.979735
0.261421144009 0.275976806879 0.281795650721 0.027496 -0.974304 0.223552
0.211847499013 0.255811214447 0.205894157290 0.035301 -0.970179 0.239806
0.364821016788 0.228912651539 0.050052888691 0.034416 -0.979076 0.200562
0.341801792383 0.230926588178 0.063941963017 0.034416 -0.979076 0.200562
0.268260896206 0.232896327972 0.085152477026 -0.005639 -0.986892 0.161286
0.150010332465 0.217632979155 -0.012544617057 -0.005639 -0.986892 0.161286
0.174952477217 0.249372050166 0.182554140687 -0.005639 -0.986892 0.161286
0.223571002483 0.170544639230 -0.144628122449 -0.006258 -0.942486 0.334188
0.254704177380 0.185543671250 -0.101850546896 -0.006258 -0.942486 0.334188
0.166804641485 0.174338907003 -0.134963899851 -0.006258 -0.942486 0.334188
0.369283050299 0.174493908882 -0.130896776915 -0.006258 -0.942486 0.334188
0.220536515117 0.126712858677 -0.268059521914 -0.006258 -0.942486 0.334188
0.185432210565 0.125210583210 -0.272918790579 -0.006258 -0.942486 0.334188
0.403163462877 0.194202676415 -0.074813485146 -0.006258 -0.942486 0.334188
0.421138554811 0.191335231066 -0.082561522722 -0.006258 -0.942486 0.334188
0.431051611900 0.137748867273 -0.233213424683 -0.006258 -0.942486 0.334188
0.569317877293 0.175462216139 -0.124568961561 -0.006258 -0.942486 0.334188
0.455439805984 0.210050716996 -0.029261449352 -0.006258 -0.942486 0.334188
0.573102951050 0.137483328581 -0.231406226754 -0.006258 -0.942486 0.334188
0.547236561775 0.237227663398 0.121806606650 -0.005639 -0.986892 0.161286
0.514035344124 0.237258344889 0.120619557798 -0.005639 -0.986892 0.161286
0.533721625805 0.247082978487 0.174755066633 -0.046718 -0.978672 0.200047
0.498403429985 0.244183897972 0.152431741357 -0.046718 -0.978672 0.200047
0.527067363262 0.269913494587 0.268625646830 -0.047902 -0.969101 0.241968
0.455109089613 0.266266971827 0.240174114704 -0.037416 -0.974033 0.223291
0.395260453224 0.283670753241 0.305553942919 -0.018097 -0.778154 0.627813
0.572134554386 0.358341157436 0.194529041648 0.047988 0.968370 -0.244861
0.506798982620 0.283469289541 -0.115716502070 0.047988 0.968370 -0.244861
0.519753813744 0.268126934767 -0.174165144563 0.047988 0.968370 -0.244861
0.412336289883 0.262538731098 -0.217270761728 0.047988 0.968370 -0.244861
0.510285794735 0.324027597904 0.046137124300 0.047988 0.968370 -0.244861
0.507713913918 0.246483504772 -0.262516736984 0.047988 0.968370 -0.244861
0.243697434664 0.364293158054 0.282105475664 0.991433 0.125198 -0.037221
0.207273900509 0.311661690474 0.014598786831 0.194644 0.948719 -0.249090
0.236770302057 0.339015305042 0.171235367656 0.848809 0.488253 -0.202813
0.238407507539 0.338719308376 0.188772752881 0.992193 -0.096827 -0.078601
0.223556280136 0.306451648474 0.039725750685 0.992193 -0.096827 -0.078601
0.170153617859 0.344406962395 0.332684367895 -0.353473 0.724864 0.591294
