-0.212662577629 -0.517327368259 0.560925841331 -0.045335 -0.340664 0.939092
-0.260040163994 -0.438035666943 0.587428808212 -0.045335 -0.340664 0.939092
-0.332431077957 -0.522945463657 0.553052186966 -0.120902 -0.338254 0.933256
-0.349222064018 -0.490953117609 0.562500894070 -0.120902 -0.338254 0.933256
-0.457395076752 -0.346841931343 0.600866675377 -0.120902 -0.338254 0.933256
-0.378742337227 -0.496618837118 0.556869626045 -0.093919 -0.318796 0.943159
-0.388934314251 0.785398960114 0.607466518879 -0.052183 0.039403 0.997860
-0.474504232407 0.689732491970 0.606844663620 -0.052183 0.039403 0.997860
-0.448978811502 0.692910552025 0.608045578003 -0.052183 0.039403 0.997860
-0.392087608576 0.566407501698 0.615462481976 -0.045329 0.036896 0.998291
-0.406887054443 0.572973072529 0.614561855793 -0.045329 0.036896 0.998291
-0.400635033846 0.555009305477 0.615496993065 -0.045329 0.036896 0.998291
-0.426101028919 0.303600609303 0.615773439407 -0.043791 0.001018 0.999040
-0.432235032320 0.272609531879 0.615499496460 -0.043791 0.001018 0.999040
-0.339504092932 0.510905027390 0.619640409946 -0.043791 0.001018 0.999040
-0.394386768341 0.171069920063 0.617189645767 -0.043791 0.001018 0.999040
-0.356538236141 0.312180101871 0.618879795074 -0.043791 0.001018 0.999040
-0.423582762480 0.218509554863 0.615885853767 -0.043791 0.001018 0.999040
-0.338898837566 0.100218951702 0.619667470455 -0.043791 0.001018 0.999040
-0.464549213648 0.011996015906 0.614020824432 -0.045917 -0.001020 0.998945
-0.408191651106 -0.244349747896 0.616538167000 -0.045917 -0.001020 0.998945
-0.417100578547 0.068179249763 0.616168379784 -0.045917 -0.001020 0.998945
-0.481838345528 -0.178731709719 0.613220691681 -0.045917 -0.001020 0.998945
-0.466481745243 0.241665184498 0.613957285881 -0.045917 -0.001020 0.998945
-0.463315576315 -0.044577747583 0.614070653915 -0.045917 -0.001020 0.998945
-0.440667450428 -0.197487413883 0.615077137947 -0.045917 -0.001020 0.998945
-0.155857950449 0.496643245220 0.622733891010 -0.014865 0.000991 0.999889
-0.222903817892 0.197436988354 0.621688246727 -0.014865 0.000991 0.999889
-0.320226579905 -0.040120050311 0.620170474052 -0.014865 0.000991 0.999889
-0.319159626961 -0.145672589540 0.620187103748 -0.014865 0.000991 0.999889
-0.308263540268 -0.140810906887 0.620357036591 -0.014865 0.000991 0.999889
-0.297466725111 0.317869484425 0.620525419712 -0.014865 0.000991 0.999889
-0.287966549397 0.013304322958 0.620673596859 -0.014865 0.000991 0.999889
-0.280725538731 0.151019200683 0.620786488056 -0.014865 0.000991 0.999889
-0.162489697337 0.514066576958 0.622630476952 -0.014865 0.000991 0.999889
-0.330974876881 -0.232426300645 0.620002806187 -0.014865 0.000991 0.999889
-0.155127882957 0.263713657856 0.622745275497 -0.014865 0.000991 0.999889
-0.175729840994 -0.088581323624 0.622424006462 -0.014865 0.000991 0.999889
-0.119938626885 0.090413689613 0.623294055462 -0.014865 0.000991 0.999889
-0.094125382602 -0.221346259117 0.623696684837 -0.014865 0.000991 0.999889
-0.167781203985 0.070266053081 0.622547924519 -0.014865 0.000991 0.999889
-0.108174368739 0.126854568720 0.623477578163 -0.014865 0.000991 0.999889
-0.147244423628 0.116768747568 0.622868239880 -0.014865 0.000991 0.999889
-0.171666175127 0.191889256239 0.622487366199 -0.014865 0.000991 0.999889
-0.111518368125 -0.052263140678 0.623425424099 -0.014865 0.000991 0.999889
-0.105185218155 0.344441980124 0.623524188995 -0.014865 0.000991 0.999889
-0.262852042913 -0.293152093887 0.618232607841 -0.016209 -0.096173 0.995233
-0.121281981468 -0.306483983994 0.619162499905 -0.016209 -0.096173 0.995233
-0.267400145531 0.698162198067 0.614353895187 -0.015404 0.035944 0.999235
-0.317228525877 0.524056255817 0.619933724403 -0.015404 0.035944 0.999235
-0.205518573523 0.678605020046 0.616033017635 -0.015404 0.035944 0.999235
-0.273966461420 0.782192647457 0.611183345318 -0.015404 0.035944 0.999235
-0.231287628412 0.540147542953 0.620686531067 -0.015404 0.035944 0.999235
-0.232747718692 0.746077060699 0.613169133663 -0.017458 0.035942 0.999201
-0.129863291979 0.783686816692 0.613602340221 -0.017458 0.035942 0.999201
-0.142359241843 0.686955332756 0.616814196110 -0.017458 0.035942 0.999201
-0.214493915439 0.832138717175 0.610433995724 -0.017458 0.035942 0.999201
-0.258798480034 0.817104279995 0.610206365585 -0.017458 0.035942 0.999201
-0.713692128658 1.692530989647 0.196013987064 -0.868170 0.074095 0.490705
-0.716414868832 1.798967003822 0.176213458180 -0.837165 0.069410 0.542528
-0.729961693287 1.791687726974 0.156241863966 -0.837165 0.069410 0.542528
-0.823685705662 1.026200175285 0.017097884789 -0.938727 0.001253 0.344659
-0.771807253361 1.811396121979 0.024244822562 -0.910686 0.086276 0.403989
-0.640351057053 1.171883821487 -0.035832691938 0.999999 0.000978 0.000978
-0.771814882755 1.352204203606 -0.086658209562 0.001379 0.671779 0.740750
-0.767563343048 1.385491132736 -0.120068162680 0.001334 0.865851 0.500299
-0.814190804958 1.398074984550 -0.141850560904 0.001334 0.865851 0.500299
-0.710386753082 1.450308918953 -0.360607683659 0.001087 0.992690 -0.120688
0.607828199863 1.446313142776 -0.393428623676 0.001087 0.992690 -0.120688
0.794396281242 1.455582380295 -0.317290306091 0.001087 0.992690 -0.120688
0.019590437412 1.459310650826 -0.414484888315 0.000978 0.000978 0.999999
0.229894787073 1.456906318665 -0.414484888315 0.000978 0.000978 0.999999
-0.486485540867 1.445071458817 -0.414484888315 0.000978 0.000978 0.999999
-0.595839619637 1.447611331940 -0.414484888315 0.000978 0.000978 0.999999
-0.004302930087 1.476568222046 -0.414484888315 0.000978 0.000978 0.999999
0.163872644305 1.474147319794 -0.414484888315 0.000978 0.000978 0.999999
0.226659819484 1.478872656822 -0.414484888315 0.000978 0.000978 0.999999
0.595250189304 1.616811513901 -0.401105195284 -0.003226 -0.104292 0.994541
0.656819462776 1.522471904755 -0.410833805799 -0.003226 -0.104292 0.994541
0.585655152798 1.836046457291 -0.378170371056 -0.003226 -0.104292 0.994541
0.586507499218 1.737068414688 -0.388533294201 -0.003226 -0.104292 0.994541
0.622553944588 1.765573740005 -0.385459989309 -0.003226 -0.104292 0.994541
-0.620551049709 1.875754594803 -0.373926758766 0.003226 -0.104292 0.994541
-0.590416610241 2.059212207794 -0.354788780212 0.003226 -0.104292 0.994541
-0.624201297760 1.834490895271 -0.378238946199 0.003226 -0.104292 0.994541
-0.626598834991 1.644481539726 -0.398130893707 0.003226 -0.104292 0.994541
-0.643260598183 1.561027050018 -0.406829506159 0.003226 -0.104292 0.994541
-0.737182021141 1.795377254486 -0.380901515484 0.018589 -0.108252 0.993950
-0.680365085602 1.938726902008 -0.366358786821 0.018589 -0.108252 0.993950
-0.661336481571 1.959038257599 -0.364495873451 0.018589 -0.108252 0.993950
-0.667537808418 1.889666080475 -0.371917009354 0.018589 -0.108252 0.993950
-0.700604915619 1.737784504890 -0.387813746929 0.018589 -0.108252 0.993950
0.734939694405 1.556624054909 -0.406866967678 -0.018589 -0.108252 0.993950
0.655470907688 2.117386817932 -0.347407162189 -0.018589 -0.108252 0.993950
0.650504589081 1.968606352806 -0.363651931286 -0.018589 -0.108252 0.993950
0.711370646954 1.982029080391 -0.361098587513 -0.018589 -0.108252 0.993950
0.719063103199 1.713220596313 -0.390148699284 -0.018589 -0.108252 0.993950
0.815596461296 -0.978766560555 -0.095268696547 0.997220 0.003146 -0.074451
0.821457743645 -1.036470055580 -0.018923325464 0.997220 0.003146 -0.074451
0.812095880508 -1.159541964531 0.031643286347 0.905311 -0.017081 0.424406
0.790353357792 -1.057664752007 0.090348072350 0.941626 -0.045085 0.333627
0.801794171333 -1.218729853630 0.050919145346 0.906399 -0.074965 0.415717
-0.695243239403 -1.757715463638 -0.409931004047 0.001087 -0.992690 -0.120688
-0.600715816021 -1.766541242599 -0.337433636189 0.001087 -0.992690 -0.120688
-0.722385466099 -1.943246722221 0.048247214407 -0.814608 -0.176172 0.552609
-0.729776382446 -1.666264057159 0.105651035905 -0.872507 -0.100728 0.478106
-0.753067135811 -1.639246344566 0.075072236359 -0.797253 -0.085368 0.597578
-0.708012163639 -1.926532268524 0.074884586036 -0.818318 -0.176323 0.547052
-0.804327666759 -1.789421081543 -0.074169091880 -0.930458 -0.195073 0.310153
-0.535921156406 -1.286207199097 -0.054910056293 0.999999 0.000978 0.000978
-0.580535888672 -1.242147088051 -0.035385102034 0.001259 0.353743 0.935342
-0.679236412048 -1.191902518272 -0.054355137050 0.001259 0.353743 0.935342
-0.789984047413 -1.177210569382 -0.059902139008 0.001259 0.353743 0.935342
-0.823292016983 -1.294774055481 -0.023457642645 -0.998261 0.013560 -0.057371
-0.608419001102 -1.274224877357 -0.026223978028 0.001083 0.115898 0.993261
-0.727396726608 -1.312034606934 -0.021786801517 0.001083 0.115898 0.993261
-0.558690071106 -1.289662599564 -0.024412281811 0.001083 0.115898 0.993261
-0.769194543362 -1.394795894623 -0.015296173282 0.000978 0.000978 0.999999
-0.759450197220 -1.445644855499 -0.015296173282 0.000978 0.000978 0.999999
-0.733743965626 -1.497275590897 -0.021312467754 0.001114 -0.152643 0.988281
-0.708476901054 -1.540966987610 -0.028048075736 0.001114 -0.152643 0.988281
-0.728255808353 -1.569362878799 -0.037248194218 0.001259 -0.353743 0.935342
-0.559436738491 -1.558695793152 -0.033199615777 0.001259 -0.353743 0.935342
-0.656355082989 -1.607662200928 -0.051784150302 0.001259 -0.353743 0.935342
-0.595764696598 1.187855958939 0.399496525526 -0.145029 0.499545 0.854061
-0.159856483340 0.919912457466 0.590317368507 -0.035724 0.403545 0.914262
0.181935563684 1.435807466507 0.304712504148 0.031418 0.501327 0.864687
0.641759634018 -0.762134790421 0.347099900246 0.137416 -0.551142 0.823019
-0.539562165737 -0.534185886383 0.517190456390 -0.137416 -0.551142 0.823019
-0.539760887623 -0.532704055309 0.518151223660 -0.137416 -0.551142 0.823019
-0.014064989984 -0.561151742935 0.551055431366 0.001253 -0.344659 0.938727
0.808641791344 -1.019133567810 -0.185137018561 0.996891 0.001050 -0.078785
0.462148219347 -1.753938674927 -0.232155174017 0.001154 0.979409 -0.201881
0.477784812450 -1.750924229622 -0.217554464936 0.001154 0.979409 -0.201881
0.620822191238 -1.754283547401 -0.233825191855 0.001154 0.979409 -0.201881
0.468364059925 -1.749179959297 -0.209105476737 0.001154 0.979409 -0.201881
0.598253130913 -1.726159214973 -0.167249426246 0.001334 0.865851 -0.500299
0.659304976463 -1.707018733025 -0.134117320180 0.001334 0.865851 -0.500299
0.617457091808 -1.696069955826 -0.115165047348 0.001334 0.865851 -0.500299
0.517299056053 -1.702735662460 -0.126703321934 0.001334 0.865851 -0.500299
0.819372415543 -1.693647027016 -0.112062856555 0.001379 0.671779 -0.740750
0.809616923332 -1.719911575317 -0.153307199478 -0.012350 0.821932 -0.569452
0.624700605869 0.730075836182 -0.368894696236 0.001087 0.992690 0.120688
-0.690332233906 0.729327201843 -0.362744987011 0.001087 0.992690 0.120688
-0.757631480694 0.724029123783 -0.319225996733 0.001087 0.992690 0.120688
-0.739314734936 0.726336419582 -0.292757511139 0.001154 0.979409 -0.201881
-0.736112594604 0.740648627281 -0.223435550928 0.001154 0.979409 -0.201881
-0.651484906673 0.759058892727 -0.180351108313 0.001334 0.865851 -0.500299
0.690565288067 0.728945553303 -0.359610408545 0.001087 0.992690 0.120688
0.758716762066 0.724884688854 -0.326253771782 0.001087 0.992690 0.120688
0.660690069199 0.725422859192 -0.297182410955 0.001154 0.979409 -0.201881
0.753613412380 0.736028969288 -0.245811253786 -0.001154 0.979409 -0.201881
0.686486721039 0.739621460438 -0.228410571814 -0.001154 0.979409 -0.201881
0.667875707150 0.757671594620 -0.182752519846 0.001334 0.865851 -0.500299
0.616634964943 0.800929844379 -0.110440775752 0.001379 0.671779 -0.740750
0.786646902561 0.836704075336 -0.078019089997 0.001379 0.671779 -0.740750
0.631212234497 0.940561771393 -0.028131024912 0.001248 0.335625 -0.941995
0.740766584873 0.906795918941 -0.040126685053 -0.001248 0.335625 -0.941995
0.815906286240 1.046981930733 -0.008768372238 0.001077 0.108776 -0.994066
0.614576160908 1.009926319122 -0.012792607769 0.001077 0.108776 -0.994066
0.782683670521 1.078126668930 -0.005386065226 0.001077 0.108776 -0.994066
0.694169282913 1.449371695518 -0.274992823601 0.001154 -0.979409 -0.201881
0.780635893345 1.446166515350 -0.259468495846 0.001154 -0.979409 -0.201881
0.756068229675 1.324422836304 -0.061480306089 0.001379 -0.671779 -0.740750
0.812534689903 1.295043945312 -0.049069963396 0.001225 -0.300017 -0.953933
0.751435220242 1.237817049026 -0.031030211598 0.001225 -0.300017 -0.953933
0.604129970074 1.309174895287 -0.053524482995 0.001225 -0.300017 -0.953933
0.806020855904 1.132820248604 -0.009714462794 0.001079 -0.111142 -0.993804
0.708795309067 1.089467644691 -0.004857284017 0.001079 -0.111142 -0.993804
-0.764542102814 1.327004432678 -0.063820004463 0.001379 -0.671779 -0.740750
-0.733029186726 0.811432600021 -0.100922308862 0.001379 0.671779 -0.740750
-0.706966400146 0.846479475498 -0.069159731269 -0.001379 0.671779 -0.740750
-0.779519200325 0.878333210945 -0.050238333642 0.001248 0.335625 -0.941995
-0.777951538563 0.907614707947 -0.039835810661 0.001248 0.335625 -0.941995
-0.598702430725 1.240419268608 0.368177741766 -0.145029 0.499545 0.854061
-0.595795273781 1.336167812347 0.312538385391 -0.145029 0.499545 0.854061
-0.139122620225 1.421093583107 0.314795583487 -0.031418 0.501327 0.864687
0.530973553658 1.356939792633 0.311429262161 0.145029 0.499545 0.854061
0.599842190742 1.291047692299 0.338300406933 0.145029 0.499545 0.854061
0.518610954285 1.036567211151 0.501369953156 0.145029 0.499545 0.854061
0.367101103067 0.896789908409 0.587034761906 0.164178 0.395455 0.903693
-0.238328188658 0.919067382812 0.587493240833 -0.038314 0.400317 0.915576
-0.526239156723 0.997089684010 0.523051559925 -0.122523 0.494418 0.860546
-0.442460238934 -1.023423910141 0.209355235100 -0.014350 -0.122527 0.992361
-0.196427330375 -1.055019736290 0.214152500033 -0.045366 -0.091839 0.994740
0.607385218143 -0.954453527927 0.216757088900 0.347652 -0.683879 0.641442
0.365967214108 -1.028953075409 0.209844321012 0.014350 -0.122527 0.992361
0.346296727657 -1.057319283485 0.207321956754 0.036201 -0.093246 0.994985
0.300437241793 -1.036503076553 0.211201220751 0.045366 -0.091839 0.994740
0.642602682114 -0.831876277924 0.299683630466 0.130966 -0.557708 0.819640
0.094433508813 -0.587060391903 0.534903287888 0.108873 -0.553077 0.825986
0.314970552921 -0.547920286655 0.544140040874 0.066740 -0.569417 0.819335
0.579488277435 -0.663834691048 0.423505187035 0.137416 -0.551142 0.823019
-0.097687073052 -0.570546686649 0.545954525471 -0.066740 -0.569417 0.819335
-0.518491148949 -0.558745622635 0.504251182079 -0.137416 -0.551142 0.823019
-0.409680694342 -1.006898641586 0.212785199285 -0.109465 -0.567761 0.815883
-0.717299818993 1.300168633461 -0.050685405731 0.001225 -0.300017 -0.953933
-0.707457363605 1.289631366730 -0.047363743186 -0.001225 -0.300017 -0.953933
-0.823360800743 1.239807128906 -0.031657550484 0.001225 -0.300017 -0.953933
-0.671749174595 1.121074795723 -0.008398514241 0.001079 -0.111142 -0.993804
-0.799916863441 1.138460159302 -0.010346353054 0.001079 -0.111142 -0.993804
-0.759045422077 1.050221920013 -0.008416514844 0.001077 0.108776 -0.994066
-0.781926274300 1.012837529182 -0.012476446107 0.001077 0.108776 -0.994066
-0.664816200733 1.441856026649 -0.238590091467 0.001154 -0.979409 -0.201881
-0.795248150826 1.455300211906 -0.303707569838 0.001154 -0.979409 -0.201881
0.570073246956 1.534639954567 -0.409763455391 0.001075 0.104293 -0.994546
0.537410795689 1.502031922340 -0.413226604462 0.001075 0.104293 -0.994546
-0.569457411766 2.018011093140 -0.359145730734 -0.001075 0.104293 -0.994546
-0.528602719307 1.817814946175 -0.380902051926 -0.036416 0.100421 -0.994278
-0.535665929317 1.723877191544 -0.390194952488 -0.036416 0.100421 -0.994278
-0.296041011810 1.573853492737 -0.406043052673 -0.001071 0.101730 -0.994811
-0.402334123850 1.642838597298 -0.399008810520 -0.001071 0.101730 -0.994811
-0.247523158789 1.544269800186 -0.409060299397 -0.001071 0.101730 -0.994811
-0.420576512814 1.864764928818 -0.376454710960 -0.001071 0.101730 -0.994811
-0.453574150801 1.987505912781 -0.363975405693 -0.001071 0.101730 -0.994811
-0.438104569912 1.946833014488 -0.368111759424 -0.001071 0.101730 -0.994811
-0.476126641035 1.623108148575 -0.400996476412 -0.001071 0.101730 -0.994811
-0.401073753834 1.562524080276 -0.407169848680 -0.001071 0.101730 -0.994811
-0.422963917255 1.935247659683 -0.369292467833 -0.001071 0.101730 -0.994811
-0.482318282127 1.898231267929 -0.373039901257 -0.001071 0.101730 -0.994811
-0.417389273643 1.684118509293 -0.394810885191 -0.001071 0.101730 -0.994811
-0.438688635826 1.981172204018 -0.364622443914 -0.001071 0.101730 -0.994811
-0.392299830914 2.139732837677 -0.348749190569 -0.001071 0.099610 -0.995026
-0.505080759525 2.125922918320 -0.349910646677 -0.001071 0.099610 -0.995026
-0.275363653898 2.143035173416 -0.348653256893 -0.001071 0.099610 -0.995026
-0.265659391880 1.995545506477 -0.363510817289 -0.001071 0.099610 -0.995026
-0.476103216410 2.137660264969 -0.348788380623 -0.001071 0.099610 -0.995026
-0.166963294148 1.640035271645 -0.399475783110 -0.001071 0.099610 -0.995026
-0.214292243123 1.781690478325 -0.385129183531 -0.001071 0.099610 -0.995026
-0.224280968308 2.051117181778 -0.358003705740 -0.001071 0.099610 -0.995026
-0.233090817928 1.794248580933 -0.383827805519 -0.001071 0.099610 -0.995026
-0.159880757332 1.856170892715 -0.377746134996 -0.001071 0.099610 -0.995026
-0.191233143210 1.611775279045 -0.402269810438 -0.001071 0.099610 -0.995026
-0.208728998899 1.981602072716 -0.365028619766 -0.001071 0.099610 -0.995026
-0.144159972668 1.599797606468 -0.403549164534 0.001069 0.099398 -0.995047
-0.044309474528 1.553803086281 -0.408176332712 0.001069 0.099398 -0.995047
-0.032406255603 1.527094125748 -0.410863369703 0.001069 0.099398 -0.995047
-0.079405613244 1.551355719566 -0.408422559500 0.001069 0.099398 -0.995047
-0.101320840418 1.684663057327 -0.395011365414 0.001069 0.099398 -0.995047
-0.115312658250 2.133950710297 -0.349811464548 0.001069 0.099398 -0.995047
-0.024955011904 1.955466747284 -0.367767572403 0.001069 0.099398 -0.995047
-0.055324915797 2.032590866089 -0.360008656979 0.001069 0.099398 -0.995047
-0.067598298192 2.027805089951 -0.360490083694 0.001069 0.099398 -0.995047
-0.006861363072 2.067175149918 -0.356529325247 0.001069 0.099398 -0.995047
0.058526437730 2.001275539398 -0.363159060478 0.001069 0.099398 -0.995047
0.030032537878 2.140575408936 -0.349144995213 0.001069 0.099398 -0.995047
0.058259800076 1.799511790276 -0.383457183838 0.001069 0.099398 -0.995047
0.041319556534 1.750995874405 -0.388338059187 0.001069 0.099398 -0.995047
0.074621573091 2.054516315460 -0.357802838087 0.001069 0.099398 -0.995047
0.081249795854 2.130497455597 -0.350158870220 0.001069 0.099398 -0.995047
0.070374429226 1.497908473015 -0.413799554110 0.001069 0.099398 -0.995047
0.151012018323 2.127365589142 -0.350473940372 0.001069 0.099398 -0.995047
0.069834440947 1.631013751030 -0.400408685207 0.001069 0.099398 -0.995047
0.127390876412 1.979668378830 -0.365332812071 0.001069 0.099398 -0.995047
0.084023699164 1.551444292068 -0.408413648605 0.001069 0.099398 -0.995047
0.240409940481 1.773839950562 -0.385866194963 0.001071 0.099610 -0.995026
0.418199449778 1.995368361473 -0.363220453262 0.001071 0.099610 -0.995026
0.204810813069 2.009921312332 -0.362187504768 0.001071 0.099610 -0.995026
0.229317486286 2.121284008026 -0.350934505463 0.001071 0.099610 -0.995026
0.331479847431 1.916654229164 -0.371314585209 0.001071 0.099610 -0.995026
0.310959339142 1.993935704231 -0.363581240177 0.001071 0.099610 -0.995026
0.470137089491 2.066793680191 -0.355929851532 0.001071 0.099610 -0.995026
0.320728540421 1.941169381142 -0.368869990110 0.001071 0.099610 -0.995026
0.177338987589 1.900206327438 -0.373280733824 0.001071 0.099610 -0.995026
0.254462212324 2.116687536240 -0.351346135139 0.001071 0.099610 -0.995026
0.447917193174 2.019602060318 -0.360722392797 0.001071 0.099610 -0.995026
0.330499619246 2.141082525253 -0.348738282919 0.001071 0.099610 -0.995026
0.248910084367 2.069663286209 -0.356088161469 0.001071 0.099610 -0.995026
0.491481810808 2.085502862930 -0.354009151459 0.001071 0.101730 -0.994811
0.371336042881 1.875207901001 -0.375405043364 0.001071 0.101730 -0.994811
0.319159150124 1.539669275284 -0.409511119127 0.001071 0.101730 -0.994811
0.475816905499 1.945612788200 -0.368226975203 0.001071 0.101730 -0.994811
0.479102700949 1.932647466660 -0.369543641806 0.001071 0.101730 -0.994811
0.369154959917 1.774119138718 -0.385677158833 0.001071 0.101730 -0.994811
0.486937552691 1.530551552773 -0.410398602486 0.001071 0.101730 -0.994811
0.459953308105 2.000841379166 -0.362618923187 0.001071 0.101730 -0.994811
0.423635303974 1.609598875046 -0.402381330729 0.001071 0.101730 -0.994811
0.478296130896 1.766067266464 -0.386469960213 0.001071 0.101730 -0.994811
0.252108186483 1.510611534119 -0.412479251623 0.001071 0.101730 -0.994811
0.260112673044 1.562395453453 -0.407215654850 0.001071 0.101730 -0.994811
0.551473677158 2.090519189835 -0.352376371622 0.036416 0.100421 -0.994278
0.521031022072 1.740896940231 -0.388987898827 0.036416 0.100421 -0.994278
-0.776298880577 -1.763590455055 -0.278904259205 0.001154 0.979409 -0.201881
-0.680306851864 -1.750210404396 -0.214097097516 0.001154 0.979409 -0.201881
-0.626945436001 -1.730107307434 -0.174083441496 0.001334 0.865851 -0.500299
-0.578133821487 -1.730836868286 -0.175346344709 0.001334 0.865851 -0.500299
-0.593368351460 -1.716065526009 -0.149777323008 0.001334 0.865851 -0.500299
-0.793056428432 -1.266428589821 -0.197865143418 -0.424983 -0.725943 -0.540737
-0.795867860317 -1.276965737343 -0.185427278280 -0.421671 -0.560574 -0.712706
-0.779937386513 -1.308998346329 -0.169590920210 -0.421671 -0.560574 -0.712706
-0.759920120239 -1.407731771469 -0.194920554757 -0.005073 0.999426 -0.033483
-0.780832767487 -1.388243556023 -0.243053600192 -0.552291 0.131077 0.823282
-0.752513229847 -1.540267467499 -0.314912170172 -0.005053 0.031329 0.999496
-0.757992446423 -1.495648741722 -0.233234792948 -0.004151 -0.715354 -0.698750
-0.769619405270 -1.455072760582 -0.240655556321 -0.798904 -0.203943 0.565826
-0.744321167469 -1.472433805466 -0.210077941418 -0.003992 0.874150 0.485639
-0.770314574242 -1.510040879250 -0.290429174900 -0.003649 -0.280979 -0.959707
-0.744839072227 -1.535913586617 -0.299951821566 -0.808853 -0.579411 0.100199
-0.758915305138 -1.312928557396 -0.282328099012 -0.805895 0.551078 0.216440
-0.746030747890 -1.581364750862 -0.377567529678 0.040456 0.930480 0.364101
-0.786278903484 -1.481120824814 -0.355098277330 -0.562034 -0.662697 -0.494925
-0.779552102089 -1.570033431053 -0.412799328566 -0.424983 0.725943 0.540737
-0.808435916901 -1.563499331474 -0.453806400299 -0.999999 0.000978 0.000978
-0.784963548183 -1.509359240532 -0.474897652864 -0.417218 0.363688 0.832862
-0.743480563164 -1.422778367996 -0.441415965557 -0.798334 -0.094520 -0.594751
-0.770247399807 -1.328684568405 -0.405753701925 -0.997837 0.037193 -0.054196
-0.800699710846 -1.246353387833 -0.421020448208 -0.423907 -0.689888 0.586820
-0.755132019520 -1.235472679138 -0.351103127003 0.040789 -0.984774 0.168985
-0.798457384109 -1.300354123116 -0.471906274557 -0.421911 -0.513845 0.746963
-0.767491936684 -1.479945302010 -0.382765859365 -0.802025 -0.369796 -0.469049
-0.749482214451 -1.491157293320 -0.441277474165 -0.004058 -0.840071 0.542461
-0.762853801250 -1.273550629616 -0.247858017683 -0.003962 0.458269 -0.888805
-0.752543270588 -1.305422902107 -0.222911134362 -0.004154 -0.668729 0.743494
-0.802187561989 -1.187952637672 -0.164865911007 -0.592293 0.645985 0.481552
-0.764040589333 -1.266009569168 -0.063018999994 -0.288583 0.382259 0.877837
-0.736912846565 -1.280351161957 -0.047859743237 -0.288583 0.382259 0.877837
-0.739896059036 -1.379329442978 -0.153294399381 -0.999815 -0.002996 -0.018978
-0.676856577396 -1.236120581627 -0.066675029695 0.001371 0.618487 0.785794
-0.652989923954 -1.463600397110 -0.020095329732 0.001065 -0.094759 0.995500
-0.689861774445 -1.678611874580 -0.154816836119 0.001377 -0.761293 0.648407
-0.721722722054 -1.633532166481 -0.101984627545 0.001377 -0.761293 0.648407
-0.734441936016 -1.664698123932 -0.142266616225 -0.293612 -0.726810 0.620917
-0.784520685673 -1.589740037918 -0.099992692471 -0.587918 -0.460620 0.664967
-0.741773188114 -1.462596654892 -0.024599235505 -0.287501 -0.089763 0.953565
-0.722498178482 -1.450107336044 -0.018815662712 0.001065 -0.094759 0.995500
-0.698403477669 -1.525143504143 -0.036912374198 0.001251 -0.341642 0.939829
-0.687974035740 -1.355164647102 -0.021595444530 0.001118 0.157685 0.987489
-0.779960751534 -1.335368037224 -0.046510532498 -0.583384 0.128492 0.801968
-0.773632407188 -1.276960968971 -0.064504019916 -0.585262 0.324071 0.743267
-0.788916468620 -1.149735450745 -0.427389919758 -0.596123 0.726068 -0.342730
-0.807292938232 -1.183272242546 -0.419215351343 -0.999999 0.000978 0.000978
-0.736060559750 -1.102724671364 -0.282971173525 -0.298096 0.949441 0.098490
-0.648325681686 -1.095450639725 -0.331496834755 0.001127 0.985809 -0.167869
-0.564858257771 -1.149852275848 -0.381321668625 0.999999 0.000978 0.000978
-0.564858257771 -1.231678247452 -0.213862672448 0.999999 0.000978 0.000978
-0.564858257771 -1.205110311508 -0.205884546041 0.999999 0.000978 0.000978
-0.564858257771 -1.247587800026 -0.127740293741 0.999999 0.000978 0.000978
-0.571939527988 -1.375616073608 -0.054870158434 0.583384 0.128492 0.801968
-0.566131472588 -1.148371338844 -0.248304143548 0.596737 0.747122 0.292769
-0.673721909523 -1.099486470222 -0.285329312086 0.001071 0.994811 0.101730
-0.690473079681 -1.096292495728 -0.316465198994 0.001071 0.994811 0.101730
-0.608091235161 -1.289700031281 -0.052708055824 0.288583 0.382259 0.877837
-0.622151732445 -1.326928973198 -0.033208150417 0.287447 0.149796 0.946010
-0.613806366920 -1.503238677979 -0.039172146469 0.288218 -0.326648 0.900129
-0.628151059151 -1.558536410332 -0.054605145007 0.288218 -0.326648 0.900129
-0.655900418758 -1.695799827576 -0.188714399934 0.001299 -0.905318 0.424733
-0.789318144321 -1.686368584633 -0.237058535218 -0.596123 -0.726068 0.342730
-0.739911019802 -1.446255445480 -0.485244840384 -0.999815 0.002996 0.018978
-0.718221008778 -1.171271443367 -0.513554215431 0.001377 0.761293 -0.648407
-0.580236613750 -1.156141042709 -0.435768812895 0.596123 0.726068 -0.342730
-0.564858257771 -1.241431117058 -0.322439163923 0.999999 0.000978 0.000978
-0.564858257771 -1.240749239922 -0.300515115261 0.999999 0.000978 0.000978
-0.564858257771 -1.226451039314 -0.384272038937 0.999999 0.000978 0.000978
-0.564858257771 -1.244025707245 -0.511267483234 0.999999 0.000978 0.000978
-0.564858257771 -1.277675151825 -0.509254813194 0.999999 0.000978 0.000978
-0.564858257771 -1.371666312218 -0.185293599963 0.999999 0.000978 0.000978
-0.564858257771 -1.336455464363 -0.510462760925 0.999999 0.000978 0.000978
-0.564858257771 -1.398492813110 -0.354455769062 0.999999 0.000978 0.000978
-0.564858257771 -1.392590641975 -0.293152421713 0.999999 0.000978 0.000978
-0.651164829731 -1.513594985008 -0.606665432453 0.001286 -0.399807 -0.916599
-0.664134263992 -1.659813046455 -0.505531132221 0.001366 -0.802126 -0.597153
-0.610604047775 -1.531545758247 -0.587326049805 0.288583 -0.382259 -0.877837
-0.614488124847 -1.598471522331 -0.550900042057 0.291925 -0.591825 -0.751347
-0.622187674046 -1.625297307968 -0.532718360424 0.291925 -0.591825 -0.751347
-0.564858257771 -1.432532072067 -0.509171545506 0.999999 0.000978 0.000978
-0.564858257771 -1.443227410316 -0.313930004835 0.999999 0.000978 0.000978
-0.564858257771 -1.516032576561 -0.536798298359 0.999999 0.000978 0.000978
-0.564858257771 -1.503081202507 -0.516144514084 0.999999 0.000978 0.000978
-0.564858257771 -1.552441358566 -0.490626573563 0.999999 0.000978 0.000978
-0.564858257771 -1.564001321793 -0.488571703434 0.999999 0.000978 0.000978
-0.564858257771 -1.490858197212 -0.217242136598 0.999999 0.000978 0.000978
-0.595461130142 -1.705489754677 -0.343029409647 0.598202 -0.797122 -0.082163
-0.564858257771 -1.588196158409 -0.215620547533 0.999999 0.000978 0.000978
-0.564858257771 -1.669678211212 -0.354070901871 0.999999 0.000978 0.000978
-0.564858257771 -1.585721850395 -0.324337422848 0.999999 0.000978 0.000978
-0.593582212925 -1.678811550140 -0.202300131321 0.596123 -0.726068 0.342730
-0.738539814949 -1.723331212997 -0.327278822660 -0.298096 -0.949441 -0.098490
-0.772899210453 -1.710086226463 -0.325962394476 -0.598202 -0.797122 -0.082163
-0.790306687355 -1.698538899422 -0.311142891645 -0.598202 -0.797122 -0.082163
-0.807499706745 -1.595095992088 -0.477497130632 -0.998075 -0.049745 -0.037044
-0.742887973785 -1.434146642685 -0.616943478584 -0.287447 -0.149796 -0.946010
-0.784815609455 -1.549008607864 -0.563828408718 -0.585262 -0.324071 -0.743267
-0.694325268269 -1.260644197464 -0.586684644222 0.001358 0.566240 -0.824239
-0.661251723766 -1.151919603348 -0.490874379873 0.001377 0.761293 -0.648407
-0.591243028641 -1.312754273415 -0.582457482815 0.584796 0.277342 -0.762295
-0.690604031086 -1.508288502693 -0.608976364136 0.001286 -0.399807 -0.916599
-0.690912425518 -1.701981306076 -0.436464816332 0.001266 -0.930643 -0.365926
-0.623923242092 -1.709857225418 -0.397881746292 0.295399 -0.889197 -0.349381
-0.664640009403 -1.724091887474 -0.356631994247 0.001071 -0.994811 -0.101730
-0.580035269260 -1.477332830429 -0.051889646798 0.584796 -0.277342 0.762295
-0.739640772343 -1.251919507980 -0.341399073601 -0.999816 -0.018940 0.002990
-0.807292938232 -1.202437281609 -0.168672785163 -0.999999 0.000978 0.000978
-0.807292938232 -1.282637953758 -0.097140215337 -0.999999 0.000978 0.000978
-0.807292938232 -1.294430017471 -0.544583380222 -0.999999 0.000978 0.000978
-0.807292938232 -1.149532318115 -0.316879779100 -0.999999 0.000978 0.000978
0.811217427254 1.246568799019 -0.209313958883 0.424983 -0.725943 -0.540737
0.785426914692 1.185533046722 -0.243961498141 0.997950 0.052076 0.037197
0.823347032070 0.932687640190 -0.435228288174 0.424983 0.725943 0.540737
0.786969363689 1.005225777626 -0.366129517555 0.997950 -0.052076 -0.037197
0.797519385815 1.025337338448 -0.364611119032 0.562034 -0.662697 -0.494925
0.823656439781 1.271117448807 -0.205827355385 0.999999 0.000978 0.000978
0.790651857853 1.228600621223 -0.435346573591 0.423907 -0.689888 0.586820
0.761786162853 1.204077720642 -0.272449225187 0.805895 0.551078 0.216440
0.783457100391 1.200785636902 -0.384789407253 0.004032 -0.512118 -0.858906
0.823656439781 0.931827068329 -0.468842267990 0.999999 0.000978 0.000978
0.823656439781 0.921025454998 -0.458813369274 0.999999 0.000978 0.000978
0.823225617409 0.908021807671 -0.394919633865 0.429129 0.841093 0.329259
0.810633063316 1.020235657692 -0.306083649397 0.568080 -0.811331 0.137941
0.784888744354 1.134457230568 -0.199724197388 0.997829 0.026454 0.060314
0.818763077259 1.180291533470 -0.150373429060 0.417218 -0.363688 -0.832862
0.785380721092 0.982536256313 -0.261518985033 0.997963 -0.058082 0.026401
0.755738735199 1.023908734322 -0.158067956567 -0.039934 0.341367 -0.939081
0.775638341904 1.051366686821 -0.156858593225 0.005919 -0.971841 -0.235562
0.808905243874 1.116906523705 -0.136039555073 0.416784 -0.143670 -0.897580
0.807515919209 1.027631759644 -0.145262822509 0.418336 0.310279 -0.853652
0.784308195114 1.065420150757 -0.147207498550 0.416179 0.086532 -0.905156
0.823656439781 0.940387845039 -0.193211436272 0.999999 0.000978 0.000978
0.823656439781 0.874883830547 -0.250805735588 0.999999 0.000978 0.000978
0.823656439781 1.022410988808 -0.109006240964 0.999999 0.000978 0.000978
0.770333826542 0.943727910519 -0.352050781250 0.003514 0.219037 -0.975710
0.757146537304 1.014720916748 -0.420094072819 0.802025 -0.369796 -0.469049
0.754691720009 1.046297669411 -0.460743695498 0.999815 0.002996 0.018978
0.822903931141 1.044941544533 -0.547417283058 0.998053 -0.009406 -0.061660
0.822888255119 0.854939162731 -0.377420634031 0.998081 -0.057845 -0.022086
0.754407942295 0.973086714745 -0.248433440924 0.999802 0.015042 -0.013037
0.752172946930 1.043991088867 -0.614841759205 0.287447 -0.149796 -0.946010
0.811836898327 1.264707446098 -0.108432710171 0.590321 0.499503 0.634049
0.809227347374 1.310742378235 -0.488065302372 0.592916 0.613187 -0.521969
0.806021332741 1.205284118652 -0.569325566292 0.584796 0.277342 -0.762295
0.809866011143 1.155950427055 -0.584235846996 0.584796 0.277342 -0.762295
0.761150002480 0.797357559204 -0.411260396242 0.295399 -0.889197 -0.349381
0.804818332195 1.188790202141 -0.060985080898 0.585262 0.324071 0.743267
0.737668454647 1.223331689835 -0.044842787087 0.001286 0.399807 0.916599
0.740098714828 1.326488733292 -0.116279020905 0.001366 0.802126 0.597153
0.735110282898 1.381210803986 -0.202757552266 0.001266 0.930643 0.365926
0.748278856277 1.403877735138 -0.339289754629 0.296407 0.941128 -0.162546
0.766378045082 1.329029202461 -0.504769206047 0.293612 0.726810 -0.620917
0.747877120972 1.288726806641 -0.552271068096 0.290021 0.543591 -0.787653
0.676319837570 1.116038560867 -0.620417237282 0.001065 0.094759 -0.995500
0.816647231579 0.816690862179 -0.351521372795 0.598202 -0.797122 -0.082163
0.790719568729 0.802748382092 -0.252469688654 0.597084 -0.790652 0.135498
0.814482331276 0.911658227444 -0.113946050406 0.587918 -0.460620 0.664967
0.782862603664 1.073950290680 -0.029491109774 0.584161 -0.076070 0.808065
0.756422638893 1.165878176689 -0.028963990510 0.287447 0.149796 0.946010
0.707219600677 1.164322614670 -0.024251734838 0.001118 0.157685 0.987489
0.696043193340 1.186927676201 -0.028988651931 0.001286 0.399807 0.916599
0.663964748383 1.404422521591 -0.296723395586 0.001071 0.994811 0.101730
0.722786545753 1.404547452927 -0.297941505909 0.001071 0.994811 0.101730
0.735650718212 1.375104427338 -0.448140323162 0.001299 0.905318 -0.424733
0.730533897877 1.314586997032 -0.533339202404 0.001377 0.761293 -0.648407
0.642582774162 1.284271836281 -0.550873816013 -0.290021 0.543591 -0.787653
0.644805669785 0.950850307941 -0.584702789783 -0.288583 -0.382259 -0.877837
0.659246563911 0.869988739491 -0.535292565823 -0.291925 -0.591825 -0.751347
0.633520245552 0.849123716354 -0.499781996012 -0.294555 -0.765843 -0.571596
0.660413205624 0.784427642822 -0.394355177879 -0.295399 -0.889197 -0.349381
0.776187837124 0.858804345131 -0.130450546741 0.293612 -0.726810 0.620917
0.707647442818 1.075070500374 -0.016687680036 0.001065 -0.094759 0.995500
0.696418762207 1.051151752472 -0.018956113607 0.001065 -0.094759 0.995500
0.632189035416 1.351830601692 -0.165018454194 -0.294555 0.765843 0.571596
0.624864578247 1.390464425087 -0.270502805710 -0.298096 0.949441 0.098490
0.688475549221 1.397950172424 -0.385936528444 0.001127 0.985809 -0.167869
0.648093760014 1.331482410431 -0.507499933243 -0.293612 0.726810 -0.620917
0.645297646523 1.345734119415 -0.489477813244 -0.293612 0.726810 -0.620917
0.580078840256 1.255864381790 -0.419994831085 -0.999999 0.000978 0.000978
0.580078840256 1.271725296974 -0.423293650150 -0.999999 0.000978 0.000978
0.580078840256 1.213929772377 -0.484679907560 -0.999999 0.000978 0.000978
0.580078840256 1.163889169693 -0.516738772392 -0.999999 0.000978 0.000978
0.580078840256 1.144342780113 -0.471997916698 -0.999999 0.000978 0.000978
0.580078840256 1.094360351562 -0.239966198802 -0.999999 0.000978 0.000978
0.580078840256 1.122467875481 -0.568965315819 -0.999999 0.000978 0.000978
0.609260559082 0.796503722668 -0.325351268053 -0.598202 -0.797122 -0.082163
0.724597156048 0.869929075241 -0.101139485836 0.001377 -0.761293 0.648407
0.589646756649 1.017573833466 -0.059031087905 -0.584796 -0.277342 0.762295
0.580078840256 0.987008571625 -0.104349963367 -0.999999 0.000978 0.000978
0.580078840256 0.857503414154 -0.192006230354 -0.999999 0.000978 0.000978
0.580078840256 0.981638908386 -0.141061231494 -0.999999 0.000978 0.000978
0.580078840256 0.884892046452 -0.274578511715 -0.999999 0.000978 0.000978
0.580078840256 1.043405771255 -0.123143613338 -0.999999 0.000978 0.000978
0.580078840256 0.878624081612 -0.405740618706 -0.999999 0.000978 0.000978
0.580078840256 0.924020469189 -0.514889299870 -0.999999 0.000978 0.000978
0.580078840256 1.014767646790 -0.483527809381 -0.999999 0.000978 0.000978
0.580078840256 1.005496382713 -0.456973850727 -0.999999 0.000978 0.000978
0.580078840256 1.062716126442 -0.557896375656 -0.999999 0.000978 0.000978
0.580078840256 1.057859539986 -0.550156772137 -0.999999 0.000978 0.000978
0.584801852703 1.161139726639 -0.061982315034 -0.583384 0.128492 0.801968
0.606100142002 1.179610610008 -0.050421468914 -0.585262 0.324071 0.743267
0.615050494671 1.286006450653 -0.102661348879 -0.590321 0.499503 0.634049
0.620156764984 1.365103602409 -0.196613028646 -0.596737 0.747122 0.292769
0.617980003357 1.391966223717 -0.335458695889 -0.597084 0.790652 -0.135498
0.580078840256 1.176645517349 -0.187443941832 -0.999999 0.000978 0.000978
0.580078840256 1.331001639366 -0.312162369490 -0.999999 0.000978 0.000978
0.580078840256 1.232175350189 -0.168501719832 -0.999999 0.000978 0.000978
0.580078840256 1.131640791893 -0.079868659377 -0.999999 0.000978 0.000978
0.580078840256 1.223023176193 -0.114925116301 -0.999999 0.000978 0.000978
0.807577550411 0.903646111488 -0.523172318935 0.590321 -0.499503 -0.634049
0.786415755749 0.935267388821 -0.566527962685 0.585262 -0.324071 -0.743267
0.794558584690 0.961323082447 -0.571454107761 0.585262 -0.324071 -0.743267
0.823296546936 1.286604881287 -0.446303278208 0.998089 0.047730 -0.039245
0.822729766369 1.317049503326 -0.408851295710 0.998091 0.055859 -0.026349
0.823307514191 1.309419155121 -0.402943551540 0.998091 0.055859 -0.026349
0.823036015034 1.307320952415 -0.218091413379 0.998081 0.057845 0.022086
0.754583120346 1.009939908981 -0.437935352325 0.999826 0.011031 0.015043
0.822513461113 1.344942450523 -0.376670032740 0.999999 0.000978 0.000978
-0.801239669323 1.069832086563 -0.303552925587 0.999999 0.000978 0.000978
-0.801239669323 1.107360124588 -0.350187718868 0.999999 0.000978 0.000978
-0.778963387012 1.078086972237 -0.141462951899 -0.416179 0.086532 -0.905156
-0.766872107983 1.062281847000 -0.152278080583 -0.997818 -0.005224 0.065825
-0.762496709824 1.095836639404 -0.169827118516 -0.005073 0.999426 -0.033483
-0.808435916901 1.099218606949 -0.106639690697 -0.999999 0.000978 0.000978
-0.808435916901 1.084817647934 -0.100144937634 -0.999999 0.000978 0.000978
-0.782579839230 1.016518473625 -0.288750201464 -0.564262 -0.746387 0.352867
-0.752507150173 0.975746870041 -0.310211569071 -0.808853 -0.579411 0.100199
-0.778700530529 0.924856901169 -0.240331828594 -0.428764 0.817681 -0.384135
-0.768824160099 0.955099225044 -0.270416021347 -0.997963 -0.058082 0.026401
-0.760271489620 0.987325310707 -0.212922826409 -0.004159 -0.716738 -0.697330
-0.766996800900 0.973193228245 -0.194914102554 -0.997837 -0.037193 0.054196
-0.794382274151 0.946118652821 -0.196935251355 -0.423907 0.689888 -0.586820
-0.808435916901 0.941879987717 -0.462487220764 -0.999999 0.000978 0.000978
-0.774462282658 1.122067928314 -0.492713391781 -0.416179 -0.086532 0.905156
-0.763892292976 1.122123479843 -0.448187619448 -0.005919 0.971841 0.235562
-0.808435916901 1.279165744781 -0.383614599705 -0.999999 0.000978 0.000978
-0.808435916901 1.053773045540 -0.534860014915 -0.999999 0.000978 0.000978
-0.767743289471 1.179663896561 -0.448844105005 -0.997837 0.037193 -0.054196
-0.746227204800 1.119745373726 -0.438050746918 -0.003551 0.971852 0.235565
-0.789148032665 1.108418941498 -0.390774637461 -0.554795 0.282929 -0.782403
-0.796426236629 1.040636301041 -0.367858320475 -0.557619 -0.513818 -0.651960
-0.801239669323 1.057987809181 -0.373592942953 -0.999999 0.000978 0.000978
-0.763310909271 0.944395542145 -0.394231349230 -0.003962 -0.458269 0.888805
-0.800938963890 1.310670852661 -0.157804191113 -0.592293 0.645985 0.481552
-0.759967803955 1.339951038361 -0.151541084051 -0.294555 0.765843 0.571596
-0.710823416710 1.298014163971 -0.091441884637 0.001371 0.618487 0.785794
-0.703033924103 1.251702904701 -0.057198531926 0.001286 0.399807 0.916599
-0.716838419437 1.213877201080 -0.040725264698 0.001286 0.399807 0.916599
-0.735450923443 1.202482938766 -0.038710184395 -0.288583 0.382259 0.877837
-0.739803075790 1.111917376518 -0.156310051680 -0.999815 -0.002996 -0.018978
-0.771850287914 1.367066740990 -0.211075708270 -0.596737 0.747122 0.292769
-0.670295000076 1.385753393173 -0.214357957244 0.001266 0.930643 0.365926
-0.650595128536 1.365820050240 -0.169039100409 0.001366 0.802126 0.597153
-0.715484976768 1.365058541298 -0.168017596006 0.001366 0.802126 0.597153
-0.631736278534 1.344714999199 -0.147886455059 0.294555 0.765843 0.571596
-0.807927250862 1.192669391632 -0.112350553274 -0.998016 0.024290 0.058086
-0.808266699314 0.885627448559 -0.213183879852 -0.998091 -0.055859 0.026349
-0.739468097687 0.942669749260 -0.281185179949 -0.999816 0.018940 -0.002990
-0.807806789875 1.231297969818 -0.505840063095 -0.998043 0.034926 -0.051860
-0.807355105877 1.157235145569 -0.548944592476 -0.997949 0.022130 -0.060067
-0.780022680759 1.326286196709 -0.485685557127 -0.592916 0.613187 -0.521969
-0.794714391232 1.369252681732 -0.280717223883 -0.598202 0.797122 0.082163
-0.741391599178 1.395696282387 -0.257118731737 -0.298096 0.949441 0.098490
-0.752510964870 1.399157404900 -0.324766218662 -0.298096 0.949441 0.098490
-0.667678356171 1.400737643242 -0.369688123465 0.001127 0.985809 -0.167869
-0.564858257771 1.325456142426 -0.294797271490 0.999999 0.000978 0.000978
-0.564858257771 1.282429575920 -0.215233191848 0.999999 0.000978 0.000978
-0.564858257771 1.330052256584 -0.227515354753 0.999999 0.000978 0.000978
-0.568552851677 1.169869065285 -0.064115650952 0.583384 0.128492 0.801968
-0.573195755482 1.333595991135 -0.186111092567 0.592293 0.645985 0.481552
-0.688685536385 1.403923034668 -0.291853427887 0.001071 0.994811 0.101730
-0.645453512669 1.374695897102 -0.186304762959 0.295399 0.889197 0.349381
-0.626695394516 0.897643864155 -0.087099976838 0.290021 -0.543591 0.787653
-0.643323123455 1.390888452530 -0.412929058075 0.295091 0.863867 -0.408234
-0.564858257771 1.286375999451 -0.376168251038 0.999999 0.000978 0.000978
-0.564858257771 1.211380243301 -0.281428009272 0.999999 0.000978 0.000978
-0.564858257771 1.152062773705 -0.229143112898 0.999999 0.000978 0.000978
-0.564858257771 1.122939944267 -0.281557202339 0.999999 0.000978 0.000978
-0.564858257771 1.165766835213 -0.446958541870 0.999999 0.000978 0.000978
-0.564858257771 1.096034526825 -0.314211517572 0.999999 0.000978 0.000978
-0.564858257771 1.109563946724 -0.210516333580 0.999999 0.000978 0.000978
-0.599277734756 1.137110710144 -0.601945459843 0.584161 0.076070 -0.808065
-0.661290466785 1.027039408684 -0.615329384804 0.001118 -0.157685 -0.987489
-0.602242946625 0.840497493744 -0.477788627148 0.592293 -0.645985 -0.481552
-0.578165531158 1.078062415123 -0.591436505318 0.583384 -0.128492 -0.801968
-0.613094985485 1.031468987465 -0.606150388718 0.287447 -0.149796 -0.946010
-0.564858257771 1.036108493805 -0.453559756279 0.999999 0.000978 0.000978
-0.564858257771 1.065212130547 -0.312108725309 0.999999 0.000978 0.000978
-0.564858257771 1.053372025490 -0.271394789219 0.999999 0.000978 0.000978
-0.564858257771 0.968409121037 -0.340646505356 0.999999 0.000978 0.000978
-0.564858257771 0.928212106228 -0.439596354961 0.999999 0.000978 0.000978
-0.564858257771 0.977258086205 -0.280156552792 0.999999 0.000978 0.000978
-0.564858257771 0.902320086956 -0.414705514908 0.999999 0.000978 0.000978
-0.566327989101 0.836443305016 -0.413899838924 0.596737 -0.747122 -0.292769
-0.567612528801 0.821702122688 -0.377599656582 0.598202 -0.797122 -0.082163
-0.564858257771 1.052495956421 -0.096556827426 0.999999 0.000978 0.000978
-0.564858257771 0.837819039822 -0.356060713530 0.999999 0.000978 0.000978
-0.564858257771 0.830828905106 -0.375311374664 0.999999 0.000978 0.000978
-0.605570375919 0.805562615395 -0.220729351044 0.295091 -0.863867 0.408234
-0.768881499767 0.788423538208 -0.314125001431 -0.598202 -0.797122 -0.082163
-0.808351814747 0.893872618675 -0.435935407877 -0.998075 -0.049745 -0.037044
-0.807675540447 0.970537483692 -0.522062957287 -0.998016 -0.024290 -0.058086
-0.760732650757 0.958217561245 -0.581942200661 -0.288583 -0.382259 -0.877837
-0.676230967045 1.296238422394 -0.549367904663 0.001358 0.566240 -0.824239
-0.617186963558 1.202736020088 -0.592416524887 0.288218 0.326648 -0.900129
-0.684455513954 1.147871375084 -0.617398202419 0.001065 0.094759 -0.995500
-0.705710411072 0.841612100601 -0.503767073154 0.001366 -0.802126 -0.597153
-0.696152985096 0.810553014278 -0.461475849152 0.001266 -0.930643 -0.365926
-0.677523314953 0.786750316620 -0.400691866875 0.001266 -0.930643 -0.365926
-0.620685994625 0.793233335018 -0.396026551723 0.295399 -0.889197 -0.349381
-0.685476303101 0.843605220318 -0.506440699100 0.001366 -0.802126 -0.597153
-0.712505340576 0.800171077251 -0.434963881969 0.001266 -0.930643 -0.365926
-0.777332842350 0.813324093819 -0.412938922644 -0.596737 -0.747122 -0.292769
-0.738342761993 0.860347807407 -0.522805929184 -0.294555 -0.765843 -0.571596
-0.683889865875 1.187651038170 -0.606987357140 0.001251 0.341642 -0.939829
-0.565070211887 0.870517492294 -0.165036171675 0.592916 -0.613187 0.521969
-0.569620251656 0.919212579727 -0.111628621817 0.587918 -0.460620 0.664967
-0.739152431488 1.203118681908 -0.392953664064 -0.999802 -0.015042 0.013037
-0.739884197712 1.231526374817 -0.418895214796 -0.999802 -0.015042 0.013037
-0.807292938232 1.336564421654 -0.233195155859 -0.999999 0.000978 0.000978
-0.807292938232 1.000538706779 -0.084471054375 -0.999999 0.000978 0.000978
0.800681591034 -1.414082050323 -0.297540634871 -0.999999 0.000978 0.000978
0.768601596355 -1.308142304420 -0.242584004998 0.997950 0.052076 0.037197
0.780308663845 -1.457797288895 -0.494549900293 0.416784 0.143670 0.897580
0.805320858955 -1.505650162697 -0.491519421339 0.417218 0.363688 0.832862
0.784940421581 -1.284641265869 -0.193654596806 0.421671 -0.560574 -0.712706
0.807877898216 -1.297691822052 -0.162337273359 0.999999 0.000978 0.000978
0.807877898216 -1.212391853333 -0.363761633635 0.999999 0.000978 0.000978
0.807877898216 -1.343923926353 -0.498452633619 0.999999 0.000978 0.000978
0.784101068974 -1.343290925026 -0.313824504614 0.566867 0.819446 0.084671
0.768194079399 -1.408295989037 -0.458317518234 0.997818 0.005224 -0.065825
0.759212434292 -1.376570463181 -0.486779123545 -0.039934 -0.341367 0.939081
0.760335385799 -1.333561539650 -0.410028755665 0.004159 0.716738 0.697330
0.753275215626 -1.338903307915 -0.404503881931 0.004151 0.715354 0.698750
0.755705058575 -1.336124897003 -0.384443163872 0.803096 0.453645 -0.386320
0.761972069740 -1.276653885841 -0.406097352505 0.004032 -0.512118 -0.858906
0.748021006584 -1.305691957474 -0.350263625383 0.808853 0.579411 -0.100199
0.807877898216 -1.453768372536 -0.530914604664 0.999999 0.000978 0.000978
0.759889543056 -1.521462321281 -0.349719554186 0.805895 -0.551078 -0.216440
0.782518029213 -1.400474786758 -0.244256630540 0.552291 0.131077 0.823282
0.784858882427 -1.326962709427 -0.162011951208 0.417218 -0.363688 -0.832862
0.776100158691 -1.607191443443 -0.318167120218 0.429093 0.898456 0.093039
0.751212120056 -1.560217618942 -0.278882145882 0.003649 -0.280979 -0.959707
0.766823887825 -1.503720879555 -0.177223131061 0.997837 -0.037193 0.054196
0.766889154911 -1.476185917854 -0.222090214491 0.004001 0.873520 0.486771
0.789070963860 -1.408337950706 -0.135988950729 0.416784 -0.143670 -0.897580
0.784802556038 -1.555875658989 -0.190477311611 0.423907 0.689888 -0.586820
0.768999695778 -1.487052559853 -0.156973823905 0.418336 0.310279 -0.853652
0.807877898216 -1.585761189461 -0.184901192784 0.999999 0.000978 0.000978
0.807877898216 -1.471653580666 -0.106822326779 0.999999 0.000978 0.000978
0.807877898216 -1.384059309959 -0.109166674316 0.999999 0.000978 0.000978
0.750502467155 -1.305701255798 -0.213857516646 0.004154 -0.668729 0.743494
0.739394843578 -1.374421596527 -0.484961956739 0.999795 -0.007006 0.019015
0.738954007626 -1.304795145988 -0.416034996510 0.999802 -0.015042 0.013037
0.739316642284 -1.503150463104 -0.169275239110 0.999795 0.007006 -0.019015
