-0.269995510578 1.916248798370 -0.219882741570 0.000978 0.000978 -0.999999
-0.071900397539 1.942113518715 -0.219882741570 0.000978 0.000978 -0.999999
-0.111190751195 1.965026259422 -0.219882741570 0.000978 0.000978 -0.999999
-0.006372536533 1.928879857063 -0.219882741570 0.000978 0.000978 -0.999999
0.094420313835 1.977596402168 -0.219882741570 0.000978 0.000978 -0.999999
0.017237881199 1.960928916931 -0.219882741570 0.000978 0.000978 -0.999999
-0.502548456192 -1.869901299477 -0.212474882603 -0.000978 -0.000978 0.999999
-0.074349343777 -1.883208155632 -0.212000772357 -0.000978 -0.000978 0.999999
-0.550992786884 -1.854526638985 -0.225160151720 -0.954408 -0.298483 0.003685
-0.186214327812 -1.879516482353 -0.292461663485 0.000978 0.000978 -0.999999
-0.496771574020 -1.880842208862 -0.292809158564 0.000978 0.000978 -0.999999
-0.199078142643 -1.933133602142 -0.292480945587 0.000978 0.000978 -0.999999
-0.091248869896 -1.941940307617 -0.292358219624 0.000978 0.000978 -0.999999
-0.157270640135 -1.923910617828 -0.292433291674 0.000978 0.000978 -0.999999
0.243413373828 -1.935416102409 -0.292517930269 -0.000978 -0.000978 -0.999999
0.168646425009 -1.930814862251 -0.292432844639 -0.000978 -0.000978 -0.999999
0.456620812416 -1.893499374390 -0.292757153511 -0.000978 0.000978 -0.999999
0.395446836948 -1.874582052231 -0.292682170868 -0.000978 0.000978 -0.999999
0.491417378187 -1.893271088600 -0.212459117174 0.000978 -0.000978 0.999999
0.287645757198 -1.876802086830 -0.212225094438 0.000978 -0.000978 0.999999
0.422282367945 -1.914156317711 -0.212384656072 0.000978 0.000978 0.999999
0.058488968760 -1.905976891518 -0.211970344186 0.000978 0.000978 0.999999
0.322669982910 -1.930834770203 -0.236580014229 0.099398 -0.995047 0.001069
0.286850005388 -1.934414982796 -0.252973943949 0.099398 -0.995047 0.001069
0.148443743587 -1.948218345642 -0.245000749826 0.099398 -0.995047 0.001069
0.149543806911 -1.948108553886 -0.241398632526 0.099398 -0.995047 0.001069
-0.025524636731 -1.959533214569 -0.259369134903 -0.090153 -0.995927 0.001061
-0.128409340978 -1.950118064880 -0.284235358238 -0.090153 -0.995927 0.001061
-0.316939622164 -1.932853221893 -0.226798221469 -0.090344 -0.995910 0.001063
-0.203714549541 -1.943223595619 -0.234563231468 -0.090344 -0.995910 0.001063
-0.054196015000 -1.919244050980 -0.211978733540 -0.000978 -0.000978 0.999999
-0.100593782961 -1.943093299866 -0.212031692266 -0.000978 -0.000978 0.999999
-0.740599095821 -1.305526018143 0.115805916488 -0.090820 -0.130922 0.987224
-0.753378689289 -1.370413303375 0.106007091701 -0.090820 -0.130922 0.987224
-0.717860519886 -1.428047418594 0.101944871247 -0.095554 -0.126225 0.987389
-0.654847681522 -1.390120506287 0.112769968808 -0.095554 -0.126225 0.987389
-0.730517387390 -1.518881917000 0.085363663733 -0.166724 -0.187402 0.968031
-0.667311131954 -1.562656760216 0.087337255478 -0.164455 -0.284059 0.944598
-0.744636952877 -1.659333348274 0.038125611842 0.553331 -0.196638 0.809418
-0.696788907051 -1.685666561127 0.034056551754 -0.259783 -0.314933 0.912869
-0.569821834564 -1.639283180237 0.068253971636 -0.055815 -0.333591 0.941064
-0.606039643288 -1.717476963997 0.038422171026 -0.055815 -0.333591 0.941064
-0.400467514992 -1.804075717926 0.020081810653 -0.055815 -0.333591 0.941064
-0.472974181175 -1.848885059357 -0.000069436152 -0.055863 -0.331281 0.941877
-0.493129551411 -1.894425868988 -0.019096359611 -0.014304 -0.399208 0.916749
-0.428470134735 -1.929661512375 -0.031639374793 -0.916522 0.396226 0.054698
-0.247660145164 -1.868557810783 -0.005776552483 0.014126 -0.371132 0.928473
-0.369224309921 -1.881825089455 -0.009065732360 0.014126 -0.371132 0.928473
-0.131571009755 -1.864179015160 -0.005935532972 0.014126 -0.371132 0.928473
-0.336689174175 -1.991693019867 -0.049950376153 -0.023465 -0.280350 0.959611
-0.017962217331 -1.870364189148 -0.006414860487 -0.023465 -0.280350 0.959611
-0.122380584478 -1.893758416176 -0.015881873667 -0.023465 -0.280350 0.959611
-0.079837918282 -1.904156088829 -0.017868671566 -0.023465 -0.280350 0.959611
-0.086288779974 -1.928264021873 -0.025098957121 -0.023465 -0.280350 0.959611
0.200729295611 -1.844931483269 0.005055308342 -0.015971 -0.281332 0.959478
0.177820399404 -1.837545871735 0.006818741560 -0.015971 -0.281332 0.959478
0.164071723819 -1.913002610207 -0.015546733513 -0.015971 -0.281332 0.959478
0.085797831416 -1.886515498161 -0.009154295549 -0.015971 -0.281332 0.959478
0.366302639246 -1.940521001816 -0.035975765437 0.051892 -0.389853 0.919414
0.262094497681 -1.912446022034 -0.018059827387 0.051892 -0.389853 0.919414
0.167798817158 -1.976699352264 -0.039908908308 0.051892 -0.389853 0.919414
0.125125616789 -1.969023108482 -0.034194163978 0.051892 -0.389853 0.919414
0.421593785286 -1.961771965027 -0.041953295469 0.186609 -0.324110 0.927432
0.446668058634 -1.952334284782 -0.040781162679 0.067536 -0.358869 0.930941
0.449066549540 -1.933434367180 -0.036736145616 0.019550 -0.400127 0.916251
0.553537070751 -1.841354489326 -0.003145678435 0.058596 -0.332044 0.941442
0.437808513641 -1.784690022469 0.024096516892 0.058596 -0.332044 0.941442
0.606249332428 -1.762774944305 0.021277345717 0.058596 -0.332044 0.941442
0.584477186203 -1.694482803345 0.046770364046 0.058596 -0.332044 0.941442
0.620624542236 -1.656833052635 0.057805530727 0.058596 -0.332044 0.941442
0.655909717083 -1.730396747589 0.026805385947 0.163308 -0.341970 0.925412
0.687970042229 -1.689221620560 0.036266639829 0.263424 -0.312906 0.912523
0.697477102280 -1.604311466217 0.063220098615 0.056119 -0.455792 0.888315
0.716431617737 -1.486768960953 0.094345450401 0.169235 -0.187321 0.967611
0.765164196491 -1.419126749039 0.098501063883 0.095582 -0.123903 0.987680
0.760571181774 -1.370587110519 0.105346336961 0.084079 -0.140921 0.986444
0.749737083912 -1.195210933685 0.129389569163 0.075264 -0.119264 0.990006
0.748071968555 -1.183649063110 0.132251903415 0.224174 -0.218740 0.949684
0.672941923141 -1.020318865776 0.187472999096 0.224174 -0.218740 0.949684
0.716660797596 -1.141816735268 0.149269089103 0.224174 -0.218740 0.949684
0.795790016651 -1.058637619019 0.143411904573 0.309937 -0.119413 0.943228
0.597142636776 -1.016073226929 0.238180756569 0.337548 -0.847760 0.409102
0.548142552376 -1.045622229576 0.206464216113 0.302909 -0.914524 0.268125
0.381785690784 -1.102536439896 0.199320629239 0.302909 -0.914524 0.268125
0.265638262033 -1.122882127762 0.204592525959 0.092168 -0.909297 0.405813
0.242558091879 -1.100642919540 0.258820205927 0.086864 -0.903110 0.420532
0.149646654725 -1.126690268517 0.222326099873 0.086864 -0.903110 0.420532
-0.213732644916 -1.129722952843 0.203201338649 -0.083820 -0.902783 0.421849
-0.276335448027 -1.113333344460 0.227020233870 -0.080544 -0.910561 0.405452
-0.280423313379 -1.107531070709 0.239206999540 -0.080544 -0.910561 0.405452
-0.491038888693 -1.059122204781 0.233075350523 -0.293415 -0.917827 0.267398
-0.644585371017 -1.002141118050 0.235423743725 -0.330719 -0.849310 0.411457
-0.754076778889 -0.970260679722 0.204648017883 -0.279075 -0.738352 0.613965
-0.755205750465 -0.987874746323 0.182547479868 -0.285529 -0.751309 0.594986
-0.777580559254 -1.100705981255 0.143171653152 -0.307409 -0.122158 0.943704
-0.687548518181 -1.126908302307 0.159618407488 -0.221591 -0.218872 0.950259
-0.701560497284 -1.089223504066 0.165054753423 -0.221591 -0.218872 0.950259
-0.612357735634 -1.246011257172 0.142238527536 -0.070317 -0.218352 0.973333
-0.572787165642 -1.278833627701 0.137719914317 -0.070317 -0.218352 0.973333
-0.625160455704 -1.262046813965 0.137719586492 -0.070317 -0.218352 0.973333
-0.536467850208 -1.083575010300 0.184144690633 -0.070317 -0.218352 0.973333
-0.567101120949 -1.077251315117 0.183360308409 -0.070317 -0.218352 0.973333
-0.532613396645 -1.073838710785 0.186606585979 -0.070317 -0.218352 0.973333
-0.369729727507 -1.167001724243 0.176418572664 -0.021087 -0.291492 0.956341
-0.645359277725 -1.323772311211 0.090883806348 0.441054 -0.896855 -0.033515
-0.611166238785 -1.305829286575 0.062994055450 0.441054 -0.896855 -0.033515
-0.653142213821 -1.497534871101 0.001363583840 0.997568 0.045976 -0.052391
-0.652360022068 -1.478865027428 0.033010140061 0.998102 0.041367 -0.045609
-0.445742964745 -1.738336801529 -0.052154392004 0.671464 0.740973 0.009731
-0.512740612030 -1.677987813950 -0.024723755196 0.671464 0.740973 0.009731
-0.444544255733 -1.740362763405 -0.034678556025 0.688421 0.722914 0.058925
-0.448556303978 -1.740036129951 0.007719695568 0.688421 0.722914 0.058925
-0.252132147551 -1.812481880188 -0.030196972191 0.030878 0.997679 0.060691
-0.344649106264 -1.809718489647 -0.027438240126 0.030878 0.997679 0.060691
-0.189244031906 -1.816670060158 -0.002329623327 0.035631 0.996584 0.074501
-0.007958402857 -1.823407530785 0.000305358320 0.035631 0.996584 0.074501
0.008869364858 -1.818074464798 -0.075748808682 -0.044637 0.996175 0.075121
0.026873543859 -1.820816278458 -0.028262648731 -0.044637 0.996175 0.075121
0.247373908758 -1.808434844017 -0.072806581855 -0.039637 0.997347 0.061062
0.271933585405 -1.809333801270 -0.041699018329 -0.039637 0.997347 0.061062
0.409965634346 -1.777047991753 -0.071788229048 -0.694284 0.717284 0.058935
0.396386861801 -1.792454600334 -0.044770568609 -0.694284 0.717284 0.058935
0.631316423416 -1.573607563972 -0.019230443984 -0.677265 0.735674 0.009735
0.499892085791 -1.694223761559 -0.051357630640 -0.677265 0.735674 0.009735
0.659809529781 -1.517282366753 0.015144221485 -0.998444 0.032615 -0.045240
0.663420617580 -1.328555583954 0.080017171800 -0.997950 0.037197 -0.052076
0.581789672375 -1.289315581322 0.054573226720 -0.377262 -0.925532 -0.032635
0.555789887905 -1.278637409210 0.052708342671 -0.377262 -0.925532 -0.032635
0.508698403835 -1.258634567261 0.091031908989 -0.410645 -0.903980 0.119129
0.504818975925 -1.255117297173 0.104221351445 -0.410645 -0.903980 0.119129
0.311418920755 -1.198068976402 0.116650439799 0.003300 -0.991097 0.133100
0.242098942399 -1.198737502098 0.113752469420 0.003300 -0.991097 0.133100
0.297910600901 -1.201767683029 0.089322403073 0.003300 -0.991097 0.133100
0.050568848848 -1.201386690140 0.102816343307 0.007675 -0.992266 0.123896
0.155929148197 -1.194573879242 0.151719659567 0.007675 -0.992266 0.123896
0.219526723027 -1.193825840950 0.154074788094 0.007675 -0.992266 0.123896
-0.243674278259 -1.199096083641 0.125996768475 0.001089 -0.992394 0.123096
-0.261120676994 -1.193851470947 0.168477892876 0.001089 -0.992394 0.123096
-0.097526170313 -1.195660114288 0.152598291636 0.001089 -0.992394 0.123096
-0.331917732954 -1.174849748611 0.174901515245 -0.023566 -0.291476 0.956288
-0.302550107241 -1.145586609840 0.184510052204 -0.023566 -0.291476 0.956288
-0.108300998807 -1.162500381470 0.184276163578 -0.029242 -0.326752 0.944658
0.187378376722 -1.151240587234 0.185277685523 0.031809 -0.324453 0.945367
0.075249403715 -1.183870792389 0.178226247430 0.026107 -0.292151 0.956016
0.209204941988 -1.159354090691 0.182162284851 0.026107 -0.292151 0.956016
0.374084740877 -1.173521041870 0.173527270555 0.023622 -0.292169 0.956075
0.470211148262 -1.100848078728 0.184544131160 0.072771 -0.218314 0.973162
0.592023134232 -1.056747198105 0.185429811478 0.072771 -0.218314 0.973162
0.525474667549 -1.234636545181 0.150528103113 0.072771 -0.218314 0.973162
0.629242777824 -1.079316258430 0.177634164691 0.072771 -0.218314 0.973162
0.473207235336 -1.202125310898 0.161658465862 0.072771 -0.218314 0.973162
0.548403739929 -1.248188853264 0.145804211497 0.072771 -0.218314 0.973162
-0.216849684715 -1.206684231758 0.068163968623 0.003300 -0.991097 0.133100
-0.263882339001 -1.200094103813 0.119026198983 0.003300 -0.991097 0.133100
-0.361782670021 -1.196503162384 0.148946702480 0.003300 -0.991097 0.133100
-0.608106076717 -1.304064750671 0.046459339559 0.372140 -0.919974 0.123124
-0.455782324076 -1.242401361465 0.046395212412 0.372140 -0.919974 0.123124
-0.504994928837 -1.743924617767 -0.011010970920 0.135061 -0.078688 0.987708
-0.612004041672 -1.527331352234 0.020981861278 0.135061 -0.078688 0.987708
-0.608760893345 -1.353372216225 0.034434624016 0.135061 -0.078688 0.987708
-0.622312545776 -1.389983654022 0.033369839191 0.135061 -0.078688 0.987708
-0.560820102692 -1.408758759499 0.026742577553 0.007662 -0.119314 0.992827
-0.210422873497 -1.641796112061 -0.003940831870 0.007662 -0.119314 0.992827
-0.305635869503 -1.746872186661 -0.015866726637 0.007662 -0.119314 0.992827
-0.545010745525 -1.378000617027 0.030324496329 0.007662 -0.119314 0.992827
-0.257337599993 -1.685945630074 -0.008899591863 0.007662 -0.119314 0.992827
-0.555121421814 -1.461514234543 0.020351557061 0.007662 -0.119314 0.992827
-0.440311223269 -1.734757423401 -0.013393488713 0.007662 -0.119314 0.992827
-0.118476331234 -1.791195392609 -0.022611323744 0.007662 -0.119314 0.992827
-0.597513854504 -1.357621908188 0.033172540367 0.007662 -0.119314 0.992827
-0.393524825573 -1.683063268661 -0.007525902241 0.007662 -0.119314 0.992827
-0.418524146080 -1.518171429634 0.012504031882 0.007662 -0.119314 0.992827
-0.500797748566 -1.396591663361 0.027754079551 0.007662 -0.119314 0.992827
-0.408212423325 -1.556860446930 0.007770840079 0.007662 -0.119314 0.992827
-0.505045354366 -1.529687523842 0.011770679615 0.007662 -0.119314 0.992827
-0.395527720451 -1.581116437912 0.004756452516 0.007662 -0.119314 0.992827
-0.019819810987 -1.736664414406 -0.016258563846 0.001094 -0.125785 0.992057
-0.339162170887 -1.452021121979 0.020129177719 0.001094 -0.125785 0.992057
-0.243409156799 -1.199871659279 0.052144810557 0.001094 -0.125785 0.992057
-0.032038062811 -1.340836644173 0.034093715250 0.001094 -0.125785 0.992057
-0.424473762512 -1.197420477867 0.052560918033 0.001094 -0.125785 0.992057
-0.136928915977 -1.592785716057 0.002108819783 0.001094 -0.125785 0.992057
-0.032438158989 -1.353134870529 0.032529726624 0.001094 -0.125785 0.992057
-0.071023195982 -1.337134718895 0.034587025642 0.001094 -0.125785 0.992057
-0.213736578822 -1.557460069656 0.006646141410 0.001094 -0.125785 0.992057
-0.009182035923 -1.418487548828 0.024204142392 0.001094 -0.125785 0.992057
-0.372895896435 -1.162056207657 0.057029176503 0.001094 -0.125785 0.992057
-0.467045992613 -1.297379970551 0.039871644229 0.001094 -0.125785 0.992057
-0.018607839942 -1.593088388443 0.002002146095 0.001094 -0.125785 0.992057
-0.341577380896 -1.429041504860 0.023053340614 0.001094 -0.125785 0.992057
-0.028602264822 -1.801741242409 -0.024530608207 0.001094 -0.125785 0.992057
-0.254998207092 -1.346570730209 0.033492885530 0.001094 -0.125785 0.992057
-0.199136167765 -1.267298936844 0.043543241918 0.001094 -0.125785 0.992057
-0.054491698742 -1.719724893570 -0.014084052294 0.001094 -0.125785 0.992057
0.001031748950 -1.733426570892 -0.015858743340 0.001094 -0.125785 0.992057
-0.020808398724 -1.186574578285 0.053707789630 0.001094 -0.125785 0.992057
-0.064402014017 -1.401739120483 0.026366189122 0.001094 -0.125785 0.992057
0.000519901514 -1.577981114388 0.003912597895 0.001094 -0.125785 0.992057
0.001108586788 -1.319805741310 0.036749504507 0.001094 -0.125785 0.992057
0.063152670860 -1.607892274857 0.000078978017 0.001091 -0.125512 0.992091
0.035289883614 -1.530053138733 0.009992141277 0.001091 -0.125512 0.992091
0.253483623266 -1.408078789711 0.025405893102 0.001091 -0.125512 0.992091
0.097204662859 -1.687964916229 -0.010121131316 0.001091 -0.125512 0.992091
0.048509564251 -1.500114440918 0.013793990016 0.001091 -0.125512 0.992091
0.409770756960 -1.336029767990 0.034498047084 0.001091 -0.125512 0.992091
0.094162732363 -1.252926349640 0.045212920755 0.001091 -0.125512 0.992091
0.269594103098 -1.241997241974 0.046522434801 0.001091 -0.125512 0.992091
0.066155463457 -1.311301708221 0.037800997496 0.001091 -0.125512 0.992091
0.020087096840 -1.810999989510 -0.025734554976 0.001091 -0.125512 0.992091
0.624893307686 -1.184445381165 0.053679298609 0.001091 -0.125512 0.992091
0.371518909931 -1.164759635925 0.056299485266 0.001091 -0.125512 0.992091
0.079691767693 -1.520478963852 0.011189498007 0.001091 -0.125512 0.992091
0.314080059528 -1.294243454933 0.039856798947 0.001091 -0.125512 0.992091
0.474826723337 -1.232864022255 0.047589823604 0.001091 -0.125512 0.992091
0.312925219536 -1.394374132156 0.027121674269 0.001091 -0.125512 0.992091
0.515328645706 -1.227229356766 0.048287905753 0.001091 -0.125512 0.992091
0.359116613865 -1.211006522179 0.050423033535 0.001091 -0.125512 0.992091
0.020522011444 -1.633343100548 -0.003138544038 0.001091 -0.125512 0.992091
0.041716121137 -1.286461353302 0.040971700102 0.001091 -0.125512 0.992091
0.072376996279 -1.613411426544 -0.000627253205 0.001091 -0.125512 0.992091
0.202307909727 -1.427191019058 0.022998506203 0.001091 -0.125512 0.992091
0.073440983891 -1.394747614861 0.027184166014 0.001091 -0.125512 0.992091
0.615366756916 -1.222008228302 0.049328237772 -0.038407 -0.088886 0.995301
0.151465550065 -1.747077584267 -0.015441309661 -0.038407 -0.088886 0.995301
0.474344909191 -1.625673413277 0.008071887307 -0.038407 -0.088886 0.995301
0.596225678921 -1.327713131905 0.039229016751 -0.038407 -0.088886 0.995301
0.197059124708 -1.745379567146 -0.013485960662 -0.038407 -0.088886 0.995301
0.619419038296 -1.515847563744 0.023521637544 -0.038407 -0.088886 0.995301
0.480140268803 -1.352366566658 0.032453909516 -0.038407 -0.088886 0.995301
0.388648629189 -1.544640183449 0.011839747429 -0.038407 -0.088886 0.995301
0.089930139482 -1.776506066322 -0.020478470251 -0.038407 -0.088886 0.995301
0.251276731491 -1.610846519470 0.000549701974 -0.038407 -0.088886 0.995301
0.375090211630 -1.528745055199 0.012707574293 -0.038407 -0.088886 0.995301
0.570716023445 -1.397102355957 0.032086916268 -0.038407 -0.088886 0.995301
0.510932624340 -1.447367191315 0.025277789682 -0.038407 -0.088886 0.995301
0.261691898108 -1.597860932350 0.002109652385 -0.038407 -0.088886 0.995301
0.501111686230 -1.381393313408 0.030719149858 -0.038407 -0.088886 0.995301
0.058284316212 -1.837137699127 -0.028805108741 0.001158 -0.207235 0.978290
0.418532013893 -1.718111038208 -0.003895478323 0.001158 -0.207235 0.978290
0.074838429689 -1.828083157539 -0.026905361563 0.001158 -0.207235 0.978290
-0.751810073853 -1.593455791473 -0.510533630848 -0.006896 0.999972 -0.002956
-0.583181202412 -1.592211008072 -0.494829773903 -0.006937 0.999952 -0.006937
-0.621660470963 -1.591952919960 -0.442181587219 -0.005193 0.998107 -0.061278
-0.571492195129 -1.585748195648 -0.401623100042 -0.031308 0.984464 -0.172774
-0.679909527302 -1.573706626892 -0.313822209835 -0.031308 0.984464 -0.172774
-0.576640188694 -1.586256504059 -0.403620660305 -0.031308 0.984464 -0.172774
-0.649889647961 -1.566182971001 -0.275271892548 -0.051415 0.990592 -0.126823
-0.813529312611 -1.584423303604 -0.350885599852 -0.051415 0.990592 -0.126823
-0.646009385586 -1.591640710831 -0.308554172516 -0.048638 -0.991998 0.116506
-0.817232370377 -1.581014513969 -0.291966974735 -0.047432 -0.947359 0.316641
-0.616922259331 -1.583394765854 -0.269475877285 -0.047432 -0.947359 0.316641
-0.765791118145 -1.580250144005 -0.282089173794 -0.047432 -0.947359 0.316641
-0.820509314537 -1.571182131767 -0.258756339550 -0.010765 -0.970016 0.242803
-0.619157910347 -1.544746279716 -0.154380962253 -0.052195 -0.911403 0.408191
-0.584886252880 -1.542623996735 -0.147189423442 -0.049751 -0.777539 0.626864
-0.862390518188 -1.487049579620 -0.103802852333 -0.076700 0.768443 -0.635304
-0.536879062653 -1.425449252129 -0.065691195428 -0.073597 0.774935 -0.627741
-0.588962733746 -1.515238642693 -0.170356884599 -0.073597 0.774935 -0.627741
-0.551980614662 -1.439125299454 -0.080801762640 -0.073597 0.774935 -0.627741
-0.774439573288 -1.471885442734 -0.095396973193 -0.073597 0.774935 -0.627741
-0.797266662121 -1.423517346382 -0.054858140647 -0.004086 0.562529 -0.826768
-0.635822653770 -1.402036547661 -0.044182721525 -0.003761 0.337207 -0.941423
-0.679897129536 -1.358156204224 -0.030905392021 -0.015783 0.261029 -0.965202
-0.638236820698 -1.294479250908 -0.014373649843 -0.015783 0.261029 -0.965202
-0.587748885155 -1.293486118317 -0.014971289784 -0.015783 0.261029 -0.965202
-0.586876153946 -1.264428734779 -0.007449062541 -0.003514 0.219037 -0.975710
-0.750007569790 -1.250710129738 -0.006938650273 0.007414 0.081553 -0.996641
-0.864621102810 -1.202580928802 -0.005581715144 -0.013775 -0.075231 -0.997071
-0.574022710323 -1.170361757278 -0.011812428012 -0.013775 -0.075231 -0.997071
-0.583077967167 -1.114974975586 -0.015888713300 -0.013775 -0.075231 -0.997071
-0.661254167557 -1.111941456795 -0.014744992368 -0.019944 -0.055633 -0.998252
-0.842117071152 -1.108871221542 -0.014419967309 0.003514 -0.219037 -0.975710
-0.824913978577 -1.103857278824 -0.015504638664 0.003514 -0.219037 -0.975710
-0.791031002998 -1.049054622650 -0.031941793859 -0.014383 -0.417107 -0.908744
-0.634055018425 -1.028913378716 -0.054135888815 -0.082534 -0.626968 -0.774661
-0.537013113499 -0.965895593166 -0.115368910134 -0.082534 -0.626968 -0.774661
-0.764709711075 -0.977874696255 -0.081455640495 -0.082534 -0.626968 -0.774661
-0.697985351086 -0.984488189220 -0.083215944469 -0.082534 -0.626968 -0.774661
-0.589070081711 -1.011684775352 -0.072840854526 -0.082534 -0.626968 -0.774661
-0.830935299397 -0.952701508999 -0.094719260931 -0.082684 -0.625206 -0.776068
-0.796753883362 -0.895371973515 -0.160379260778 -0.023550 -0.815934 -0.577665
-0.877965092659 -1.157412052155 0.037383805960 -0.840077 -0.001353 0.542465
-0.890081882477 -1.233222723007 0.003440580331 -0.962797 -0.040997 0.267098
-0.858673155308 -1.378777980804 0.024202611297 -0.675831 -0.176237 0.715676
-0.844002664089 -1.427817702293 0.020032843575 -0.678566 -0.265387 0.684922
-0.888487756252 -1.369429707527 -0.027702147141 -0.954838 -0.128104 0.268094
-0.787710845470 -1.538778424263 0.049053288996 -0.786895 -0.272811 0.553507
-0.781811416149 -1.580072879791 0.037642981857 -0.804703 -0.237225 0.544221
-0.815428674221 -1.428421735764 0.051057010889 -0.717283 -0.220342 0.661025
-0.810563504696 -1.191327333450 0.108048737049 -0.691472 -0.120450 0.712291
-0.794263541698 -1.277964115143 0.108485952020 -0.688852 -0.159668 0.707099
-0.834487080574 -1.139063954353 0.085422657430 -0.768612 -0.064650 0.636440
-0.827394127846 -0.790328383446 0.128355130553 -0.866412 -0.045456 0.497257
-0.870729506016 -0.827139139175 0.032600995153 -0.973303 0.003531 0.229497
-0.875920772552 -0.907578647137 0.021882053465 -0.971045 0.078531 0.225621
-0.871686816216 -0.956008672714 0.033916600049 -0.932685 -0.003797 0.360672
-0.889911293983 -0.979382157326 -0.011183265597 -0.962569 0.082651 0.258126
-0.888986647129 -0.931563377380 -0.024753965437 -0.964012 0.093209 0.248983
-0.881054043770 -0.790427446365 -0.041816480458 -0.986180 0.086632 0.141222
-0.886349618435 -0.808545231819 -0.290743172169 -0.991695 0.117004 -0.053390
-0.737486124039 -0.825488805771 -0.399024426937 0.001032 -0.998267 -0.058843
-0.869938254356 -0.832350492477 -0.350967526436 -0.001108 -0.989726 -0.142973
-0.619911968708 -0.841455340385 -0.336793452501 -0.038792 -0.957277 -0.286558
-0.541108608246 -0.883263170719 -0.207576513290 -0.038792 -0.957277 -0.286558
-0.807261526585 -0.849524259567 -0.284122169018 -0.038792 -0.957277 -0.286558
-0.614383220673 -0.835842192173 -0.356347858906 -0.038792 -0.957277 -0.286558
-0.597811281681 -0.836589396000 -0.356114447117 -0.038792 -0.957277 -0.286558
-0.635293185711 -0.878979563713 -0.208463266492 -0.051012 -0.964250 -0.260037
-0.711954712868 -0.873728334904 -0.213141813874 -0.051012 -0.964250 -0.260037
-0.851218581200 -0.874755859375 -0.200397357345 -0.022110 -0.922118 -0.386275
-0.718427836895 -0.823530375957 -0.452403008938 -0.004955 -0.999948 -0.008919
-0.666300952435 -0.822245001793 -0.508797585964 0.005063 -0.999494 -0.031392
-0.666697025299 -0.821696341038 -0.527034878731 0.005063 -0.999494 -0.031392
-0.886731505394 -0.787964403629 -0.180177360773 -0.985318 0.169010 -0.024144
-0.869031131268 -1.419561266899 -0.050712201744 -0.043328 -0.566056 0.823227
-0.552098751068 -1.455471038818 -0.064647063613 -0.012516 -0.677244 0.735652
-0.641154348850 -1.502750396729 -0.109650388360 -0.012516 -0.677244 0.735652
-0.570875763893 -1.441709518433 -0.052319571376 -0.012516 -0.677244 0.735652
-0.751440048218 -1.551640510559 -0.207770749927 -0.022380 0.909687 -0.414691
-0.735563158989 -1.565414071083 -0.250740945339 -0.025465 0.968894 -0.246164
-0.742328047752 -1.594139933586 -0.378864377737 -0.042883 -0.995102 0.089064
-0.568675279617 -1.598856687546 -0.348649740219 -0.042883 -0.995102 0.089064
-0.746467053890 -1.598003983498 -0.448228538036 -0.050457 -0.997340 0.052605
-0.749020099640 -1.597902178764 -0.448971569538 -0.044149 -0.998999 -0.007187
-0.618314266205 -1.602538943291 -0.463555335999 -0.031187 -0.996913 -0.072053
-0.777679324150 -1.594483137131 -0.504957258701 -0.031187 -0.996913 -0.072053
0.805855333805 -1.589111447334 -0.466937303543 0.052775 -0.998580 -0.007244
0.616108894348 -1.596855282784 -0.478016674519 0.040036 -0.996565 -0.072497
0.794591486454 -1.589462637901 -0.445028245449 0.057247 -0.996956 0.052926
0.658809304237 -1.590440869331 -0.352825760841 0.049792 -0.994730 0.089625
0.630884051323 -1.590229392052 -0.334555715322 0.049792 -0.994730 0.089625
0.710720777512 -1.582714796066 -0.305014520884 0.058050 -0.991406 0.117239
0.794921696186 -1.567972540855 -0.284242987633 0.044261 0.990755 -0.128242
0.747912883759 -1.559087753296 -0.249310895801 0.018054 0.968913 -0.246742
0.813941180706 -1.561412692070 -0.245336741209 0.020485 -0.970010 0.242201
0.814554750919 -1.562042117119 -0.247897475958 0.020485 -0.970010 0.242201
0.647816538811 -1.573218226433 -0.257997423410 0.055371 -0.946452 0.318060
0.599203109741 -1.556885600090 -0.200960159302 0.055371 -0.946452 0.318060
0.546241760254 -1.552631258965 -0.179172173142 0.055371 -0.946452 0.318060
0.631246447563 -1.544548392296 -0.165755048394 0.057877 -0.911222 0.407829
0.847220122814 -1.530106544495 -0.170740604401 0.017016 0.909696 -0.414926
0.872128009796 -1.497080087662 -0.124289363623 0.070654 0.768542 -0.635886
0.796728610992 -1.508704423904 -0.129286795855 0.055642 -0.777567 0.626334
0.598874092102 -1.500532269478 -0.111189149320 0.018148 -0.677066 0.735699
0.766263604164 -1.473085165024 -0.090102143586 0.018148 -0.677066 0.735699
0.740526616573 -1.463044881821 -0.080236479640 0.018148 -0.677066 0.735699
0.869964241982 -1.422573089600 -0.057263180614 0.046190 -0.564081 0.824426
0.842015624046 -1.413019657135 -0.049138866365 0.046190 -0.564081 0.824426
0.652130126953 -1.426216602325 -0.061288002878 0.001357 0.563126 -0.826370
0.720987141132 -1.427833557129 -0.062317218632 0.001357 0.563126 -0.826370
0.758971452713 -1.375020384789 -0.036219500005 0.001251 0.336415 -0.941713
0.610853493214 -1.363179683685 -0.034913785756 0.013324 0.260428 -0.965401
0.570086717606 -1.285526156425 -0.014481127262 0.013324 0.260428 -0.965401
0.539557754993 -1.381555557251 -0.040959808975 0.013324 0.260428 -0.965401
0.783758819103 -1.279440999031 -0.011432051659 0.003512 0.221266 -0.975207
0.745844244957 -1.302494168282 -0.016726378351 0.003512 0.221266 -0.975207
0.846294760704 -1.217812418938 -0.005439216271 -0.007430 0.081726 -0.996627
0.754887342453 -1.176288843155 -0.008614718914 0.013775 -0.075231 -0.997071
0.557820975780 -1.139497518539 -0.014089007862 0.013775 -0.075231 -0.997071
0.592779755592 -1.194466471672 -0.009454643354 0.013775 -0.075231 -0.997071
0.855546116829 -1.164130926132 -0.007694077678 0.019944 -0.055633 -0.998252
0.724590241909 -1.071433663368 -0.021209659055 -0.001168 -0.220763 -0.975327
0.852184712887 -1.009718179703 -0.046008646488 0.017038 -0.418083 -0.908249
0.892549633980 -1.046452999115 -0.028366925195 0.017038 -0.418083 -0.908249
0.645324528217 -0.937511265278 -0.122933812439 0.088642 -0.626303 -0.774524
0.667031288147 -1.034131050110 -0.042520865798 0.088642 -0.626303 -0.774524
0.609739184380 -0.962316513062 -0.106940954924 0.088642 -0.626303 -0.774524
0.571703433990 -0.968482375145 -0.106264568865 0.088642 -0.626303 -0.774524
0.539550781250 -1.043014883995 -0.049760229886 0.088642 -0.626303 -0.774524
0.900012612343 -0.972849547863 -0.065625689924 0.088803 -0.624532 -0.775934
0.643951296806 -0.896438479424 -0.158140003681 0.031978 -0.816126 -0.576989
0.887699007988 -0.857805311680 -0.221653670073 0.030082 -0.922078 -0.385834
0.817332983017 -0.860620677471 -0.220425546169 0.030082 -0.922078 -0.385834
0.804079890251 -0.848899364471 -0.263650327921 0.058877 -0.963321 -0.261813
0.740711033344 -0.830477774143 -0.337253451347 0.046653 -0.957026 -0.286225
0.646212160587 -0.867140948772 -0.230034828186 0.046653 -0.957026 -0.286225
0.797331988811 -0.842186689377 -0.288761675358 0.046653 -0.957026 -0.286225
0.607320904732 -0.860548853874 -0.258487045765 0.046653 -0.957026 -0.286225
0.541026949883 -0.885751307011 -0.185003370047 0.046653 -0.957026 -0.286225
0.804985761642 -0.821876347065 -0.378343462944 0.007809 -0.989559 -0.143916
0.869889736176 -0.816085755825 -0.443958014250 0.011009 -0.999855 -0.013011
0.708582460880 -0.817948460579 -0.440184086561 0.012985 -0.999875 -0.008990
0.664568424225 -0.818300485611 -0.453764200211 0.011031 -0.999794 -0.017048
0.564438402653 -0.818939626217 -0.452301889658 0.003032 -0.999505 -0.031329
0.554171383381 -0.819863617420 -0.423063427210 0.003032 -0.999505 -0.031329
0.882744371891 -0.805750906467 -0.357188403606 0.993130 -0.048254 -0.106607
0.887546777725 -0.775222480297 -0.207303375006 0.985251 0.169394 -0.024199
0.829786360264 -1.108917832375 0.100433826447 0.767748 -0.101290 0.632695
0.848181784153 -1.155829071999 0.074742577970 0.651911 -0.064759 0.755526
0.862140357494 -1.371321678162 0.027911383659 0.676372 -0.172528 0.716069
0.842598855495 -1.477201104164 0.011216104031 0.731575 -0.212794 0.647701
0.846265316010 -1.505047082901 -0.008597476408 0.761078 -0.347413 0.547782
0.802788197994 -1.540351748466 0.035909567028 0.790612 -0.265633 0.551699
0.809856832027 -1.439069390297 0.059859834611 0.718286 -0.213460 0.662194
0.818701088428 -1.380195260048 0.068138539791 0.713858 -0.136760 0.686807
0.889641880989 -1.420545578003 -0.035276196897 0.947318 -0.143777 0.286211
0.887588918209 -0.894940555096 -0.015585081652 0.970155 0.086375 0.226578
0.882560789585 -0.786224305630 -0.032964088023 0.985341 0.094354 0.142128
0.853336751461 -0.823238730431 0.083079017699 0.891303 -0.039104 0.451719
0.838553726673 -0.823513627052 0.110206112266 0.866890 -0.036976 0.497126
0.873567938805 -1.065464615822 0.048192754388 0.853759 0.042896 0.518898
0.878899931908 -0.944169342518 0.025114960968 0.932685 0.003797 0.360672
0.890793383121 -1.143321037292 0.025932546705 0.839260 0.006779 0.543688
0.846590399742 -0.999300181866 0.085905522108 0.719159 -0.041135 0.693627
0.842021286488 -1.005244016647 0.091587543488 0.838921 -0.034552 0.543156
0.880048215389 -1.437273979187 -0.022967729717 0.829119 -0.208421 0.518770
0.841610133648 -1.473101377487 -0.098454236984 0.067579 0.774999 -0.628339
0.618002176285 -1.508620142937 -0.165963009000 0.067579 0.774999 -0.628339
0.650729000568 -1.473539948463 -0.119213044643 0.067579 0.774999 -0.628339
0.671000957489 -1.473967790604 -0.117593750358 0.067579 0.774999 -0.628339
0.550670325756 -1.566836714745 -0.324263811111 0.021887 0.984917 -0.171640
0.803742051125 -1.582111477852 -0.378769993782 0.021887 0.984917 -0.171640
0.685093939304 -1.583122968674 -0.399884104729 0.021887 0.984917 -0.171640
0.578233361244 -1.578914284706 -0.389665722847 0.021887 0.984917 -0.171640
0.731727182865 -1.584610939026 -0.410119175911 -0.003109 0.998124 -0.061152
0.681205153465 -1.587289571762 -0.480454653502 -0.000983 0.999976 -0.006883
0.675550580025 -1.587418317795 -0.502449214458 -0.000979 0.999995 -0.002938
0.426066547632 -1.865371227264 -0.065042905509 -0.690759 0.665116 -0.283676
0.627936959267 -1.672734022141 -0.105351328850 -0.690759 0.665116 -0.283676
0.636328160763 -1.601696014404 -0.015356796794 -0.664495 0.607872 -0.434670
0.477506041527 -1.812146425247 -0.066963732243 -0.664495 0.607872 -0.434670
0.612323284149 -1.632612347603 -0.021911462769 -0.664495 0.607872 -0.434670
0.495590955019 -1.802749395370 -0.037353649735 -0.307564 0.073971 0.948648
0.613163113594 -1.678057789803 -0.008994506672 -0.307564 0.073971 0.948648
0.602565884590 -1.663882374763 -0.013498116285 -0.307564 0.073971 0.948648
0.617543280125 -1.622772216797 -0.011818531901 -0.307564 0.073971 0.948648
0.550745189190 -1.807256937027 -0.019358765334 -0.295240 0.049418 0.954144
0.445055216551 -1.887722849846 -0.048931874335 -0.294665 -0.013562 0.955504
0.497440636158 -1.854202866554 -0.078020662069 0.832525 -0.168896 0.527614
0.538103818893 -1.886673212051 -0.142458051443 0.059946 0.017879 -0.998042
0.656591713428 -1.833485364914 -0.131750062108 0.068607 0.049005 -0.996439
0.632041156292 -1.832539796829 -0.133361786604 0.063618 0.083709 -0.994457
0.653746664524 -1.741606950760 -0.124319285154 0.063618 0.083709 -0.994457
0.572548270226 -1.797105073929 -0.134205281734 0.063618 0.083709 -0.994457
0.532756626606 -1.839689135551 -0.127073615789 0.259126 -0.183152 0.948319
0.509997308254 -1.824089288712 -0.059703130275 -0.884897 -0.403037 0.233494
0.580514848232 -1.762471795082 -0.039516873658 0.808581 -0.587167 -0.037837
0.635495364666 -1.724982023239 -0.080878466368 0.679518 -0.276604 0.679518
0.747990846634 -1.704249858856 -0.076331898570 0.825784 -0.550034 -0.124674
0.723502099514 -1.704244136810 0.008502556942 0.652924 -0.301474 0.694841
0.619210124016 -1.746150732040 -0.012805992737 0.350635 -0.201794 -0.914513
0.583827078342 -1.841067671776 -0.008503355086 0.361347 -0.110449 -0.925867
0.495576083660 -1.889803290367 -0.036585494876 0.350983 -0.070197 -0.933747
0.743222415447 -1.564542055130 -0.040597189218 0.534301 0.561269 -0.632060
0.768558204174 -1.573069334030 0.024637186900 0.271710 0.277461 0.921515
0.757131934166 -1.583892583847 0.025528892875 -0.058166 0.119753 0.991098
0.743074715137 -1.603460431099 0.024467356503 -0.195612 0.071684 0.978058
0.522305369377 -1.884479522705 -0.131392002106 0.865082 -0.163029 0.474400
0.522437632084 -1.830074429512 -0.050960823894 -0.215593 -0.950508 0.223729
0.579322755337 -1.831361293793 -0.045788578689 0.225201 -0.948573 0.222471
-0.723007798195 -0.478799641132 0.365922093391 -0.945596 0.023987 0.324457
-0.702238082886 -0.393091052771 0.418206483126 -0.950278 0.049746 0.307405
-0.670828163624 -0.237641394138 0.486517608166 -0.955440 0.073101 0.285991
-0.698660612106 -0.262523770332 0.404599249363 -0.948266 0.049909 0.313529
-0.655572950840 -0.112269043922 0.511564075947 -0.948266 0.049909 0.313529
-0.695497989655 -0.092628762126 0.410320758820 -0.924466 0.001275 0.381263
-0.751175165176 -0.428574949503 0.275603383780 -0.924466 0.001275 0.381263
-0.751558125019 -0.411321341991 0.274637788534 -0.924466 0.001275 0.381263
-0.672520101070 -0.137486115098 0.466284215450 -0.924466 0.001275 0.381263
-0.717730998993 -0.207002401352 0.356485962868 -0.924466 0.001275 0.381263
-0.722047924995 -0.301888436079 0.346177965403 -0.924466 0.001275 0.381263
-0.697145700455 -0.058421432972 0.406245827675 -0.924466 0.001275 0.381263
-0.768400430679 -0.352207928896 0.233565539122 -0.924466 0.001275 0.381263
-0.717447817326 -0.000048220158 0.356762021780 -0.924466 0.001275 0.381263
-0.708468317986 -0.238669648767 0.379072517157 -0.924466 0.001275 0.381263
-0.742177546024 -0.152904957533 0.296932846308 -0.924466 0.001275 0.381263
-0.724457025528 0.274465084076 0.339170873165 -0.924466 0.001275 0.381263
-0.743209362030 0.041499674320 0.294036269188 -0.924466 0.001275 0.381263
-0.756788432598 -0.028418660164 0.261156231165 -0.924466 0.001275 0.381263
-0.674379706383 -0.104322649539 0.461696237326 -0.924466 0.001275 0.381263
-0.730770826340 0.146576106548 0.324072927237 -0.924466 0.001275 0.381263
-0.668574512005 -0.079584866762 0.475763082504 -0.924466 0.001275 0.381263
-0.649547338486 0.119586102664 0.513246953487 -0.901080 0.030613 0.432572
-0.686166524887 0.303129345179 0.424166977406 -0.901080 0.030613 0.432572
-0.655201077461 0.044814504683 0.506589055061 -0.901080 0.030613 0.432572
-0.734401524067 0.487606912851 0.310255408287 -0.894990 0.041847 0.444120
-0.681100845337 0.415629088879 0.424334764481 -0.894990 0.041847 0.444120
-0.654212355614 0.284960269928 0.490659892559 -0.894990 0.041847 0.444120
-0.656559288502 0.427057564259 0.472631633282 -0.893690 0.047465 0.446167
-0.633965134621 0.468240946531 0.513292372227 -0.893690 0.047465 0.446167
-0.651155650616 0.548422813416 0.470184683800 -0.893690 0.047465 0.446167
0.580758988857 -0.916065037251 0.258716911077 0.174216 -0.501802 0.847256
0.560925245285 -0.968541979790 0.230814442039 0.145110 -0.508619 0.848675
0.519064545631 -0.896576583385 0.280048757792 0.116260 -0.492311 0.862620
0.470489650965 -0.936283826828 0.263938963413 0.116260 -0.492311 0.862620
0.321922600269 -0.956056177616 0.272331833839 0.107776 -0.507266 0.855024
0.284795343876 -1.038697719574 0.225941151381 0.063010 -0.513885 0.855542
0.102550461888 -1.022484064102 0.246367767453 0.039765 -0.495008 0.867978
0.218295603991 -0.954241216183 0.279788970947 0.039765 -0.495008 0.867978
0.106055021286 -1.052726864815 0.228166997433 0.023176 -0.513957 0.857503
0.070969417691 -1.025466561317 0.245538935065 0.023176 -0.513957 0.857503
0.000796452165 -0.971241533756 0.280043452978 -0.020374 -0.514788 0.857075
-0.055062025785 -0.978317379951 0.273862063885 -0.036889 -0.495948 0.867568
-0.160732448101 -0.993208765984 0.260860055685 -0.036889 -0.495948 0.867568
-0.249482035637 -0.987141907215 0.260510146618 -0.059990 -0.514800 0.855209
-0.421516597271 -0.954217910767 0.261757910252 -0.113266 -0.494644 0.861683
-0.551343142986 -0.916777729988 0.265545219183 -0.142239 -0.508833 0.849033
-0.584897458553 -0.940411150455 0.245519429445 -0.170640 -0.503017 0.847264
-0.566351771355 -0.752954185009 0.355506926775 -0.159944 -0.476897 0.864284
-0.431922852993 -0.795597791672 0.350056380033 -0.110199 -0.488023 0.865847
-0.448088556528 -0.768023371696 0.363477051258 -0.110199 -0.488023 0.865847
-0.407299429178 -0.783952891827 0.359754890203 -0.110199 -0.488023 0.865847
-0.328708529472 -0.901169955730 0.303886085749 -0.110199 -0.488023 0.865847
-0.416289329529 -0.833813965321 0.330572098494 -0.110199 -0.488023 0.865847
-0.459552586079 -0.871055841446 0.304091483355 -0.110199 -0.488023 0.865847
-0.220652654767 -0.759013116360 0.391886889935 -0.034160 -0.495997 0.867652
-0.074820563197 -0.780332446098 0.385657459497 -0.034160 -0.495997 0.867652
-0.163082808256 -0.854214608669 0.339848190546 -0.034160 -0.495997 0.867652
-0.100884452462 -0.922178447247 0.303856909275 -0.036939 -0.493884 0.868743
-0.077122174203 -0.919397115707 0.306447118521 -0.036939 -0.493884 0.868743
-0.154201582074 -0.894564807415 0.317281752825 -0.036939 -0.493884 0.868743
0.168862327933 -0.765992939472 0.389354258776 0.039671 -0.493832 0.868652
0.082537330687 -0.899288535118 0.317566126585 0.039671 -0.493832 0.868652
0.046095546335 -0.865594148636 0.338348180056 0.039671 -0.493832 0.868652
0.216651797295 -0.870142698288 0.327856004238 0.039765 -0.495008 0.867978
0.243809312582 -0.879210829735 0.321393907070 0.039765 -0.495008 0.867978
0.109180167317 -0.915102958679 0.307287663221 0.039765 -0.495008 0.867978
0.345212817192 -0.770996093750 0.373702049255 0.116010 -0.485522 0.866493
0.314449846745 -0.879245400429 0.317020386457 0.116010 -0.485522 0.866493
0.330209076405 -0.786831557751 0.366805762053 0.116010 -0.485522 0.866493
0.414101541042 -0.842700660229 0.324305146933 0.116010 -0.485522 0.866493
0.425962120295 -0.835076689720 0.327011764050 0.116010 -0.485522 0.866493
0.536513388157 -0.868880391121 0.293424874544 0.116010 -0.485522 0.866493
0.608624577522 -0.801264941692 0.318720936775 0.165886 -0.474171 0.864664
0.647620201111 -0.778267204762 0.324143409729 0.159944 -0.476897 0.864284
0.643157839775 -0.740567326546 0.345580607653 0.169009 -0.465877 0.868559
0.615523874760 -0.614416301250 0.416792541742 0.164509 -0.444030 0.880780
0.600460290909 -0.617712616920 0.417933642864 0.164509 -0.444030 0.880780
0.537239432335 -0.526608169079 0.475743412971 0.164509 -0.444030 0.880780
0.503762364388 -0.590108811855 0.448723495007 0.108939 -0.454147 0.884242
0.493447303772 -0.550696313381 0.470236361027 0.108939 -0.454147 0.884242
0.495019108057 -0.666037321091 0.410799235106 0.108939 -0.454147 0.884242
0.300213456154 -0.548826575279 0.495853900909 0.112149 -0.458532 0.881573
0.278176575899 -0.579852342606 0.482597053051 0.112149 -0.458532 0.881573
0.290667206049 -0.641026556492 0.449284344912 0.112149 -0.458532 0.881573
0.210843682289 -0.744726836681 0.399128258228 0.036581 -0.464709 0.884708
0.224960193038 -0.594210863113 0.477659344673 0.036581 -0.464709 0.884708
0.159691214561 -0.742850959301 0.402276784182 0.036581 -0.464709 0.884708
0.027978036553 -0.588844299316 0.489239513874 0.039331 -0.467900 0.882906
0.130645245314 -0.641541659832 0.456824183464 0.039331 -0.467900 0.882906
0.183527857065 -0.574290990829 0.490008950233 0.039331 -0.467900 0.882906
0.235159114003 -0.544820725918 0.502950906754 0.036100 -0.429186 0.902494
0.153304457664 -0.447612524033 0.552438199520 0.046927 -0.416980 0.907703
0.254535973072 -0.433884501457 0.553192615509 0.049602 -0.416926 0.907586
0.279566675425 -0.446403175592 0.545024096966 0.100984 -0.410854 0.906091
0.396240413189 -0.408147335052 0.549247384071 0.100984 -0.410854 0.906091
0.455824673176 -0.511279881001 0.495210915804 0.104386 -0.416151 0.903284
0.332529067993 -0.516369342804 0.507287085056 0.104386 -0.416151 0.903284
0.549935936928 -0.371991187334 0.544456064701 0.162094 -0.405951 0.899405
0.558189630508 -0.470533430576 0.498884618282 0.155472 -0.400803 0.902876
0.635757565498 -0.462362319231 0.488189250231 0.186332 -0.394330 0.899880
0.452282905579 -0.369694650173 0.559567272663 0.095590 -0.354085 0.930315
0.310462534428 -0.336155474186 0.587685108185 0.105273 -0.370505 0.922845
0.233365073800 -0.386876255274 0.575117051601 0.054468 -0.386590 0.920642
0.003684893018 -0.557552039623 0.506445288658 0.036013 -0.428153 0.902989
-0.071416720748 -0.481062084436 0.540333330631 -0.030609 -0.427199 0.903639
-0.107291780412 -0.465351015329 0.546476781368 -0.033310 -0.430367 0.902039
-0.061349526048 -0.509603023529 0.527121186256 -0.033310 -0.430367 0.902039
-0.246750667691 -0.635151445866 0.456283897161 -0.036581 -0.464709 0.884708
-0.175956964493 -0.651390850544 0.450578331947 -0.036581 -0.464709 0.884708
-0.277315855026 -0.650551199913 0.446961700916 -0.036581 -0.464709 0.884708
-0.174518361688 -0.744999825954 0.401217192411 -0.033831 -0.466874 0.883677
-0.030163496733 -0.681957244873 0.440061330795 -0.033831 -0.466874 0.883677
-0.052515164018 -0.754876375198 0.400650531054 -0.033831 -0.466874 0.883677
-0.314321577549 -0.687922894955 0.423194259405 -0.105868 -0.458760 0.882231
-0.344004631042 -0.664975106716 0.431563287973 -0.105868 -0.458760 0.882231
-0.395739674568 -0.671767652035 0.421832919121 -0.105868 -0.458760 0.882231
-0.450960874557 -0.553198039532 0.476272165775 -0.108939 -0.454147 0.884242
-0.447934359312 -0.572430372238 0.466757386923 -0.108939 -0.454147 0.884242
-0.287648051977 -0.430196225643 0.552472829819 -0.100984 -0.410854 0.906091
-0.376748114824 -0.502026379108 0.509905934334 -0.100984 -0.410854 0.906091
-0.246464625001 -0.525741517544 0.512406349182 -0.046927 -0.416980 0.907703
-0.003728628159 -0.359673827887 0.595431327820 -0.029997 -0.379529 0.924694
-0.085299983621 -0.384049594402 0.582939565182 -0.016898 -0.393863 0.919014
-0.148432850838 -0.412168949842 0.569495439529 -0.046626 -0.406315 0.912543
-0.228193044662 -0.384003192186 0.577444136143 -0.049048 -0.385752 0.921298
-0.051817134023 -0.328080445528 0.607100427151 -0.024665 -0.377759 0.925575
-0.309949040413 -0.370949149132 0.575379073620 -0.093539 -0.372799 0.923186
-0.479567497969 -0.382496893406 0.553355336189 -0.098266 -0.416591 0.903768
-0.443103909492 -0.473063647747 0.515666484833 -0.098266 -0.416591 0.903768
-0.566693425179 -0.456181794405 0.506099820137 -0.152727 -0.406796 0.900661
-0.561759948730 -0.556324720383 0.458386570215 -0.161052 -0.445433 0.880711
-0.544046342373 -0.632285535336 0.423144489527 -0.161052 -0.445433 0.880711
-0.555898547173 -0.687390208244 0.393069326878 -0.161052 -0.445433 0.880711
-0.647787928581 -0.738904714584 0.347996920347 -0.165924 -0.468404 0.867795
-0.640752434731 -0.805350601673 0.312838882208 -0.156862 -0.479382 0.863474
-0.651985406876 -0.815997660160 0.304714739323 -0.186426 -0.484708 0.854578
-0.691909253597 -0.821139872074 0.292578250170 -0.196250 -0.489875 0.849417
-0.651005089283 -0.893738746643 0.259718805552 -0.193286 -0.495952 0.846565
-0.638898313046 -0.576321542263 0.434374988079 -0.136205 -0.451627 0.881749
-0.548767387867 -0.373996049166 0.545968770981 -0.158662 -0.401657 0.901941
-0.342511177063 -0.323935389519 0.590674519539 -0.101271 -0.352424 0.930345
-0.249755918980 -0.297534018755 0.611218512058 -0.105431 -0.373802 0.921497
-0.161672011018 -0.300907522440 0.613297224045 -0.032302 -0.355326 0.934184
0.180583775043 -0.301383018494 0.611928284168 0.031981 -0.338999 0.940243
0.159468173981 -0.356809109449 0.591849267483 0.029925 -0.378615 0.925070
-0.580587267876 -0.330541789532 0.557313382626 -0.154340 -0.340661 0.927432
-0.590308666229 -0.341748297215 0.551448345184 -0.172212 -0.337424 0.925466
-0.580024123192 -0.285084128380 0.573717355728 -0.189808 -0.324783 0.926547
-0.544248461723 -0.268541276455 0.585835635662 -0.164389 -0.313583 0.935223
0.724475979805 0.680367350578 0.294250160456 0.928068 0.067907 0.366167
0.729485213757 0.554823398590 0.306280076504 0.933570 0.072832 0.350916
0.688542902470 0.594773530960 0.397197484970 0.898782 0.081207 0.430810
0.654801249504 0.670398712158 0.452553600073 0.897510 0.084358 0.432851
0.655058264732 0.694211602211 0.447674512863 0.897376 0.078572 0.434214
0.687878847122 0.922231078148 0.333083331585 0.912611 0.085941 0.399694
0.669531702995 1.062406182289 0.343518644571 0.893267 0.119949 0.433228
0.599935173988 1.250290274620 0.426192164421 0.858978 0.147797 0.490217
0.659583747387 1.015931725502 0.374877810478 0.895990 0.090294 0.434798
0.657668292522 0.946146130562 0.392995864153 0.891818 0.087651 0.443822
0.625405251980 0.744478344917 0.490367889404 0.841581 0.081168 0.533998
0.617989063263 0.761192739010 0.499587059021 0.844691 0.078081 0.529529
0.626976430416 0.818068563938 0.476754784584 0.842660 0.102272 0.528643
0.626791357994 0.852668046951 0.470493257046 0.830827 0.093594 0.548605
0.617654144764 1.034730434418 0.451092451811 0.877095 0.097455 0.470326
0.621304154396 1.093320488930 0.429897189140 0.875870 0.115359 0.468555
0.615684211254 1.185350775719 0.417398303747 0.870501 0.119031 0.477556
0.638408422470 0.644716680050 0.484852015972 0.840300 0.081044 0.536029
0.662029027939 -1.837294101715 -0.388878703117 0.424011 -0.897326 0.122555
0.597177624702 -1.927997350693 -0.392703890800 -0.648770 -0.297822 -0.700285
0.688493311405 -1.848947405815 -0.371543556452 -0.950267 -0.143008 0.276660
-0.591713130474 -1.915277481079 -0.382491379976 -0.979701 -0.066277 0.189192
-0.640431344509 -1.893522024155 -0.411196231842 0.157908 -0.052636 0.986050
0.464390069246 -1.916337847710 -0.518718481064 -0.151625 -0.047455 -0.987298
0.284153044224 -1.981903672218 -0.507581710815 -0.012023 -0.112583 -0.993570
0.277575194836 -1.988972306252 -0.506696581841 -0.012023 -0.112583 -0.993570
0.315659582615 -1.994385004044 -0.506554663181 -0.012023 -0.112583 -0.993570
0.185223102570 -1.937203168869 -0.511432945728 -0.012023 -0.112583 -0.993570
0.297865986824 -1.911921262741 -0.515705943108 -0.012023 -0.112583 -0.993570
0.038522511721 -1.935602784157 -0.509998321533 -0.001063 -0.092452 -0.995717
0.079075157642 -1.993435144424 -0.504626452923 -0.001063 -0.092452 -0.995717
0.488121122122 -1.992226958275 -0.514930486679 0.013614 -0.061786 -0.997997
0.534596920013 -1.955357193947 -0.516433596611 0.019984 -0.057847 -0.998125
0.571774184704 -1.877367973328 -0.520255446434 0.020100 -0.066646 -0.997574
0.508192539215 -1.762987256050 -0.525417029858 -0.023435 -0.019359 -0.999538
0.521122455597 -1.670293092728 -0.527532994747 -0.023435 -0.019359 -0.999538
0.658779442310 -1.604643344879 -0.530030965805 -0.004926 -0.002956 -0.999984
