0.139402240515 1.452046036720 -0.329874396324 0.001235 0.312519 -0.949911
0.027541726828 1.367264986038 -0.357991456985 0.001235 0.312519 -0.949911
0.137968391180 1.263082027435 -0.392116516829 0.001235 0.312519 -0.949911
0.521744787693 1.483006358147 -0.319019049406 0.001235 0.312519 -0.949911
0.127716302872 1.452623367310 -0.329704314470 0.001235 0.312519 -0.949911
0.023129466921 0.895099520683 -0.513517618179 0.001235 0.312519 -0.949911
0.286298274994 1.332493424416 -0.368999034166 0.001235 0.312519 -0.949911
0.097040936351 1.096035480499 -0.447207570076 0.001235 0.312519 -0.949911
0.029719278216 1.161684513092 -0.425700366497 0.001235 0.312519 -0.949911
0.317174196243 1.112393498421 -0.441440880299 0.001235 0.312519 -0.949911
0.334411680698 1.139922499657 -0.432343900204 0.001235 0.312519 -0.949911
0.168892771006 0.899500727654 -0.511817097664 0.001235 0.312519 -0.949911
0.501156866550 1.372373104095 -0.355494052172 0.001235 0.312519 -0.949911
0.403533786535 0.963976144791 -0.490176975727 0.001235 0.312519 -0.949911
0.546828806400 0.885231733322 -0.515866637230 0.001235 0.312519 -0.949911
0.493955671787 1.089027762413 -0.448832720518 0.001235 0.312519 -0.949911
0.497098863125 0.854068100452 -0.526216685772 0.001235 0.312519 -0.949911
0.380248904228 0.847709476948 -0.528512120247 0.001235 0.312519 -0.949911
0.431349158287 0.909871101379 -0.507949829102 0.001235 0.312519 -0.949911
0.143520236015 0.985835254192 -0.483424544334 0.001235 0.312519 -0.949911
0.440136790276 0.848242878914 -0.528233408928 0.001235 0.312519 -0.949911
0.471538603306 0.911075949669 -0.507483839989 0.001235 0.312519 -0.949911
0.487676560879 0.997579753399 -0.478964060545 0.001235 0.312519 -0.949911
0.546126902103 1.025624155998 -0.469626396894 0.001235 0.312519 -0.949911
0.168393522501 0.873636305332 -0.520337045193 0.001235 0.312519 -0.949911
0.301130980253 1.153267145157 -0.428005814552 0.001235 0.312519 -0.949911
0.497964709997 0.917111277580 -0.505450487137 0.001235 0.312519 -0.949911
0.351647347212 0.855281591415 -0.526067316532 0.001235 0.312519 -0.949911
0.370039105415 1.097022414207 -0.446412771940 0.001235 0.312519 -0.949911
0.560691475868 1.108378171921 -0.371709674597 0.999987 -0.004907 -0.000981
0.560364067554 1.045785665512 -0.381119221449 0.999987 -0.004907 -0.000981
0.561656057835 1.292615294456 -0.320142179728 0.999987 -0.004907 -0.000981
0.561634004116 1.288568019867 -0.346433371305 0.999987 -0.004907 -0.000981
0.560527920723 1.076840519905 -0.336145877838 0.999987 -0.004907 -0.000981
0.562737345695 1.499451994896 -0.302043437958 0.999987 -0.004907 -0.000981
0.514164209366 1.568005442619 -0.314644098282 -0.001024 -0.050193 -0.998739
0.178114205599 1.524557352066 -0.312340527773 -0.001024 -0.050193 -0.998739
0.213841974735 1.522255182266 -0.312232732773 -0.001024 -0.050193 -0.998739
0.204647690058 1.607197284698 -0.316558986902 -0.001024 -0.050193 -0.998739
0.193553656340 1.606808543205 -0.316536247730 -0.001024 -0.050193 -0.998739
0.196691393852 1.581584692001 -0.315251618624 -0.001024 -0.050193 -0.998739
-0.199261695147 1.548434734344 -0.313456892967 -0.001024 -0.050193 -0.998739
-0.172891333699 1.526080131531 -0.312324702740 -0.001024 -0.050193 -0.998739
-0.468342840672 1.536359071732 -0.312769889832 -0.001024 -0.050193 -0.998739
-0.156745836139 1.603182792664 -0.316258251667 -0.001024 -0.050193 -0.998739
-0.317585200071 1.605023860931 -0.316309273243 -0.001024 -0.050193 -0.998739
-0.634476602077 1.497746706009 -0.274636536837 -0.003895 -0.910182 -0.414191
-0.696197807789 1.496827363968 -0.271908283234 -0.003895 -0.910182 -0.414191
-0.574817955494 1.477728724480 -0.233804583549 -0.004052 -0.844099 -0.536172
-0.709936559200 1.473753929138 -0.226435989141 -0.004052 -0.844099 -0.536172
-0.788241147995 1.444650411606 -0.185453072190 -0.004151 -0.751283 -0.659967
-0.765726387501 1.433398485184 -0.173583462834 -0.004133 -0.637872 -0.770131
-0.542678475380 1.296348571777 -0.201917961240 -0.999987 0.004907 -0.000981
-0.543141543865 1.207375645638 -0.268132507801 -0.999987 0.004907 0.000981
-0.543066799641 1.221680402756 -0.284950524569 -0.999987 0.004907 -0.000981
-0.543024063110 1.229766249657 -0.299403607845 -0.999987 0.004907 0.000981
-0.542522251606 1.326362133026 -0.111140593886 -0.999987 0.004907 0.000981
-0.542816638947 1.269988656044 -0.127900615335 -0.999987 0.004907 -0.000981
-0.542971730232 1.240496277809 -0.100171566010 -0.999987 0.004907 -0.000981
-0.543573379517 1.124985456467 -0.186621695757 -0.999987 0.004907 -0.000981
-0.544036209583 1.036281943321 -0.228941708803 -0.999987 0.004907 -0.000981
-0.544372677803 0.972203552723 -0.199400395155 -0.999987 0.004907 -0.000981
-0.544649124146 0.919238150120 -0.219258278608 -0.999987 0.004907 -0.000981
-0.544576704502 0.932356655598 -0.363324195147 -0.999987 0.004907 -0.000981
-0.544178426266 1.008777618408 -0.306018263102 -0.999987 0.004907 -0.000981
-0.544863283634 0.877886116505 -0.422619402409 -0.999987 0.004907 0.000981
-0.544992983341 0.850925862789 -0.500223219395 -0.999987 0.004907 -0.000981
-0.619924664497 0.837634503841 -0.484800487757 0.005399 0.994485 0.104739
-0.653561532497 0.836689412594 -0.472480148077 0.005306 0.996466 0.083835
-0.715587258339 0.838837921619 -0.416707575321 0.005585 0.988549 -0.150796
-0.647824048996 0.853969812393 -0.314418703318 0.005585 0.988549 -0.150796
-0.737186610699 0.856652677059 -0.306607246399 0.003939 0.896771 -0.442477
-0.708266377449 0.884515762329 -0.249676823616 0.003939 0.896771 -0.442477
-0.554497897625 0.882773220539 -0.251583337784 0.003939 0.896771 -0.442477
-0.614275634289 0.917157351971 -0.192305132747 0.004158 0.722184 -0.691689
-0.597813725471 0.923817813396 -0.185253113508 0.004158 0.722184 -0.691689
-0.681723713875 0.956650793552 -0.153026252985 0.004052 0.536172 -0.844099
-0.628235042095 0.999448239803 -0.125683531165 0.004052 0.536172 -0.844099
-0.698911547661 1.039489150047 -0.107228353620 0.001238 0.320681 -0.947186
-0.610883235931 1.033120751381 -0.109225787222 0.001238 0.320681 -0.947186
-0.649158835411 1.080185055733 -0.094958826900 0.001108 0.145143 -0.989410
-0.705630123615 1.138074040413 -0.086516678333 0.001108 0.145143 -0.989410
-0.547721207142 1.077168107033 -0.095323428512 0.001108 0.145143 -0.989410
-0.681653916836 1.185114979744 -0.083414457738 -0.001044 -0.072063 -0.997400
-0.625651836395 1.256705403328 -0.088587753475 -0.001044 -0.072063 -0.997400
-0.758118271828 1.307350397110 -0.099267117679 -0.001169 -0.218539 -0.975828
-0.599914431572 1.290657877922 -0.095695555210 -0.001169 -0.218539 -0.975828
-0.658955514431 1.335770845413 -0.107660092413 -0.001329 -0.482479 -0.875906
-0.588693737984 1.351379394531 -0.116435632110 -0.001329 -0.482479 -0.875906
-0.680118799210 1.388975858688 -0.137203991413 -0.004133 -0.637872 -0.770131
-0.733982503414 1.517831563950 -0.359762638807 -0.005418 -0.993736 -0.111619
-0.770874261856 1.542906880379 -0.458559453487 -0.893601 0.443369 -0.070006
-0.610890626907 1.611518621445 -0.376323997974 0.004907 0.999987 0.000981
-0.699342191219 1.526640653610 -0.432858258486 0.026063 -0.989247 -0.143911
-0.678936839104 1.529615283012 -0.508788108826 0.028066 -0.998944 -0.036382
-0.721977472305 1.528311252594 -0.505938470364 0.028064 -0.998866 -0.038458
-0.717557966709 1.535833477974 -0.514953553677 -0.064308 0.613065 -0.787410
-0.686293959618 1.554005861282 -0.494870573282 -0.054349 0.854252 -0.517011
-0.690349340439 1.611933469772 -0.399866849184 0.004907 0.999987 -0.000981
-0.711218595505 1.664616465569 -0.421964049339 0.914682 -0.192640 0.355313
-0.723139226437 1.639891862869 -0.344854533672 -0.004151 -0.712614 -0.701544
-0.676313102245 1.748788475990 -0.409466952085 0.679256 -0.104614 -0.726407
-0.634541392326 1.748859882355 -0.375514328480 0.541071 -0.205759 -0.815417
-0.601705491543 1.861450552940 -0.391052752733 0.273352 -0.270490 -0.923100
-0.561067819595 1.854349851608 -0.380713105202 0.110909 -0.270095 -0.956424
-0.452474892139 1.969001889229 -0.403748095036 0.027889 -0.246149 -0.968831
-0.489319086075 1.955836176872 -0.401416748762 0.027889 -0.246149 -0.968831
-0.480630546808 1.831947684288 -0.369557887316 0.027889 -0.246149 -0.968831
-0.268188983202 1.941982150078 -0.392465442419 0.020473 -0.244468 -0.969441
-0.289819985628 1.952124595642 -0.395490378141 0.020473 -0.244468 -0.969441
-0.375875055790 1.956163406372 -0.398392051458 0.020473 -0.244468 -0.969441
-0.396873712540 1.792941689491 -0.358075082302 0.001173 -0.224003 -0.974588
-0.288770139217 1.880531549454 -0.378094881773 0.001173 -0.224003 -0.974588
-0.228810921311 1.881087422371 -0.378142267466 0.001173 -0.224003 -0.974588
-0.206133410335 1.970640540123 -0.398728817701 0.001173 -0.224003 -0.974588
0.007377095520 1.872993111610 -0.376444339752 -0.001168 -0.220763 -0.975327
-0.263065665960 1.753735303879 -0.349145948887 -0.001168 -0.220763 -0.975327
-0.331341683865 1.751700401306 -0.348604917526 -0.001168 -0.220763 -0.975327
-0.208956301212 1.761856317520 -0.351047009230 -0.001168 -0.220763 -0.975327
-0.081310696900 1.872422695160 -0.376210570335 -0.001168 -0.220763 -0.975327
-0.316421359777 1.616129994392 -0.317953288555 -0.001168 -0.220763 -0.975327
-0.054860170931 1.743136405945 -0.346994102001 -0.001168 -0.220763 -0.975327
-0.139602214098 1.630517601967 -0.321416914463 -0.001168 -0.220763 -0.975327
-0.240501835942 1.636812210083 -0.322721749544 -0.001168 -0.220763 -0.975327
-0.407528430223 1.663021564484 -0.328453660011 -0.001168 -0.220763 -0.975327
-0.061943165958 1.948009014130 -0.393332868814 -0.001168 -0.220763 -0.975327
-0.320729792118 1.772246360779 -0.353265434504 -0.001168 -0.220763 -0.975327
0.371601700783 1.631083488464 -0.322148829699 -0.001168 -0.220763 -0.975327
0.181560158730 1.856832146645 -0.372994124889 -0.001168 -0.220763 -0.975327
0.076499849558 1.882864952087 -0.378759264946 -0.001168 -0.220763 -0.975327
0.302569359541 1.626240134239 -0.320971578360 -0.001168 -0.220763 -0.975327
0.183143556118 1.672392368317 -0.331271290779 -0.001168 -0.220763 -0.975327
0.138935625553 1.622466206551 -0.319924533367 -0.001168 -0.220763 -0.975327
0.126033544540 1.783110260963 -0.356250822544 -0.001168 -0.220763 -0.975327
0.182511433959 1.754860281944 -0.349926739931 -0.001168 -0.220763 -0.975327
0.116875827312 1.809619307518 -0.362237036228 -0.001168 -0.220763 -0.975327
0.092149913311 1.749832510948 -0.348682582378 -0.001168 -0.220763 -0.975327
0.407419055700 1.628760337830 -0.321665585041 -0.001168 -0.220763 -0.975327
0.035560987890 1.641572713852 -0.324124753475 -0.001168 -0.220763 -0.975327
0.156335026026 1.920161128044 -0.387351274490 -0.003526 -0.224515 -0.974464
0.248651951551 1.913381695747 -0.386136531830 -0.003526 -0.224515 -0.974464
0.178200423717 1.984405040741 -0.402221649885 -0.003526 -0.224515 -0.974464
0.401975512505 1.790434241295 -0.358409374952 -0.003526 -0.224515 -0.974464
0.384371340275 1.951698184013 -0.397863775492 -0.022947 -0.242756 -0.969816
0.310191154480 1.917699813843 -0.387500792742 -0.022947 -0.242756 -0.969816
0.316364318132 1.945545196533 -0.394648760557 -0.022947 -0.242756 -0.969816
0.445040941238 1.965089678764 -0.402967333794 -0.030383 -0.246711 -0.968613
0.539021253586 1.796787381172 -0.362942099571 -0.030383 -0.246711 -0.968613
0.563747525215 1.858083486557 -0.380831867456 -0.113565 -0.267595 -0.956816
0.603238582611 1.832331776619 -0.379218816757 -0.172896 -0.273639 -0.946165
0.616253018379 1.908694982529 -0.404077500105 -0.219218 -0.272278 -0.936914
0.688794195652 1.810544013977 -0.412676036358 -0.543892 -0.199579 -0.815076
0.714357197285 1.712972879410 -0.419074892998 -0.679793 -0.098372 -0.726777
0.634550690651 1.618970394135 -0.330771476030 -0.004151 -0.712614 -0.701544
0.775066614151 1.616524696350 -0.336795359850 -0.917072 -0.183414 0.354032
0.749558448792 1.604415416718 -0.396670281887 0.004907 0.999987 -0.000981
0.653599441051 1.604916095734 -0.395750969648 0.004907 0.999987 0.000981
0.741780936718 1.505278587341 -0.316164046526 -0.005420 -0.993974 -0.109478
0.699096977711 1.498798131943 -0.293453127146 -0.006181 -0.950625 -0.310282
0.762118697166 1.474720954895 -0.240075677633 -0.003895 -0.910182 -0.414191
0.562277972698 1.411446809769 -0.268955051899 0.999987 -0.004907 -0.000981
0.561661243439 1.293372750282 -0.254995107651 0.999987 -0.004907 -0.000981
0.682908773422 1.456027269363 -0.209982082248 -0.004052 -0.844099 -0.536172
0.733652710915 1.472756147385 -0.236736491323 -0.004052 -0.844099 -0.536172
0.760742127895 1.425622701645 -0.173746392131 -0.004133 -0.637872 -0.770131
0.689957737923 1.519609332085 -0.427494525909 -0.037731 -0.989015 -0.142921
0.784722089767 1.551648616791 -0.440915852785 0.828614 0.551929 -0.093669
0.620662689209 1.591402411461 -0.444063603878 0.025093 0.225836 -0.973842
0.781696557999 1.515402078629 -0.377996593714 0.190407 -0.962540 -0.193033
0.737465858459 1.525173664093 -0.515764355659 0.026500 0.615076 -0.788022
0.560033857822 0.981814324856 -0.317466467619 0.999987 -0.004907 -0.000981
0.559685230255 0.914755403996 -0.288459777832 0.999987 -0.004907 -0.000981
0.560038387775 0.982365071774 -0.196456223726 0.999987 -0.004907 0.000981
0.560225844383 1.017925262451 -0.136138573289 0.999987 -0.004907 -0.000981
0.560662329197 1.102046012878 -0.216290384531 0.999987 -0.004907 -0.000981
0.560633599758 1.096744775772 -0.280149310827 0.999987 -0.004907 -0.000981
0.561308026314 1.225522041321 -0.166772782803 0.999987 -0.004907 -0.000981
0.561158895493 1.197117328644 -0.223000138998 0.999987 -0.004907 0.000981
-0.117400214076 0.810851335526 -0.533207535744 -0.000985 -0.008867 -0.999960
0.004743726924 0.725637495518 -0.532481491566 -0.000985 -0.008867 -0.999960
-0.237653031945 0.823742210865 -0.533312857151 -0.000985 -0.008867 -0.999960
-0.673250377178 -0.779824018478 0.233143776655 -0.431660 -0.428426 0.793801
-0.575104236603 -0.702993869781 0.315120756626 -0.254750 -0.492517 0.832184
-0.571778118610 -0.804187476635 0.259871542454 -0.310961 -0.457847 0.832875
-0.556336760521 -0.724045276642 0.309691399336 -0.310961 -0.457847 0.832875
-0.517230391502 -0.692392349243 0.337684959173 -0.176732 -0.494554 0.850989
-0.449301391840 -0.873113095760 0.244499519467 -0.157810 -0.505878 0.848047
-0.490260928869 -0.935886800289 0.199431851506 -0.157810 -0.505878 0.848047
-0.363877922297 -0.839504897594 0.277568697929 -0.126312 -0.512508 0.849341
-0.382200151682 -0.954593718052 0.205469101667 -0.126312 -0.512508 0.849341
-0.400670021772 -0.774277269840 0.311378955841 -0.126312 -0.512508 0.849341
-0.310501247644 -0.762803792953 0.330013513565 -0.107512 -0.506022 0.855794
-0.266253322363 -0.906623184681 0.250799864531 -0.107512 -0.506022 0.855794
-0.245348393917 -0.898808121681 0.257286667824 -0.034247 -0.510967 0.858918
-0.183021992445 -0.743402481079 0.352337419987 -0.034247 -0.510967 0.858918
-0.088936433196 -0.741352975368 0.357230037451 -0.034247 -0.510967 0.858918
-0.243634983897 -0.951369464397 0.226027980447 -0.034247 -0.510967 0.858918
-0.009474512190 -0.885457575321 0.273481220007 -0.028692 -0.515087 0.856657
-0.113738298416 -0.919350087643 0.249656915665 -0.028692 -0.515087 0.856657
-0.129907533526 -0.967932403088 0.219865873456 -0.028692 -0.515087 0.856657
-0.004524618387 -0.920190036297 0.252723038197 -0.028692 -0.515087 0.856657
0.053413655609 -0.772313833237 0.340095460415 0.028692 -0.515087 0.856657
0.071535348892 -0.892521500587 0.267053872347 0.028692 -0.515087 0.856657
0.078153997660 -0.734045445919 0.362343698740 0.028692 -0.515087 0.856657
0.007650163490 -0.948150753975 0.235632002354 0.028692 -0.515087 0.856657
0.057301387191 -0.936479210854 0.241092950106 0.023122 -0.512757 0.858222
0.167785644531 -0.964221835136 0.221638932824 0.023122 -0.512757 0.858222
0.100327536464 -0.963809788227 0.223653256893 0.023122 -0.512757 0.858222
0.185829460621 -0.842664957047 0.293714940548 0.023122 -0.512757 0.858222
0.298668503761 -0.959433436394 0.215951189399 0.119758 -0.503560 0.855620
0.294269979000 -0.832556843758 0.291234135628 0.119758 -0.503560 0.855620
0.258565068245 -0.766489803791 0.335132896900 0.119758 -0.503560 0.855620
0.278973996639 -0.729824900627 0.354512304068 0.101739 -0.517294 0.849738
0.415239036083 -0.892182469368 0.239471852779 0.101739 -0.517294 0.849738
0.389410257339 -0.732042610645 0.339897811413 0.101739 -0.517294 0.849738
0.461981832981 -0.741118013859 0.322445809841 0.171070 -0.504284 0.846424
0.481892019510 -0.800215840340 0.283233642578 0.171070 -0.504284 0.846424
0.515999376774 -0.863407850266 0.239671200514 0.151136 -0.500362 0.852523
0.544679701328 -0.882756412029 0.223231524229 0.151136 -0.500362 0.852523
0.541042804718 -0.662011504173 0.352714717388 0.243365 -0.479078 0.843361
0.614324033260 -0.756758570671 0.276221871376 0.312722 -0.476154 0.821877
0.650364458561 -0.718357145786 0.284695565701 0.313189 -0.473719 0.823106
0.661015868187 -0.766422748566 0.251224100590 0.562676 -0.404269 0.721084
0.618815124035 -0.582802951336 0.374720901251 0.312380 -0.472494 0.824117
0.598724126816 -0.492421895266 0.433919906616 0.308741 -0.471732 0.825922
0.514905393124 -0.481669902802 0.466258049011 0.234131 -0.448625 0.862507
0.575715184212 -0.511664390564 0.430965960026 0.247683 -0.490751 0.835354
0.498747527599 -0.583968758583 0.409266054630 0.174570 -0.508788 0.843007
0.426219612360 -0.577706873417 0.426582932472 0.148048 -0.502777 0.851643
0.441605031490 -0.564102649689 0.431943476200 0.148048 -0.502777 0.851643
0.455480933189 -0.481924772263 0.476609438658 0.139877 -0.462890 0.875310
0.413412451744 -0.461786091328 0.494077265263 0.149851 -0.467010 0.871462
0.325077414513 -0.297392278910 0.592876315117 0.114388 -0.444843 0.888274
0.334667801857 -0.346786201000 0.566944420338 0.117468 -0.440150 0.890207
0.234184160829 -0.395463109016 0.555292725563 0.118599 -0.472968 0.873061
0.373195320368 -0.517939984798 0.469393193722 0.086300 -0.505067 0.858755
0.247304573655 -0.507177829742 0.488298773766 0.086300 -0.505067 0.858755
0.357809692621 -0.613117277622 0.414058923721 0.086470 -0.511735 0.854781
0.319167196751 -0.574664533138 0.440957605839 0.086470 -0.511735 0.854781
0.265171140432 -0.652246713638 0.401537775993 0.101382 -0.498342 0.861032
0.315879404545 -0.630310595036 0.408357352018 0.101382 -0.498342 0.861032
0.168388158083 -0.650806605816 0.408240973949 0.028610 -0.505443 0.862386
0.150032341480 -0.623654782772 0.424700260162 0.028610 -0.505443 0.862386
0.036024559289 -0.572064995766 0.459544807673 0.034295 -0.508938 0.860120
0.079286068678 -0.578876495361 0.453811466694 0.034295 -0.508938 0.860120
0.102357834578 -0.617138624191 0.430240243673 0.034295 -0.508938 0.860120
0.122730419040 -0.518365800381 0.487938106060 0.034295 -0.508938 0.860120
0.203437030315 -0.461912691593 0.518180131912 0.034295 -0.508938 0.860120
0.144502177835 -0.399175345898 0.557560801506 0.031480 -0.507785 0.860908
0.091893933713 -0.433985710144 0.539017736912 0.031480 -0.507785 0.860908
0.188856691122 -0.359701126814 0.576960325241 0.030837 -0.446465 0.894270
0.057762116194 -0.374639570713 0.574015021324 0.030837 -0.446465 0.894270
0.120708346367 -0.315377414227 0.601257562637 0.022526 -0.435935 0.899696
-0.072311513126 -0.362972080708 0.578517377377 -0.036103 -0.434578 0.899910
-0.076004639268 -0.290317058563 0.614033699036 -0.028090 -0.445431 0.894875
-0.223803728819 -0.312727034092 0.596895813942 -0.117468 -0.440150 0.890207
-0.336570084095 -0.335672020912 0.570347011089 -0.120410 -0.443393 0.888203
-0.437061429024 -0.333400279284 0.555638790131 -0.151197 -0.439190 0.885580
-0.474955856800 -0.313814789057 0.557885289192 -0.161676 -0.404906 0.899951
-0.502889692783 -0.375465661287 0.520638048649 -0.236385 -0.441152 0.865741
-0.475043207407 -0.373684138060 0.528127849102 -0.155557 -0.460856 0.873736
-0.390704959631 -0.398277074099 0.529813051224 -0.143594 -0.468494 0.871719
-0.348401039839 -0.442815214396 0.510490059853 -0.088477 -0.476088 0.874935
-0.338351249695 -0.394690155983 0.538047015667 -0.126117 -0.500118 0.856724
-0.044066231698 -0.394261360168 0.563948988914 -0.037035 -0.508889 0.860035
-0.056798901409 -0.405528128147 0.556721210480 -0.037035 -0.508889 0.860035
-0.163772106171 -0.536518573761 0.474577277899 -0.039830 -0.506798 0.861144
-0.021135212854 -0.457679182291 0.527544319630 -0.039830 -0.506798 0.861144
-0.204217180610 -0.577911555767 0.448598802090 -0.039791 -0.503557 0.863045
-0.136972904205 -0.551337420940 0.467134445906 -0.039791 -0.503557 0.863045
-0.107249110937 -0.557087302208 0.465120136738 -0.039791 -0.503557 0.863045
-0.231995448470 -0.717049360275 0.366131663322 -0.034295 -0.508938 0.860120
-0.034718856215 -0.583349347115 0.452949166298 -0.034295 -0.508938 0.860120
-0.243217676878 -0.584781289101 0.442030608654 -0.089362 -0.500708 0.860991
-0.342957407236 -0.664917707443 0.383848398924 -0.107619 -0.509396 0.853776
-0.400351911783 -0.647516012192 0.387037992477 -0.107619 -0.509396 0.853776
-0.525930047035 -0.659759223461 0.354859799147 -0.177180 -0.495806 0.850167
-0.526051461697 -0.626785814762 0.374589592218 -0.155241 -0.513034 0.844214
-0.550378024578 -0.569232821465 0.401361018419 -0.254481 -0.488912 0.834389
-0.527526855469 -0.481730312109 0.459608435631 -0.254481 -0.488912 0.834389
-0.699303567410 0.976790726185 0.276294946671 -0.943832 0.003740 0.330404
-0.698464453220 0.913511455059 0.279432654381 -0.943832 0.003740 0.330404
-0.694057404995 1.108837842941 0.288807094097 -0.938584 0.011369 0.344863
-0.664637207985 0.959589779377 0.372281432152 -0.903878 0.006540 0.427740
-0.628653764725 0.994415700436 0.447887629271 -0.903878 0.006540 0.427740
-0.622655093670 0.882079780102 0.461693704128 -0.874641 0.006677 0.484725
-0.577766656876 0.882869720459 0.541146576405 -0.853906 0.004034 0.520412
0.612479567528 0.939468860626 0.506521344185 0.876393 -0.006670 0.481550
0.635673940182 0.994233548641 0.465192049742 0.872392 -0.001332 0.488806
0.658676922321 0.909847855568 0.417449891567 0.904847 -0.001302 0.425734
0.674225032330 1.054688334465 0.385124325752 0.904847 -0.001302 0.425734
0.687448978424 1.026765465736 0.354504495859 0.928213 0.001270 0.372047
0.688705384731 0.924911260605 0.350931555033 0.948873 -0.011222 0.315460
0.726491510868 0.879196703434 0.241571575403 0.943547 -0.006249 0.331179
0.718189954758 0.976274192333 0.267086386681 0.943547 -0.006249 0.331179
-0.571638226509 0.463804215193 0.559304773808 -0.833075 0.006795 0.553118
-0.568756699562 0.546577453613 0.562909483910 -0.838034 0.004062 0.545602
-0.537769675255 0.604872405529 0.607958555222 -0.837662 0.048945 0.543991
-0.546288728714 0.763634324074 0.590233564377 -0.806665 0.001365 0.591008
-0.604920864105 0.713416099548 0.497893869877 -0.870868 0.014806 0.491293
-0.606765747070 0.696450293064 0.495433151722 -0.862069 0.020364 0.506381
-0.654867053032 0.812140583992 0.396229863167 -0.906763 0.022438 0.421044
-0.655239343643 0.584274232388 0.407780021429 -0.908692 0.022356 0.416868
-0.643152594566 0.617357730865 0.432325780392 -0.908692 0.022356 0.416868
-0.704656243324 0.788957774639 0.265050202608 -0.944997 0.026638 0.325992
-0.688867628574 0.752125382423 0.313657492399 -0.944997 0.026638 0.325992
-0.715657353401 0.596581041813 0.241272628307 -0.952227 0.016182 0.304962
-0.711472630501 0.611461937428 0.253547996283 -0.952227 0.016182 0.304962
-0.694359481335 0.500535786152 0.310287624598 -0.951597 0.003703 0.307325
-0.682687819004 0.346226453781 0.347451329231 -0.950879 0.001233 0.309560
-0.697557866573 0.325242519379 0.302017420530 -0.950879 0.001233 0.309560
-0.647157728672 0.522097647190 0.425851911306 -0.907768 -0.001299 0.419470
-0.677062690258 0.440458714962 0.360584735870 -0.907768 -0.001299 0.419470
-0.637432157993 0.431775480509 0.447336047888 -0.911072 0.001292 0.412244
-0.626426935196 0.428822636604 0.467145681381 -0.861485 -0.001340 0.507781
-0.627316534519 0.433190643787 0.465642601252 -0.861485 -0.001340 0.507781
-0.604743838310 0.393033236265 0.505212724209 -0.871091 0.006690 0.491076
0.589665651321 0.492144227028 0.547740101814 0.833922 -0.001356 0.551880
0.604594588280 0.424528211355 0.523183465004 0.861485 -0.001340 0.507781
0.644203007221 0.541878640652 0.456154495478 0.870425 -0.009388 0.492212
0.656929135323 0.556910395622 0.429447829723 0.908265 -0.009122 0.418297
0.665650725365 0.554098904133 0.410466551781 0.908265 -0.009122 0.418297
0.681234180927 0.512158393860 0.375768363476 0.910660 -0.011725 0.412989
0.694489121437 0.528561770916 0.343383610249 0.952305 -0.006176 0.305084
0.695524811745 0.437584042549 0.337988555431 0.952305 -0.006176 0.305084
0.721978127956 0.484387874603 0.256940811872 0.950625 -0.006181 0.310282
0.725664436817 0.590409636497 0.244930550456 0.952227 0.016182 0.304962
0.705523192883 0.620279014111 0.306183397770 0.952227 0.016182 0.304962
0.650188028812 0.809739172459 0.436053991318 0.907321 0.011783 0.420274
0.663721263409 0.691366910934 0.410493880510 0.908744 0.014383 0.417107
0.643270671368 0.804393827915 0.451194763184 0.908744 0.014383 0.417107
0.635530173779 0.721302628517 0.467906147242 0.871548 0.012086 0.490162
0.598458409309 0.749103069305 0.531853914261 0.861949 0.006723 0.506950
0.639181554317 0.582548320293 0.464816302061 0.861949 0.006723 0.506950
0.579091966152 0.719623088837 0.562434375286 0.836399 0.006800 0.548079
0.560761392117 0.415113151073 0.590497016907 0.838455 -0.006795 0.544928
0.690347909927 0.810940325260 0.343729496002 0.944608 0.003743 0.328180
0.718803346157 0.645923018456 0.263869196177 0.944608 0.003743 0.328180
-0.561173319817 0.251175999641 0.577360033989 -0.841304 0.004064 0.540548
-0.588599205017 0.204155936837 0.534604668617 -0.846861 -0.001346 0.531813
-0.590619087219 0.223396733403 0.531047224998 -0.869469 0.001331 0.493986
-0.631977915764 0.035572752357 0.458549320698 -0.867668 -0.001333 0.497143
-0.657044529915 -0.002879500389 0.406047582626 -0.916180 0.003866 0.400748
-0.680213034153 0.001394569874 0.353180140257 -0.911072 -0.001292 0.412244
-0.689252316952 -0.013831511140 0.331122308969 -0.955534 0.003670 0.294858
-0.726547122002 0.032195538282 0.213038399816 -0.950386 -0.006195 0.311013
-0.712616443634 0.050958484411 0.255949556828 -0.950386 -0.006195 0.311013
-0.721321642399 -0.178359925747 0.223289847374 -0.953663 -0.013606 0.300571
-0.718232989311 -0.119285374880 0.235782817006 -0.953663 -0.013606 0.300571
-0.701095044613 -0.332648098469 0.284229457378 -0.958645 -0.006106 0.284540
-0.718012154102 -0.328648149967 0.227454796433 -0.958645 -0.006106 0.284540
-0.722929537296 -0.422490835190 0.207206234336 -0.957057 -0.016013 0.289457
-0.705423891544 -0.474675476551 0.261889278889 -0.955908 -0.018549 0.293079
-0.661979794502 -0.303838014603 0.387387782335 -0.913474 -0.019602 0.406424
-0.663645327091 -0.207260236144 0.386190593243 -0.914870 -0.011679 0.403581
-0.671596229076 -0.063928082585 0.372239798307 -0.914445 -0.011707 0.404541
-0.628998279572 -0.083081528544 0.461307793856 -0.867195 -0.017533 0.497660
-0.623597145081 -0.236518591642 0.467816740274 -0.886089 -0.001321 0.463513
-0.610687375069 -0.266656905413 0.491999149323 -0.883069 -0.017367 0.468922
0.588683545589 0.037257850170 0.543398499489 0.851975 -0.004038 0.523567
0.568090021610 0.038453519344 0.576104879379 0.844909 -0.014966 0.534701
0.574662864208 -0.084183499217 0.563542842865 0.842523 -0.006784 0.538618
0.596533179283 -0.043913438916 0.529190003872 0.870868 -0.014806 0.491293
0.614836513996 -0.154965907335 0.493846327066 0.867900 -0.014801 0.496519
0.629978716373 -0.262764453888 0.461174577475 0.882903 -0.022845 0.469000
0.674491405487 -0.435368776321 0.355813741684 0.916671 -0.030249 0.398496
0.695746958256 -0.467453181744 0.296200901270 0.956643 -0.028612 0.289854
0.717663943768 -0.482438921928 0.222794204950 0.955801 -0.026169 0.292847
0.725394368172 -0.288135558367 0.214280232787 0.957185 -0.023527 0.288518
0.724580109119 -0.234530493617 0.221295416355 0.957185 -0.023527 0.288518
0.706767380238 -0.159586325288 0.284893602133 0.954072 -0.018610 0.299000
0.691654562950 -0.283262759447 0.325998902321 0.954072 -0.018610 0.299000
0.651067078114 -0.271323084831 0.419449627399 0.915358 -0.022262 0.402024
0.671084523201 -0.236673012376 0.375760227442 0.915358 -0.022262 0.402024
0.649218261242 -0.275769621134 0.423415780067 0.914443 -0.019623 0.404239
0.652385771275 -0.099726483226 0.425039768219 0.914443 -0.019623 0.404239
0.651838958263 0.000621583313 0.430702686310 0.914870 -0.011679 0.403581
0.671901047230 -0.028895214200 0.384266465902 0.914870 -0.011679 0.403581
0.707110583782 0.154651790857 0.297217994928 0.951098 -0.008680 0.308766
0.704057872295 0.124272137880 0.305827051401 0.951098 -0.008680 0.308766
0.705860197544 -0.022832170129 0.295538216829 0.954334 -0.016091 0.298307
0.670713007450 0.115705274045 0.390498459339 0.911587 -0.006484 0.411057
0.659885048866 0.064453244209 0.413807064295 0.911587 -0.006484 0.411057
0.622876942158 0.031180998310 0.484815180302 0.869274 -0.009376 0.494241
0.604366540909 0.199452966452 0.520278096199 0.867461 -0.009385 0.497416
0.595429718494 0.184995740652 0.535484731197 0.840478 -0.009505 0.541762
-0.574877977371 1.447359561920 0.347642719746 -0.356963 0.528176 0.770459
-0.505859613419 1.440756201744 0.385693222284 -0.380190 0.533571 0.755485
-0.505840003490 1.233466744423 0.517157971859 -0.358672 0.467071 0.808208
-0.414349198341 1.163930773735 0.586835265160 -0.183304 0.441395 0.878391
-0.349908858538 1.205385923386 0.579592227936 -0.187098 0.443437 0.876561
-0.313417702913 1.239033937454 0.567759275436 -0.079159 0.454123 0.887415
-0.250045627356 1.155643105507 0.616317689419 -0.082016 0.457346 0.885499
-0.170377612114 1.169801712036 0.615106165409 -0.020043 0.458313 0.888565
-0.067424960434 1.140406370163 0.633529543877 -0.028320 0.467948 0.883302
0.051149357110 1.163985848427 0.622245848179 0.025531 0.468970 0.882845
0.101451210678 1.182065844536 0.611125111580 0.033674 0.459309 0.887638
0.220583647490 1.202483177185 0.595415830612 0.084885 0.455037 0.886418
0.295062363148 1.193364024162 0.593047857285 0.084992 0.452826 0.887539
0.434648513794 1.200450062752 0.565861821175 0.190186 0.440819 0.877216
0.391524791718 1.119923591614 0.615535318851 0.192777 0.437058 0.878531
0.488218516111 1.197303175926 0.550672769547 0.341162 0.403474 0.849010
0.546978473663 1.191586375237 0.525660693645 0.497483 0.402880 0.768244
0.565314114094 1.289901018143 0.460423618555 0.511771 0.432784 0.742151
0.612971603870 1.331620693207 0.404182553291 0.487636 0.435096 0.756903
0.590617299080 1.477360844612 0.325754612684 0.368373 0.533898 0.761088
0.450193226337 1.504010319710 0.362100780010 0.217675 0.578922 0.785791
0.408871859312 1.548100471497 0.340755075216 0.214866 0.582766 0.783720
0.357334613800 1.465887665749 0.413191199303 0.106894 0.593042 0.798044
0.335325181484 1.554025411606 0.350458294153 0.106894 0.593042 0.798044
0.225337445736 1.555164933205 0.364985793829 0.112874 0.590757 0.798915
0.216915562749 1.491886854172 0.412650614977 0.023623 0.593365 0.804587
0.195000633597 1.555082321167 0.366843253374 0.023623 0.593365 0.804587
0.103958100080 1.546346426010 0.376075446606 0.040622 0.575712 0.816643
0.032839771360 1.515776395798 0.401170104742 0.040622 0.575712 0.816643
-0.085562594235 1.525445461273 0.393257349730 -0.017901 0.576969 0.816570
-0.123221993446 1.520993471146 0.395541638136 -0.017901 0.576969 0.816570
-0.120638616383 1.424631476402 0.462793469429 -0.017905 0.568832 0.822259
-0.136462330818 1.427316904068 0.460575699806 -0.017905 0.568832 0.822259
-0.015137031674 1.461507916451 0.439750820398 -0.023534 0.574511 0.818159
-0.115165673196 1.306350111961 0.541030645370 -0.023227 0.528750 0.848460
-0.046336181462 1.327597737312 0.529538571835 -0.020477 0.525586 0.850494
0.076152376831 1.296923279762 0.547630786896 0.028771 0.524721 0.850788
0.019704816863 1.358727455139 0.511295974255 0.028771 0.524721 0.850788
0.188806861639 1.349086761475 0.511776030064 0.026056 0.527969 0.848864
0.212147548795 1.290439605713 0.547385275364 0.098995 0.520802 0.847918
0.244597524405 1.269309878349 0.556707084179 0.092972 0.530657 0.842472
0.445959180593 1.266338706017 0.524963736534 0.203874 0.505909 0.838148
0.554763615131 1.335595369339 0.437271714211 0.376464 0.499259 0.780395
0.496041923761 1.390608787537 0.430341422558 0.377415 0.500520 0.779126
0.459401845932 1.364056825638 0.458460092545 0.206260 0.551555 0.808235
0.404030472040 1.419909000397 0.434763610363 0.209887 0.546932 0.810440
0.296418160200 1.407433986664 0.461345463991 0.103199 0.565415 0.818325
0.318894296885 1.363820791245 0.488618701696 0.103199 0.565415 0.818325
0.234273850918 1.391603589058 0.480210274458 0.106074 0.565243 0.818076
0.158320054412 1.429569721222 0.458243727684 0.029093 0.569401 0.821545
0.082125425339 1.376641035080 0.497576832771 0.029093 0.569401 0.821545
0.064366810024 1.416681885719 0.470328718424 0.023534 0.574511 0.818159
0.035559859127 1.459366202354 0.441224008799 0.023534 0.574511 0.818159
-0.293794006109 1.249958515167 0.563528597355 -0.086717 0.521726 0.848694
-0.318813621998 1.307993769646 0.524563372135 -0.092972 0.530657 0.842472
-0.197622895241 1.399460792542 0.478411376476 -0.097051 0.566372 0.818415
-0.331898242235 1.362183451653 0.488071143627 -0.099920 0.566211 0.818182
-0.289017885923 1.480864644051 0.410817265511 -0.100627 0.590636 0.800640
-0.091075122356 1.614670276642 0.328405141830 -0.035001 0.592215 0.805020
-0.135559469461 1.574981093407 0.355702012777 -0.035001 0.592215 0.805020
-0.288536489010 1.594061613083 0.326700657606 -0.106708 0.594936 0.796659
-0.348709315062 1.561011433601 0.343349605799 -0.106708 0.594936 0.796659
-0.443758755922 1.467734813690 0.388328552246 -0.211021 0.583774 0.784014
-0.404914528131 1.441957235336 0.417349308729 -0.203332 0.551901 0.808741
-0.409685701132 1.253272771835 0.539388477802 -0.198157 0.515813 0.833469
-0.475321471691 1.499939203262 0.356026113033 -0.207573 0.582741 0.785701
-0.547546684742 1.269888401031 0.474861085415 -0.505118 0.429433 0.748628
-0.568968832493 1.322711467743 0.429704666138 -0.489142 0.446321 0.749358
0.697059154510 -1.790549874306 -0.007668615319 0.723980 -0.379228 0.576229
0.658423900604 -1.828772306442 -0.003379620146 0.505795 -0.562928 0.653669
0.517853796482 -1.902020931244 -0.021657172590 0.139731 -0.695648 0.704663
0.506528258324 -1.923066496849 -0.049357492477 0.194156 -0.907499 0.372491
-0.673979699612 -1.866135478020 -0.092396035790 -0.597313 -0.800653 0.046599
-0.485815078020 -1.925325155258 -0.048804413527 -0.204029 -0.904386 0.374777
-0.361704617739 -1.960751056671 -0.105725795031 -0.102100 -0.960257 0.259773
0.740429103374 1.880957841873 0.035371582955 0.864915 0.492817 0.095155
0.691977143288 1.914542198181 0.117074929178 0.495212 0.808477 0.318011
0.543479740620 1.973158597946 0.078279182315 0.129161 0.983798 0.124333
0.472398817539 1.983525276184 0.025913434103 -0.049892 0.994506 0.092022
0.686731338501 1.933839917183 0.005359850824 0.501755 0.863130 -0.056986
0.575867414474 1.969987034798 -0.008332891390 0.217345 0.973756 -0.067537
-0.570407629013 1.966330647469 0.096494823694 -0.160429 0.963879 0.212601
-0.745536625385 1.804256320000 0.014693686739 -0.996118 0.085074 0.022615
-0.746265292168 1.797673344612 0.030310647562 -0.989830 0.141723 -0.012275
-0.684381425381 1.903975248337 0.116387285292 -0.686955 0.657861 0.308726
-0.679922103882 1.928158283234 0.004410155118 -0.661088 0.747504 -0.064813
-0.494321197271 1.983714342117 -0.025489769876 -0.074787 0.994557 -0.072555
0.759260296822 -0.919139385223 -0.422565311193 -0.000983 -0.006883 0.999976
0.787800252438 -0.905768752098 -0.463272869587 0.999917 -0.012857 0.000989
0.755577087402 -0.932339906693 -0.526806235313 -0.004955 -0.999948 -0.008919
0.594429373741 -0.930230796337 -0.643941760063 -0.004965 -0.999928 -0.010923
0.667247056961 -0.924669086933 -0.644487857819 0.001141 0.186011 -0.982547
0.635488867760 -0.881549239159 -0.636418044567 -0.001137 0.180786 -0.983522
0.752199172974 -0.863058447838 -0.633174717426 -0.001131 0.173011 -0.984919
0.590913951397 -0.807525992393 -0.623564124107 0.001127 0.167869 -0.985809
0.755660593510 -0.750057220459 -0.614761948586 0.001108 0.145143 -0.989410
0.627614378929 -0.749266266823 -0.614941477776 0.003312 0.138019 -0.990424
0.756999969482 -0.677199423313 -0.605877578259 0.003238 0.109009 -0.994035
0.676342666149 -0.680646777153 -0.606550693512 0.005387 0.104515 -0.994509
0.733540952206 -0.628787696362 -0.601264774799 0.005295 0.083658 -0.996481
0.697902619839 -0.576298117638 -0.597150444984 0.007400 0.079281 -0.996825
0.752590954304 -0.486451625824 -0.591356933117 0.007257 0.057019 -0.998347
0.738103508949 -0.523396134377 -0.593558251858 0.007257 0.057019 -0.998347
0.602646470070 -0.447623759508 -0.590412199497 0.009331 0.054951 -0.998446
0.718099057674 -0.368672132492 -0.586072146893 0.009132 0.031455 -0.999463
0.692648530006 -0.258165866137 -0.582898795605 0.009133 0.029428 -0.999525
0.714848756790 -0.122547097504 -0.581239819527 0.008955 0.008955 -0.999920
0.693459033966 -0.231263920665 -0.582412183285 0.008955 0.008955 -0.999920
0.735129237175 -0.089486882091 -0.580752611160 0.008955 0.008955 -0.999920
0.745133578777 0.068826146424 -0.582918286324 0.009007 -0.017014 -0.999815
0.652940332890 -0.001381792128 -0.582632422447 0.009007 -0.017014 -0.999815
0.684834361076 0.089256033301 -0.583772063255 0.006992 -0.014983 -0.999863
0.622985661030 0.115955315530 -0.584669828415 0.006992 -0.014983 -0.999863
0.696674227715 0.186913505197 -0.586429953575 0.007215 -0.048445 -0.998800
0.662976801395 0.180970162153 -0.586399376392 0.007215 -0.048445 -0.998800
0.594944238663 0.336212962866 -0.594051837921 0.005123 -0.046104 -0.998923
0.606244683266 0.239556357265 -0.589517056942 0.005123 -0.046104 -0.998923
0.758977115154 0.544986963272 -0.611527621746 0.005336 -0.092843 -0.995666
0.706977367401 0.513703167439 -0.608728289604 -0.001059 -0.087863 -0.996132
0.679842770100 0.528645336628 -0.610041439533 -0.001059 -0.087863 -0.996132
0.710729479790 0.658929765224 -0.633317232132 -0.001145 -0.191268 -0.981537
0.711190760136 0.556864321232 -0.613458156586 -0.001145 -0.191268 -0.981537
0.611311912537 0.685773074627 -0.638439774513 -0.001145 -0.191268 -0.981537
0.629510998726 0.645149171352 -0.630553781986 -0.001145 -0.191268 -0.981537
0.693216025829 0.702926158905 -0.641860187054 -0.001145 -0.191268 -0.981537
0.718300759792 0.813969671726 -0.635968208313 0.005073 0.999356 -0.035510
0.773613750935 0.331052035093 -0.581550776958 0.888514 -0.022714 -0.458286
0.780087292194 -0.108463510871 -0.550957024097 0.984462 0.001133 -0.175594
0.780619502068 -0.241894274950 -0.547784209251 0.997710 0.001040 -0.067624
0.783182203770 -0.175269126892 -0.510319888592 0.997558 0.001042 -0.069839
0.781105279922 -0.581140279770 -0.487387955189 0.969816 0.022947 0.242756
0.776938974857 -0.611065030098 -0.461881637573 0.991947 0.018841 0.125240
0.773560404778 -0.427525073290 -0.462341010571 0.987615 0.019320 0.155700
0.774759054184 -0.567826807499 -0.437732279301 0.999339 0.023574 -0.027674
0.781811773777 0.144524663687 -0.539211213589 0.997543 -0.003134 -0.069985
0.781053721905 0.494638562202 -0.569982290268 0.972931 -0.017907 -0.230400
0.782783865929 0.520200610161 -0.562728941441 0.987361 -0.017004 -0.157570
0.784548759460 0.371390998363 -0.525448024273 0.996852 -0.015958 -0.077663
0.785012602806 0.290941268206 -0.510509669781 0.996811 -0.007415 -0.079448
0.780350208282 0.054924003780 -0.498815745115 0.948665 -0.006200 0.316222
0.769642710686 -0.244510844350 -0.430971503258 0.999802 0.013037 -0.015042
0.764506101608 -0.317258894444 -0.418551027775 -0.000983 -0.006883 0.999976
0.775675714016 -0.001402961090 -0.485827952623 0.943832 -0.003740 0.330404
0.778206169605 0.191867619753 -0.489426016808 0.943709 -0.013823 0.330487
0.784943163395 0.364493250847 -0.501827836037 0.952494 -0.013660 0.304252
0.786732375622 0.487004190683 -0.522111594677 0.995832 -0.018302 -0.089356
0.782504975796 0.818151891232 -0.539044976234 0.005184 0.998360 -0.057020
0.796441435814 0.809420168400 -0.533929526806 0.997601 -0.033076 -0.060816
0.775447487831 0.336461663246 -0.471219837666 0.985656 -0.017132 0.167893
0.769299745560 0.153416797519 -0.433608025312 0.999884 -0.002985 -0.014924
0.733178913593 0.250040411949 -0.414778858423 -0.000983 -0.006883 0.999976
0.766423404217 0.236668080091 -0.414866387844 -0.000983 -0.006883 0.999976
0.771979033947 0.302107512951 -0.435540527105 0.999368 -0.019475 -0.029725
0.777780234814 0.481686294079 -0.445028066635 0.998620 -0.042873 -0.030325
0.782346427441 0.542158544064 -0.472863107920 0.993280 -0.041247 0.108135
0.784455597401 0.596483051777 -0.472279816866 0.993398 -0.038935 0.107906
0.789333045483 0.728794634342 -0.424427181482 0.995704 -0.042720 -0.082154
0.757941842079 0.688568413258 -0.411874800920 -0.000983 -0.006883 0.999976
0.734068930149 0.095861114562 -0.415802180767 -0.000983 -0.006883 0.999976
0.788299620152 -0.840764820576 -0.481590211391 0.999999 -0.000979 0.000979
0.784721851349 -0.875482857227 -0.548171639442 0.993394 -0.007633 -0.114497
0.760274112225 -0.928372144699 -0.643409192562 0.543818 0.159421 -0.823922
0.760190904140 -0.792752325535 -0.619163930416 0.452133 0.126940 -0.882872
0.765170693398 -0.844167828560 -0.624702513218 0.878334 0.076558 -0.471878
0.759444773197 -0.681340932846 -0.605038881302 0.488383 0.092014 -0.867765
0.783312976360 -0.629806578159 -0.521241128445 0.998248 0.003110 -0.059086
0.786803007126 -0.781379997730 -0.513855516911 0.998267 0.028402 -0.051544
0.768435597420 -0.591086566448 -0.591748714447 0.875645 0.031225 -0.481944
0.775133311749 -0.353546321392 -0.572637081146 0.959696 0.006082 -0.280976
-0.800565600395 -0.835854351521 -0.545908749104 -0.988750 0.021470 -0.148030
-0.792799234390 -0.869887888432 -0.593437194824 -0.956431 0.028680 -0.290546
-0.776011228561 -0.891737937927 -0.641512453556 -0.854037 0.104781 -0.509551
-0.659892916679 -0.830048620701 -0.636756062508 0.003400 0.173396 -0.984846
-0.556832253933 -0.789011955261 -0.629621148109 0.001127 0.167869 -0.985809
-0.687231242657 -0.723820805550 -0.620251536369 -0.001104 0.138020 -0.990429
-0.772154510021 0.002975512063 -0.583586633205 -0.677534 0.001380 -0.735490
-0.776013672352 -0.559282004833 -0.597267806530 -0.821199 0.049132 -0.568523
-0.789024591446 -0.747932851315 -0.585938811302 -0.949740 0.060403 -0.307156
-0.797184586525 -0.774390995502 -0.557150602341 -0.987196 0.059442 -0.148021
-0.803582847118 -0.909409761429 -0.498577952385 -0.999920 -0.008955 -0.008955
-0.802105545998 -0.872492015362 -0.530872285366 -0.997678 -0.005223 -0.067905
-0.773773193359 -0.920417010784 -0.588611483574 -0.000989 -0.999940 -0.010880
-0.786252140999 -0.920368790627 -0.593833804131 -0.004965 -0.999928 -0.010923
-0.721288681030 -0.920244514942 -0.636983633041 -0.004965 -0.999928 -0.010923
-0.756491839886 -0.904577970505 -0.650416970253 0.003419 0.181190 -0.983442
-0.770833134651 -0.898089766502 -0.430134624243 -0.000983 -0.006883 0.999976
-0.784454584122 -0.574132263660 -0.585197806358 -0.960708 0.020912 -0.276772
-0.782773792744 -0.774000108242 -0.610834181309 -0.959420 0.041279 -0.278945
-0.792848765850 -0.754783987999 -0.436467289925 -0.998384 0.051441 -0.024146
-0.753492772579 -0.701280057430 -0.428822398186 -0.000983 -0.006883 0.999976
-0.772359609604 -0.648306608200 -0.428469270468 -0.000983 -0.006883 0.999976
-0.738794863224 -0.556783497334 -0.427857071161 -0.000983 -0.006883 0.999976
-0.745137214661 -0.240328177810 -0.425746738911 -0.000983 -0.006883 0.999976
-0.765905857086 0.144464820623 -0.423187077045 -0.000983 -0.006883 0.999976
-0.769233763218 0.285503178835 -0.422251641750 -0.000983 -0.006883 0.999976
-0.772797167301 0.700739026070 -0.419502973557 -0.000983 -0.006883 0.999976
-0.784650444984 0.705702245235 -0.436186850071 -0.993684 -0.043397 -0.103486
-0.781622767448 0.612606346607 -0.427199393511 -0.996992 -0.037643 -0.067757
-0.786509215832 0.439871311188 -0.509602725506 -0.927190 -0.016718 0.374219
-0.788692533970 0.547196328640 -0.511868417263 -0.993598 -0.011997 -0.112339
-0.787245392799 -0.054674878716 -0.528696894646 -0.996241 0.007458 -0.086305
-0.785341799259 0.361591905355 -0.526859164238 -0.995047 0.001069 -0.099398
-0.609359323978 0.769828140736 -0.660550653934 -0.001145 -0.191268 -0.981537
-0.609595894814 0.755756795406 -0.657812476158 -0.001145 -0.191268 -0.981537
-0.647778451443 0.582245469093 -0.624012589455 -0.001145 -0.191268 -0.981537
-0.575402796268 0.586243391037 -0.624863684177 -0.001145 -0.191268 -0.981537
-0.601997435093 0.483372539282 -0.612774491310 -0.001059 -0.087863 -0.996132
-0.617647647858 0.494493007660 -0.613753855228 -0.001059 -0.087863 -0.996132
-0.707609295845 0.382470160723 -0.603194594383 -0.005336 -0.092843 -0.995666
-0.614064872265 0.417862981558 -0.606890022755 -0.005336 -0.092843 -0.995666
-0.690478503704 0.337449103594 -0.600725769997 -0.003074 -0.046105 -0.998932
-0.565948247910 0.313102334738 -0.600106596947 -0.003074 -0.046105 -0.998932
-0.725246012211 0.246439486742 -0.596134722233 -0.007200 -0.048346 -0.998805
-0.687426626682 0.286291778088 -0.598326086998 -0.007200 -0.048346 -0.998805
-0.741362750530 0.179335206747 -0.592757284641 -0.007200 -0.048346 -0.998805
-0.579494118690 0.094239287078 -0.591858208179 -0.006978 -0.014953 -0.999864
-0.592509448528 0.010926380754 -0.590507864952 -0.006978 -0.014953 -0.999864
-0.560175418854 0.019283875823 -0.590842783451 -0.006978 -0.014953 -0.999864
-0.672535717487 -0.050960466266 -0.588926136494 -0.006992 -0.016980 -0.999831
-0.661391437054 -0.007165141404 -0.589722514153 -0.006992 -0.016980 -0.999831
-0.673022210598 -0.028340391815 -0.589290201664 -0.006992 -0.016980 -0.999831
-0.557543396950 -0.189321815968 -0.590655565262 -0.006951 0.008937 -0.999936
-0.640594422817 -0.069915950298 -0.588962435722 -0.006951 0.008937 -0.999936
-0.752413272858 -0.151618450880 -0.588861048222 -0.006951 0.008937 -0.999936
-0.584844946861 -0.362978905439 -0.594699144363 -0.007089 0.029369 -0.999544
-0.554972290993 -0.277344614267 -0.592327356339 -0.007089 0.029369 -0.999544
-0.759861767292 -0.339170008898 -0.592787742615 -0.007089 0.031392 -0.999482
-0.694196999073 -0.288432985544 -0.591633856297 -0.007089 0.031392 -0.999482
-0.607448637486 -0.407693982124 -0.596097469330 -0.007243 0.054838 -0.998469
-0.675721883774 -0.438008069992 -0.597310543060 -0.007243 0.054838 -0.998469
-0.669995188713 -0.473456263542 -0.599304497242 -0.005173 0.056902 -0.998366
-0.575347185135 -0.546237409115 -0.603917241096 -0.005173 0.056902 -0.998366
-0.597585976124 -0.570850133896 -0.605623304844 -0.005274 0.079115 -0.996852
-0.696535646915 -0.632962048054 -0.610278785229 -0.003170 0.083482 -0.996504
-0.651752948761 -0.639563798904 -0.610996663570 -0.003226 0.104292 -0.994541
-0.764785885811 0.040562249720 -0.588159322739 -0.193867 -0.012770 -0.980945
-0.784246861935 0.826543092728 -0.607056796551 0.007159 0.999179 -0.039885
-0.780113577843 0.686955511570 -0.604050517082 -0.970566 -0.052895 -0.234953
-0.785510420799 0.588797569275 -0.550198018551 -0.993097 -0.039098 -0.110592
-0.787262737751 0.561570465565 -0.525907158852 -0.993621 -0.009816 -0.112341
-0.744796752930 0.739727079868 -0.419243156910 -0.000983 -0.006883 0.999976
-0.790164113045 -0.705305099487 -0.437348574400 -0.997682 0.048120 -0.048120
-0.784417808056 -0.565553307533 -0.464413911104 -0.984311 0.040867 0.171641
-0.783288717270 -0.550275921822 -0.442086219788 -0.998818 0.034370 -0.034370
-0.784445643425 -0.255359262228 -0.500474154949 -0.931395 0.027128 0.362999
-0.779121279716 -0.070191361010 -0.495140254498 -0.922064 0.016812 0.386672
-0.775894165039 -0.202371299267 -0.476500511169 -0.975614 0.017738 0.218774
-0.772478103638 0.061304174364 -0.476468682289 -0.972381 0.005922 0.233324
-0.774734318256 0.312525242567 -0.484663486481 -0.971841 -0.005919 0.235562
-0.769403338432 0.313155561686 -0.454301565886 -0.999757 -0.011053 -0.019091
-0.775846421719 0.512845754623 -0.449654936790 -0.998479 -0.041033 -0.036825
-0.776291549206 0.483153283596 -0.474734514952 -0.977215 -0.029685 0.210166
-0.782563030720 0.443320691586 -0.499314397573 -0.915781 -0.022209 0.401063
-0.758722841740 -0.844594299793 -0.429779142141 -0.000983 -0.006883 0.999976
