-0.554764509201 -1.673621654510 -0.194909885526 -0.396639 -0.917638 -0.024872
-0.613276302814 -1.663911461830 -0.213637992740 -0.098121 -0.771786 0.628266
0.256002992392 -0.454668670893 0.011400725693 -0.143472 -0.899189 -0.413371
0.480621516705 -0.420396685600 0.003608535044 -0.161369 0.921907 0.352205
0.448912501335 -0.416898220778 -0.015125193633 -0.121342 0.910759 0.394709
0.333001762629 -0.395010530949 -0.074556574225 -0.001321 0.886089 0.463513
0.336383938789 -0.381159007549 -0.100971862674 -0.001321 0.886089 0.463513
0.331221789122 -0.392009198666 -0.135441333055 0.001321 -0.886089 -0.463513
-0.412743002176 0.288018375635 0.048177205026 0.001380 -0.677534 -0.735490
-0.485940754414 0.292198151350 0.095015630126 -0.985460 0.060046 0.158945
-0.469818711281 0.332464188337 0.189840316772 -0.989497 0.021388 0.142965
-0.463523775339 0.350974112749 0.233924105763 -0.990209 -0.010025 0.139231
-0.281572163105 0.364686757326 0.229713037610 -0.001240 0.323658 0.946173
-0.249860182405 0.368706285954 0.174463003874 0.988880 -0.005587 0.148611
-0.247590303421 0.327217340469 0.160297140479 0.988554 0.016908 0.149918
-0.292909950018 0.325457334518 0.229295939207 0.001377 -0.654300 0.756234
-0.466429591179 0.276051193476 0.101994730532 0.001104 -0.990125 0.140185
-0.344930708408 0.271832913160 0.070970512927 0.001104 -0.990125 0.140185
-0.244968295097 0.284958988428 0.155265584588 0.983189 0.065546 0.170419
-0.401507318020 0.292993694544 0.043594360352 0.001380 -0.677534 -0.735490
-0.255974769592 0.284371852875 0.020003370941 0.001345 -0.848828 0.528668
-0.381013274193 0.268327832222 -0.005525663495 0.001345 -0.848828 0.528668
-0.185450941324 0.328479856253 0.040816366673 0.000997 -0.020933 0.999780
-0.139561265707 0.221134349704 -0.044879820198 0.891237 0.022715 0.452968
-0.133370533586 0.199974820018 -0.068902596831 -0.276312 -0.778410 0.563676
-0.203060567379 0.206921219826 -0.100179284811 -0.320221 -0.901636 0.290708
-0.233733355999 0.170318216085 -0.230327665806 0.001232 -0.950151 0.311788
-0.378326416016 0.190565124154 -0.168157309294 0.001232 -0.950151 0.311788
-0.227948248386 0.164024472237 -0.249515488744 0.001232 -0.950151 0.311788
-0.464070290327 0.267679482698 -0.006412521005 0.001345 -0.848828 0.528668
-0.467689007521 0.264137536287 -0.012092947960 0.001345 -0.848828 0.528668
-0.510259509087 0.244935870171 -0.042845077813 0.001345 -0.848828 0.528668
-0.415537685156 0.312558561563 0.040476981550 0.000997 -0.020933 0.999780
-0.346882700920 0.328939378262 0.040830370039 0.000997 -0.020933 0.999780
-0.324936330318 0.357283949852 0.057397402823 -0.001102 0.990471 -0.137718
-0.414039552212 0.363895386457 0.105662196875 -0.001102 0.990471 -0.137718
-0.422356128693 0.376242011786 0.194481194019 -0.001102 0.990471 -0.137718
-0.444361329079 0.379786372185 0.220141783357 -0.001102 0.990471 -0.137718
-0.546549499035 0.303164422512 0.018622238189 -0.894653 -0.009223 0.446667
-0.606494247913 0.301940262318 -0.271660834551 0.033779 0.984245 -0.173553
-0.293021887541 0.337404519320 -0.068910717964 -0.005648 0.986102 -0.166045
-0.520289659500 0.296693384647 -0.303380578756 -0.005648 0.986102 -0.166045
-0.288518756628 0.317992687225 -0.184044227004 -0.005648 0.986102 -0.166045
-0.247507333755 0.329134881496 -0.119246378541 -0.005648 0.986102 -0.166045
-0.317067533731 0.331727474928 -0.101832807064 -0.005648 0.986102 -0.166045
-0.338383436203 0.331726551056 -0.101208709180 -0.005648 0.986102 -0.166045
-0.284404963255 0.333066284657 -0.094866164029 -0.005648 0.986102 -0.166045
-0.569259643555 0.287180930376 -0.358288317919 -0.005648 0.986102 -0.166045
-0.543301463127 0.316769808531 -0.183763369918 -0.005648 0.986102 -0.166045
-0.471122026443 0.299717575312 -0.286916792393 -0.005648 0.986102 -0.166045
-0.496051490307 0.343182712793 -0.028682492673 -0.005648 0.986102 -0.166045
-0.315359055996 0.311399608850 -0.222153067589 -0.001129 0.985368 -0.170436
-0.492122888565 0.284588754177 -0.375891357660 -0.001129 0.985368 -0.170436
-0.284722566605 0.303889095783 -0.265754967928 -0.001129 0.985368 -0.170436
-0.429147034883 0.266942173243 -0.478277385235 -0.001129 0.985368 -0.170436
-0.214720889926 0.272201865911 -0.449317961931 -0.001129 0.985368 -0.170436
-0.218598678708 0.307813316584 -0.243521541357 -0.001129 0.985368 -0.170436
-0.330957502127 0.271032780409 -0.455296963453 -0.001129 0.985368 -0.170436
-0.348775774240 0.287118524313 -0.362231105566 -0.001129 0.985368 -0.170436
-0.238803625107 0.264915376902 -0.491259992123 -0.001129 0.985368 -0.170436
-0.463884681463 0.273879230022 -0.437961757183 -0.001129 0.985368 -0.170436
-0.234462797642 0.351494401693 0.018327303231 -0.001118 0.987489 -0.157685
-0.229003444314 0.353404462337 0.030300073326 -0.001118 0.987489 -0.157685
-0.619156360626 0.258980661631 -0.241401597857 -0.995026 0.001071 0.099610
-0.608516395092 0.236712440848 -0.135791406035 -0.995026 0.001071 0.099610
-0.635542392731 0.249151811004 -0.403729051352 -0.995026 0.001071 0.099610
-0.556556999683 0.273419141769 0.000245422125 -0.890760 0.019972 0.454035
-0.515310287476 0.218163371086 -0.078452467918 0.279721 -0.779109 0.561022
-0.562306344509 0.181736811996 -0.127163887024 0.323725 -0.900223 0.291205
-0.574430048466 0.144243448973 -0.229589879513 0.327237 -0.898792 0.291700
-0.603449106216 0.156927317381 -0.157911509275 0.327237 -0.898792 0.291700
-0.634256601334 0.156533539295 -0.375160217285 -0.994393 0.020739 0.103696
-0.631472826004 0.182923704386 -0.353709459305 -0.994393 0.020739 0.103696
-0.634195923805 0.150316506624 -0.371983975172 -0.962680 0.166341 0.213492
-0.645132422447 -0.125310033560 -0.494080126286 -0.999984 -0.004916 -0.002950
-0.646194934845 0.158486157656 -0.510877013206 -0.999984 -0.004916 -0.002950
-0.646339476109 0.099974304438 -0.406293004751 -0.999984 -0.004916 -0.002950
-0.646203219891 -0.032330699265 -0.367036193609 -0.999972 -0.002956 -0.006896
-0.645625948906 -0.125340357423 -0.413562476635 -0.999972 -0.002956 -0.006896
-0.645572245121 -0.174074500799 -0.403510391712 -0.999972 -0.002956 -0.006896
-0.632024943829 -0.024167571217 -0.364707261324 0.187400 0.192642 0.963208
-0.539266467094 0.112910419703 -0.413627505302 0.216141 0.205401 0.954512
-0.594890296459 0.110595040023 -0.400567740202 0.216141 0.205401 0.954512
-0.562024593353 0.105318486691 -0.406862050295 0.216141 0.205401 0.954512
-0.276882559061 -0.079439833760 -0.376729428768 -0.001168 0.220763 0.975327
-0.395301163197 -0.143618032336 -0.362156838179 -0.001168 0.220763 0.975327
-0.503666341305 -0.134842023253 -0.364182323217 -0.001168 0.220763 0.975327
-0.323248088360 -0.107410520315 -0.370376884937 -0.001168 0.220763 0.975327
-0.308774769306 -0.142254143953 -0.362444430590 -0.001168 0.220763 0.975327
-0.329965412617 0.068297334015 -0.410360872746 -0.001168 0.220763 0.975327
-0.477964162827 0.153072610497 -0.429690390825 -0.001168 0.220763 0.975327
-0.234651550651 -0.043971557170 -0.384789109230 -0.001168 0.220763 0.975327
-0.225180879235 0.044583953917 -0.404937356710 -0.001168 0.220763 0.975327
-0.311139464378 -0.031108587980 -0.387736171484 -0.001168 0.220763 0.975327
-0.167973861098 -0.005524843931 -0.385353535414 -0.216260 0.202827 0.955035
-0.168560922146 -0.086919263005 -0.368108302355 -0.216260 0.202827 0.955035
-0.125113517046 -0.093230292201 -0.358154654503 -0.187494 0.190116 0.963692
-0.073618672788 -0.085837751627 -0.380622804165 0.999976 -0.000983 -0.006883
-0.073524333537 -0.099127873778 -0.366917639971 0.999976 -0.000983 -0.006883
-0.080974377692 -0.221317127347 -0.413529902697 0.981308 -0.184815 0.053656
-0.117351204157 -0.289888173342 -0.354511857033 -0.204999 -0.074880 0.975894
-0.194467246532 -0.173837170005 -0.360236614943 -0.190136 -0.089548 0.977665
-0.205038025975 -0.232972919941 -0.366955965757 0.001077 -0.108776 0.994066
-0.380325794220 -0.181569546461 -0.361355692148 0.001077 -0.108776 0.994066
-0.327843844891 -0.255577623844 -0.369393646717 0.001077 -0.108776 0.994066
-0.369369298220 -0.234800681472 -0.367133706808 0.001077 -0.108776 0.994066
-0.538268864155 -0.272314578295 -0.366539746523 0.190136 -0.089548 0.977665
-0.616036057472 -0.200365230441 -0.344720363617 0.206891 -0.072228 0.975694
-0.634667873383 -0.255886286497 -0.465464740992 -0.980782 -0.187555 0.053758
-0.612697362900 -0.358881890774 -0.445232599974 -0.249484 -0.960055 -0.126701
-0.101202622056 -0.337432086468 -0.387121170759 0.988281 -0.152643 0.001114
-0.485353469849 -0.303915649652 -0.375169456005 0.001215 -0.285453 0.958392
-0.359476387501 -0.346964687109 -0.388065308332 0.001215 -0.285453 0.958392
-0.074182696640 -0.014600522816 -0.496419310570 0.999995 -0.000981 -0.002944
-0.074151225388 -0.075703956187 -0.459835439920 0.999995 -0.000981 -0.002944
-0.144521474838 0.133312478662 -0.404349148273 -0.430214 -0.900036 -0.069654
-0.208383142948 0.158913597465 -0.391385138035 -0.334776 -0.925887 -0.175092
-0.150695756078 0.152291268110 -0.211879283190 -0.324589 -0.899660 0.291982
-0.095731824636 0.141233444214 -0.277682840824 0.994321 0.022971 0.103917
-0.086174562573 0.163488715887 -0.373825311661 0.994321 0.022971 0.103917
-0.112614549696 0.252211749554 -0.128333270550 0.995000 0.003220 0.099822
-0.115099012852 0.236205518246 -0.103228256106 0.995000 0.003220 0.099822
-0.106819592416 0.227839663625 -0.185031205416 0.995000 0.003220 0.099822
-0.143763452768 0.327845096588 -0.122082158923 -0.036105 0.984165 -0.173539
-0.132750511169 0.324676632881 -0.142295986414 -0.036105 0.984165 -0.173539
-0.229587867856 0.149874642491 -0.328966110945 0.001140 -0.983447 -0.181191
-0.325555443764 0.152407243848 -0.343251198530 0.001140 -0.983447 -0.181191
-0.336280941963 0.167311385274 -0.239124000072 0.001232 -0.950151 0.311788
-0.480849623680 0.186571046710 -0.179960250854 0.001232 -0.950151 0.311788
-0.458336114883 0.156895816326 -0.270414680243 0.001232 -0.950151 0.311788
-0.269811004400 0.165259599686 -0.412354886532 0.001140 -0.983447 -0.181191
-0.501321673393 0.160213023424 -0.386530071497 0.001140 -0.983447 -0.181191
-0.516508281231 0.148617058992 -0.347898781300 0.338135 -0.924611 -0.175381
-0.630879402161 0.102255508304 -0.352587550879 0.433499 -0.898451 -0.069743
0.282680124044 0.278256416321 0.057934958488 0.001380 -0.677534 -0.735490
0.226809546351 0.331658333540 0.068407610059 -0.985460 0.060046 0.158945
0.251618564129 0.336906731129 0.236471101642 -0.989497 0.021388 0.142965
0.246123820543 0.349142044783 0.198220551014 -0.990209 -0.010025 0.139231
0.262024223804 0.377428352833 0.225579306483 -0.001240 0.323658 0.946173
0.376121461391 0.349700927734 0.235086441040 -0.001240 0.323658 0.946173
0.468774110079 0.351147115231 0.147330656648 0.988880 -0.005587 0.148611
0.406070768833 0.290660172701 0.198518514633 0.001377 -0.654300 0.756234
0.376020193100 0.326644897461 0.229654163122 0.001377 -0.654300 0.756234
0.257582366467 0.280414849520 0.127098083496 0.001104 -0.990125 0.140185
0.398699074984 0.279325395823 0.118182674050 0.001104 -0.990125 0.140185
0.418923735619 0.283054679632 0.144560426474 0.001104 -0.990125 0.140185
0.440388888121 0.283755391836 0.053024820983 0.001380 -0.677534 -0.735490
0.341232597828 0.263502806425 -0.014613270760 0.001345 -0.848828 0.528668
0.476564824581 0.256555855274 -0.026018716395 0.001345 -0.848828 0.528668
0.513843774796 0.296327203512 0.037770874798 0.001345 -0.848828 0.528668
0.506617009640 0.321862161160 0.040655564517 0.000997 -0.020933 0.999780
0.579499542713 0.293490529060 -0.057144090533 0.891237 0.022715 0.452968
0.532479107380 0.275568276644 0.010596849024 -0.276312 -0.778410 0.563676
0.568499088287 0.186612740159 -0.103008821607 -0.320221 -0.901636 0.290708
0.454433888197 0.183114022017 -0.193780571222 0.001232 -0.950151 0.311788
0.395580291748 0.200309023261 -0.141206473112 0.001232 -0.950151 0.311788
0.415367364883 0.201511934400 -0.137612715364 0.001232 -0.950151 0.311788
0.228296607733 0.279128849506 0.010686203837 0.001345 -0.848828 0.528668
0.327858030796 0.260896533728 -0.018773205578 0.001345 -0.848828 0.528668
0.237880259752 0.337729036808 0.041006267071 0.000997 -0.020933 0.999780
0.323480129242 0.340513378382 0.041064482182 0.000997 -0.020933 0.999780
0.351901173592 0.367584556341 0.125817194581 -0.001102 0.990471 -0.137718
0.403820902109 0.359279900789 0.065690539777 -0.001102 0.990471 -0.137718
0.274524658918 0.379505068064 0.212147220969 -0.001102 0.990471 -0.137718
0.382641851902 0.375863850117 0.185075044632 -0.001102 0.990471 -0.137718
0.114416748285 0.314709335566 -0.202835083008 0.033779 0.984245 -0.173553
0.352354764938 0.314269661903 -0.208814382553 -0.005648 0.986102 -0.166045
0.210472106934 0.304344356060 -0.263423591852 -0.005648 0.986102 -0.166045
0.133670508862 0.311904281378 -0.216368198395 -0.005648 0.986102 -0.166045
0.143454730511 0.279721558094 -0.407315462828 -0.005648 0.986102 -0.166045
0.136869728565 0.296071499586 -0.310259878635 -0.005648 0.986102 -0.166045
0.269532650709 0.337467730045 -0.068937070668 -0.005648 0.986102 -0.166045
0.307250082493 0.346629709005 -0.015773504972 -0.005648 0.986102 -0.166045
0.297116279602 0.345721840858 -0.020852714777 -0.005648 0.986102 -0.166045
0.457181513309 0.323516577482 -0.157129734755 -0.005648 0.986102 -0.166045
0.165533453226 0.305812746286 -0.253397107124 -0.005648 0.986102 -0.166045
0.356844246387 0.332846701145 -0.098892398179 -0.005648 0.986102 -0.166045
0.195681557059 0.277522265911 -0.421316325665 -0.001129 0.985368 -0.170436
0.351301342249 0.303444117308 -0.272573709488 -0.001129 0.985368 -0.170436
0.262031316757 0.281260460615 -0.400159209967 -0.001129 0.985368 -0.170436
0.490565359592 0.311936467886 -0.224433094263 -0.001129 0.985368 -0.170436
0.521508276463 0.314038872719 -0.212491720915 -0.001129 0.985368 -0.170436
0.352415770292 0.286927878857 -0.368015527725 -0.001129 0.985368 -0.170436
0.329372853041 0.275761544704 -0.432382941246 -0.001129 0.985368 -0.170436
0.392048299313 0.289514273405 -0.353335440159 -0.001129 0.985368 -0.170436
0.505072951317 0.278268098831 -0.419072866440 -0.001129 0.985368 -0.170436
0.374322652817 0.303398936987 -0.272988498211 -0.001129 0.985368 -0.170436
0.419391870499 0.341108798981 -0.051741555333 -0.001118 0.987489 -0.157685
0.324091553688 0.351030051708 0.011347129941 -0.001118 0.987489 -0.157685
0.101905211806 0.227751448750 -0.177657574415 -0.995026 0.001071 0.099610
0.093147784472 0.245441019535 -0.264577776194 -0.995026 0.001071 0.099610
0.097399204969 0.206585437059 -0.222162723541 -0.995026 0.001071 0.099610
0.173439025879 0.290044695139 0.029686771333 -0.890760 0.019972 0.454035
0.199394166470 0.237429141998 -0.052971336991 0.279721 -0.779109 0.561022
0.182445600629 0.184142589569 -0.155763477087 0.323725 -0.900223 0.291205
0.149440079927 0.139264985919 -0.257838845253 0.327237 -0.898792 0.291700
0.116857171059 0.148841306567 -0.191734075546 0.327237 -0.898792 0.291700
0.086615957320 0.148792400956 -0.314065009356 -0.994393 0.020739 0.103696
0.088255539536 0.123798027635 -0.293524920940 -0.994393 0.020739 0.103696
0.068240828812 0.143480226398 -0.433163940907 -0.999991 -0.002950 -0.002950
0.068620465696 0.060872673988 -0.448806434870 -0.999991 -0.002950 -0.002950
0.068564735353 0.055145412683 -0.426788926125 -0.999991 -0.002950 -0.002950
0.068600870669 -0.088909953833 -0.367574185133 -0.999972 -0.002956 -0.006896
0.068773694336 -0.160312160850 -0.366029769182 -0.999972 -0.002956 -0.006896
0.148295730352 -0.131367877126 -0.355967819691 0.187400 0.192642 0.963208
0.102694787085 0.092975154519 -0.392764508724 0.216141 0.205401 0.954512
0.191166728735 0.030657041818 -0.399410635233 0.216141 0.205401 0.954512
0.115604609251 0.097017318010 -0.396545708179 0.216141 0.205401 0.954512
0.356432229280 -0.059821028262 -0.381027102470 -0.001168 0.220763 0.975327
0.220541164279 0.029085598886 -0.401293516159 -0.001168 0.220763 0.975327
0.313861817122 -0.153824597597 -0.359647840261 -0.001168 0.220763 0.975327
0.267620146275 -0.128441572189 -0.365435898304 -0.001168 0.220763 0.975327
0.207239225507 -0.004383685533 -0.393681079149 -0.001168 0.220763 0.975327
0.350779026747 0.076659172773 -0.412084579468 -0.001168 0.220763 0.975327
0.342099696398 0.080387532711 -0.412935286760 -0.001168 0.220763 0.975327
0.445411324501 0.019256211817 -0.398997694254 -0.001168 0.220763 0.975327
0.366300940514 0.153668120503 -0.429603874683 -0.001168 0.220763 0.975327
0.513029038906 -0.085760779679 -0.375083327293 -0.001168 0.220763 0.975327
0.527877688408 -0.102485463023 -0.368731468916 -0.216260 0.202827 0.955035
0.586421132088 0.021350674331 -0.381916791201 -0.216260 0.202827 0.955035
0.601356983185 -0.088077910244 -0.356710106134 -0.187494 0.190116 0.963692
0.640913188457 -0.032078668475 -0.397385001183 0.999976 -0.000983 -0.006883
0.640797734261 -0.088301435113 -0.411489397287 0.999976 -0.000983 -0.006883
0.641054987907 -0.165472745895 -0.359000742435 0.981308 -0.184815 0.053656
0.615269243717 -0.327697008848 -0.448193699121 0.981308 -0.184815 0.053656
0.637645840645 -0.180747658014 -0.349619507790 0.988281 -0.152643 -0.001114
0.602794408798 -0.235109120607 -0.349265664816 -0.204999 -0.074880 0.975894
0.545565962791 -0.157817035913 -0.353915721178 -0.190136 -0.089548 0.977665
0.353562831879 -0.173859462142 -0.360611051321 0.001077 -0.108776 0.994066
0.290645301342 -0.192548960447 -0.362631320953 0.001077 -0.108776 0.994066
0.221095979214 -0.232597947121 -0.366968721151 0.001077 -0.108776 0.994066
0.302382409573 -0.259636580944 -0.369913160801 0.001077 -0.108776 0.994066
0.187189161777 -0.200680375099 -0.362216949463 0.190136 -0.089548 0.977665
0.099272638559 -0.249510139227 -0.348620772362 0.206891 -0.072228 0.975694
0.069496758282 -0.174083217978 -0.374511450529 -0.980782 -0.187555 0.053758
0.099272727966 -0.352610111237 -0.395989924669 -0.987889 -0.155160 -0.001116
0.147240966558 -0.364253163338 -0.391989231110 -0.226348 -0.870914 0.436206
0.567338287830 -0.354506045580 -0.382890343666 -0.004134 -0.624185 0.781265
0.557238101959 -0.365100413561 -0.391563117504 0.229189 -0.870319 0.435909
0.227210015059 -0.388278514147 -0.430612862110 0.001102 -0.990471 -0.137718
0.617442905903 -0.310855507851 -0.361881494522 0.988229 -0.152980 0.001117
0.550277769566 -0.347108244896 -0.379930138588 -0.072915 -0.444371 0.892870
0.459478050470 -0.357077926397 -0.391367226839 0.001215 -0.285453 0.958392
0.412664532661 -0.368952184916 -0.394896179438 0.001215 -0.285453 0.958392
0.097101181746 -0.304832041264 -0.353440493345 0.075838 -0.445374 0.892127
0.640490949154 0.026952259243 -0.504734814167 0.999995 -0.000981 -0.002944
0.640687882900 0.110987901688 -0.487420558929 0.999995 -0.000981 -0.002944
0.640461504459 -0.043865051121 -0.480896741152 0.999995 -0.000981 -0.002944
0.637046098709 0.156372696161 -0.413237631321 0.962680 0.166341 0.213492
0.563070356846 0.143840759993 -0.241478502750 -0.324589 -0.899660 0.291982
0.558716654778 0.125837787986 -0.301886081696 -0.324589 -0.899660 0.291982
0.637345612049 0.242250233889 -0.475595742464 0.994321 0.022971 0.103917
0.629574596882 0.191749230027 -0.390344738960 0.994321 0.022971 0.103917
0.617120444775 0.262013107538 -0.278229981661 0.995000 0.003220 0.099822
0.612076699734 0.207326740026 -0.226596012712 0.995000 0.003220 0.099822
0.610634803772 0.256774425507 -0.213795661926 0.995000 0.003220 0.099822
0.555874109268 0.337602972984 -0.068417578936 -0.036105 0.984165 -0.173539
0.453282892704 0.151569530368 -0.333860129118 0.001140 -0.983447 -0.181191
0.370442509651 0.155636921525 -0.356356978416 0.001140 -0.983447 -0.181191
0.227977916598 0.155624330044 -0.276702702045 0.001232 -0.950151 0.311788
0.301992893219 0.149957209826 -0.294222265482 0.001232 -0.950151 0.311788
0.213218972087 0.181078433990 -0.199130892754 0.001232 -0.950151 0.311788
0.258709251881 0.156074583530 -0.359419792891 0.001140 -0.983447 -0.181191
0.427490681410 0.168455958366 -0.425272434950 0.001140 -0.983447 -0.181191
0.105123154819 0.108477756381 -0.310369253159 0.338135 -0.924611 -0.175381
0.142342954874 0.134008288383 -0.388622283936 0.433499 -0.898451 -0.069743
-0.703023731709 1.363079190254 0.053107619286 0.000978 -0.000978 0.999999
0.357483774424 1.358999848366 0.053102534264 0.000978 -0.000978 0.999999
-0.078212842345 1.367642641068 0.053111299872 0.000978 -0.000978 0.999999
0.667196512222 1.381585836411 0.053123839200 0.000978 -0.000978 0.999999
0.284791737795 1.373394489288 0.053116410971 0.000978 -0.000978 0.999999
0.294825643301 1.381911993027 0.053124565631 0.000978 -0.000978 0.999999
0.160979509354 1.393707394600 0.039861395955 -0.001373 0.789499 0.613750
0.007177650928 1.385469555855 0.050234604627 -0.001373 0.789499 0.613750
0.288749426603 1.395698666573 0.037488680333 -0.001373 0.789499 0.613750
-0.624693751335 1.398811101913 0.032124571502 -0.001373 0.789499 0.613750
-0.362291872501 1.395828604698 0.036353088915 -0.001373 0.789499 0.613750
-0.748699426651 1.402336120605 0.027403326705 -0.001373 0.789499 0.613750
-0.044227480888 1.489922881126 0.021625282243 0.000985 -0.008867 0.999960
0.274600118399 1.438213467598 0.021166212857 0.000985 -0.008867 0.999960
-0.123719036579 1.419254779816 0.021003149450 0.000985 -0.008867 0.999960
-0.453523010015 1.525772809982 0.021945470944 0.000985 -0.008867 0.999960
-0.005148231983 1.424164175987 0.021045217291 0.000985 -0.008867 0.999960
-0.257025361061 1.473725080490 0.021484665573 0.000985 -0.008867 0.999960
-0.626634359360 1.585686683655 0.022475376725 0.000985 -0.008867 0.999960
0.021509990096 1.480691671371 0.021543238312 0.000985 -0.008867 0.999960
-0.130797922611 1.425626158714 0.021059384570 0.000985 -0.008867 0.999960
-0.321027755737 1.430710315704 0.021106140688 0.000985 -0.008867 0.999960
-0.637745559216 1.422549605370 0.021037429571 0.000985 -0.008867 0.999960
0.151857763529 1.450425386429 0.021275112405 0.000985 -0.008867 0.999960
-0.348976522684 1.552551269531 0.022180458531 0.000985 -0.008867 0.999960
-0.285170972347 1.492756724358 0.021652717143 0.000985 -0.008867 0.999960
-0.584045648575 1.530017256737 0.021984213963 0.000985 -0.008867 0.999960
0.300401628017 1.598072052002 0.022575108334 0.000985 -0.008867 0.999960
0.615599393845 1.541956424713 0.022077236325 0.000985 -0.008867 0.999960
0.376175701618 1.590180277824 0.022504771128 0.000985 -0.008867 0.999960
0.701217651367 1.421422719955 0.021013854071 0.000985 -0.008867 0.999960
0.423973441124 1.547398686409 0.022127162665 0.000985 -0.008867 0.999960
-0.121292650700 1.610997915268 0.022693345323 0.000985 -0.008867 0.999960
-0.594108283520 1.603493571281 0.022632014006 0.000985 -0.008867 0.999960
0.696122646332 1.440667748451 0.021183552220 0.000985 -0.008867 0.999960
-0.553937137127 1.599363565445 0.022595198825 0.000985 -0.008867 0.999960
0.515741586685 1.548748135567 0.022138122469 0.000985 -0.008867 0.999960
-0.195961713791 1.556213974953 0.022211186588 0.000985 -0.008867 0.999960
0.713760197163 1.469162940979 0.021434558555 0.000985 -0.008867 0.999960
0.168215334415 1.580371260643 0.022420423105 0.000985 -0.008867 0.999960
0.706757009029 1.459412097931 0.021348675713 0.000985 -0.008867 0.999960
0.309660494328 1.628864288330 0.022742288187 0.000978 0.000978 0.999999
0.013202011585 1.626269459724 0.022742288187 0.000978 0.000978 0.999999
0.229605853558 1.617079973221 0.022742288187 0.000978 0.000978 0.999999
-0.378768533468 1.643838644028 0.022742288187 0.000978 0.000978 0.999999
0.017272045836 1.656151890755 0.022742288187 0.000978 0.000978 0.999999
0.495240211487 1.666928887367 0.022742288187 0.000978 0.000978 0.999999
-0.520714521408 1.666754007339 0.022742288187 0.000978 0.000978 0.999999
-0.133962869644 1.680495142937 0.022742288187 0.000978 0.000978 0.999999
-0.281949281693 1.687711954117 0.022742288187 0.000978 0.000978 0.999999
-0.347260773182 1.328057050705 0.017942920327 0.001361 -0.823366 0.567510
0.594647765160 1.345433831215 0.041560325772 0.001361 -0.823366 0.567510
-0.207689970732 1.268427491188 -0.068751931190 0.001361 -0.823366 0.567510
0.209670439363 1.337865710258 0.031231993809 0.001361 -0.823366 0.567510
-0.421342253685 1.296831011772 -0.027209643275 0.001361 -0.823366 0.567510
-0.353530824184 1.275282979012 -0.058567199856 0.001361 -0.823366 0.567510
-0.117811560631 1.248821139336 -0.097331032157 0.001361 -0.823366 0.567510
0.656089663506 1.344389319420 0.039943031967 0.001361 -0.823366 0.567510
-0.541192233562 1.300186276436 -0.022143770009 0.001361 -0.823366 0.567510
0.241972118616 1.285465240479 -0.044801104814 0.001361 -0.823366 0.567510
-0.048615872860 1.247856140137 -0.098846241832 0.001361 -0.823366 0.567510
-0.405170589685 1.281887292862 -0.048904668540 0.001361 -0.823366 0.567510
-0.718430995941 1.327055215836 0.017112452537 0.001361 -0.823366 0.567510
-0.222787976265 1.226493716240 -0.129529267550 0.001361 -0.823366 0.567510
-0.027952060103 1.330346345901 0.020727381110 0.001361 -0.823366 0.567510
-0.487570881844 1.297432065010 -0.026227172464 0.001361 -0.823366 0.567510
-0.720375001431 1.345867633820 0.044393219054 0.001361 -0.823366 0.567510
-0.496181607246 1.215723752975 -0.144687116146 0.001361 -0.823366 0.567510
-0.101458013058 1.303770542145 -0.017683472484 0.001361 -0.823366 0.567510
-0.640395522118 1.287298917770 -0.040663834661 0.001361 -0.823366 0.567510
-0.439113318920 1.274956941605 -0.058896590024 0.001361 -0.823366 0.567510
0.290173590183 1.290267467499 -0.037918929011 0.001361 -0.823366 0.567510
-0.611368954182 1.158191919327 -0.227913469076 0.001361 -0.823366 0.567510
0.248258352280 1.285659074783 -0.044530559331 0.001361 -0.823366 0.567510
0.199528247118 1.307788491249 -0.012361939996 0.001361 -0.823366 0.567510
-0.748989760876 1.206393480301 -0.157792076468 0.001361 -0.823366 0.567510
-0.175838410854 1.297883391380 -0.026094984263 0.001361 -0.823366 0.567510
0.341978251934 1.323143839836 0.009664025158 0.001361 -0.823366 0.567510
-0.492655456066 1.275259256363 -0.058368418366 0.001361 -0.823366 0.567510
0.590541601181 1.329929947853 0.019087124616 0.001361 -0.823366 0.567510
-0.764936327934 0.583048820496 -0.122009679675 0.999736 0.000999 -0.022971
-0.766702651978 -0.229556098580 -0.212723135948 0.999736 0.000999 -0.022971
-0.766632676125 0.833556890488 -0.190340206027 0.999736 0.000999 -0.022971
-0.766016840935 0.747476935387 -0.165444061160 0.999736 0.000999 -0.022971
-0.764445066452 1.135715007782 -0.090828552842 0.999736 0.000999 -0.022971
-0.767808973789 0.724249720573 -0.242877930403 0.999736 0.000999 -0.022971
-0.765959858894 0.878854751587 -0.160602241755 0.999736 0.000999 -0.022971
-0.766550660133 0.926424980164 -0.185122638941 0.999736 0.000999 -0.022971
-0.766007184982 -0.167333915830 -0.181703329086 0.999736 0.000999 -0.022971
-0.767587780952 0.768746614456 -0.232562392950 0.999736 0.000999 -0.022971
-0.763753652573 0.712190508842 -0.068833932281 0.999736 0.000999 -0.022971
-0.766542375088 1.110736846924 -0.181406736374 0.999736 0.000999 -0.022971
-0.761796593666 1.162028312683 0.023459458724 0.999736 0.000999 -0.022971
-0.767286181450 0.776741445065 -0.219457462430 0.999736 0.000999 -0.022971
-0.765225410461 0.023294178769 -0.144635304809 0.999736 0.000999 -0.022971
-0.766926944256 0.241829961538 -0.213769137859 0.999736 0.000999 -0.022971
-0.762745976448 0.849414825439 -0.023032482713 0.999736 0.000999 -0.022971
-0.767656087875 0.707555532455 -0.236611276865 0.999736 0.000999 -0.022971
-0.767397999763 0.406171619892 -0.231016039848 0.999736 0.000999 -0.022971
-0.764562666416 0.696791529655 -0.103881388903 0.999736 0.000999 -0.022971
-0.765702605247 0.521442353725 -0.156062841415 0.999736 0.000999 -0.022971
-0.762561321259 0.842045009136 -0.015231480822 0.999736 0.000999 -0.022971
-0.767202198505 0.095556601882 -0.228264480829 0.999736 0.000999 -0.022971
-0.765726208687 -0.321916520596 -0.172445610166 0.999736 0.000999 -0.022971
-0.768136143684 0.840206980705 -0.254824012518 0.999736 0.000999 -0.022971
-0.765053451061 0.046504430473 -0.136823922396 0.999736 0.000999 -0.022971
-0.766359508038 -0.531332373619 -0.203477859497 0.999736 0.000999 -0.022971
-0.767576634884 1.071795582771 -0.226559162140 0.999736 0.000999 -0.022971
-0.765953361988 1.072355985641 -0.156795844436 0.999736 0.000999 -0.022971
-0.763538002968 1.136239290237 -0.051837526262 0.999736 0.000999 -0.022971
-0.766045928001 0.157121181488 -0.093744963408 0.953268 -0.041666 0.299238
-0.776194155216 0.054064750671 -0.075502648950 0.953268 -0.041666 0.299238
-0.765458226204 0.439194202423 -0.057297993451 0.953268 -0.041666 0.299238
-0.772491097450 0.311580300331 -0.052288610488 0.953268 -0.041666 0.299238
-0.776675522327 0.277047932148 -0.043685495853 0.953268 -0.041666 0.299238
-0.780769169331 0.686220109463 0.024898007512 0.953268 -0.041666 0.299238
-0.766655147076 0.915231883526 0.011165197939 0.953268 -0.041666 0.299238
-0.777868866920 0.589123666286 0.002495288849 0.953268 -0.041666 0.299238
-0.781415402889 0.014277040958 -0.064319297671 0.953268 -0.041666 0.299238
-0.769064843655 0.356319487095 -0.057096816599 0.953268 -0.041666 0.299238
-0.775206327438 -0.337161511183 -0.126263454556 0.997922 0.009405 0.063742
-0.776310384274 -0.283995240927 -0.116140983999 0.997922 0.009405 0.063742
-0.772898852825 -0.405386745930 -0.092345826328 0.999385 0.027675 -0.021525
-0.771971821785 -0.430655121803 -0.082556284964 0.999385 0.027675 -0.021525
-0.779522240162 -0.110380709171 -0.008205835707 0.999385 0.027675 -0.021525
-0.769712567329 -0.555779874325 -0.144233986735 0.999385 0.027675 -0.021525
-0.776268959045 -0.265462934971 -0.063239283860 0.999385 0.027675 -0.021525
-0.766911625862 -0.578216135502 -0.042078070343 0.999385 0.027675 -0.021525
-0.768206536770 -0.523524522781 -0.029643058777 0.999385 0.027675 -0.021525
-0.772201657295 -0.469509780407 -0.145720690489 0.999385 0.027675 -0.021525
-0.777226805687 -0.179020270705 0.007863903418 0.999385 0.027675 -0.021525
-0.768039822578 0.641582012177 -0.260465711355 0.999999 0.000978 0.000978
-0.767690896988 0.339695423841 -0.258717685938 0.999999 0.000978 0.000978
-0.767511963844 0.184867769480 -0.252198457718 0.999999 0.000978 0.000978
-0.746937692165 0.670933067799 -0.462927430868 0.993144 0.007631 0.116648
-0.745160162449 0.186897173524 -0.448763877153 0.993144 0.007631 0.116648
-0.749884843826 0.467398703098 -0.425369024277 0.993144 0.007631 0.116648
-0.749498426914 0.191359132528 -0.411926209927 0.993144 0.007631 0.116648
-0.734042167664 0.511416316032 -0.563553810120 0.993144 0.007631 0.116648
-0.766851842403 -0.377855449915 -0.228953152895 0.993144 0.007631 0.116648
-0.747156679630 0.227698937058 -0.434161961079 0.993144 0.007631 0.116648
-0.740555882454 0.404816865921 -0.501369655132 0.993144 0.007631 0.116648
-0.752122581005 -0.182432189584 -0.366800338030 0.993144 0.007631 0.116648
-0.753891706467 0.717333614826 -0.406260520220 0.993144 0.007631 0.116648
-0.757262587547 -0.249748617411 -0.318749785423 0.993144 0.007631 0.116648
-0.738445758820 0.415397047997 -0.520061016083 0.993144 0.007631 0.116648
-0.736903727055 0.548755109310 -0.541342258453 0.993144 0.007631 0.116648
-0.752239942551 0.277394592762 -0.393696248531 0.993144 0.007631 0.116648
-0.766556978226 0.205529987812 -0.266871601343 0.993144 0.007631 0.116648
-0.758455753326 0.462219029665 -0.351741552353 0.993144 0.007631 0.116648
-0.760502159595 0.235070198774 -0.320455580950 0.993144 0.007631 0.116648
-0.763376355171 -0.154873192310 -0.272210717201 0.993144 0.007631 0.116648
-0.765008032322 0.613945722580 -0.304900944233 0.993144 0.007631 0.116648
-0.754573762417 -0.007715612650 -0.356434106827 0.993144 0.007631 0.116648
-0.753148376942 0.082198202610 -0.374082148075 0.993144 0.007631 0.116648
-0.742271780968 0.253565371037 -0.477515131235 0.993144 0.007631 0.116648
-0.745285511017 0.724486827850 -0.480309337378 0.993144 0.007631 0.116648
-0.747152328491 0.563553154469 -0.454576551914 0.993144 0.007631 0.116648
-0.765125036240 0.662879109383 -0.306869387627 0.993144 0.007631 0.116648
-0.753802895546 0.360615462065 -0.385376393795 0.993144 0.007631 0.116648
-0.752731561661 -0.225934505463 -0.361664891243 0.997514 -0.005245 0.070277
-0.738766849041 0.191599130630 -0.521754145622 0.997514 -0.005245 0.070277
-0.751886069775 -0.215971410275 -0.372702956200 0.997514 -0.005245 0.070277
-0.747293114662 -0.454354852438 -0.458352953196 0.997514 -0.005245 0.070277
-0.761092007160 -0.677402377129 -0.283518612385 0.997514 -0.005245 0.070277
-0.733406901360 0.351920187473 -0.583195030689 0.997514 -0.005245 0.070277
-0.760164856911 -0.500248908997 -0.281023740768 0.997514 -0.005245 0.070277
-0.757444441319 -0.489331722260 -0.318394213915 0.997514 -0.005245 0.070277
-0.737902760506 0.039165794849 -0.547316670418 0.997514 -0.005245 0.070277
-0.751108825207 -0.372289329767 -0.397382050753 0.997514 -0.005245 0.070277
-0.751973211765 -0.588508427143 -0.404192984104 0.997514 -0.005245 0.070277
-0.739923238754 -0.497720777988 -0.566001355648 0.997514 -0.005245 0.070277
-0.734295129776 0.361534893513 -0.569835364819 0.997514 -0.005245 0.070277
-0.743082165718 -0.576411366463 -0.528403460979 0.997514 -0.005245 0.070277
-0.739474415779 0.004861712456 -0.528185546398 0.997514 -0.005245 0.070277
-0.745860040188 -0.278615087271 -0.463109552860 0.997514 -0.005245 0.070277
-0.737005650997 -0.137337803841 -0.575458407402 0.997514 -0.005245 0.070277
-0.750097095966 -0.466054588556 -0.419872730970 0.997514 -0.005245 0.070277
-0.734770119190 0.306530475616 -0.567973256111 0.997514 -0.005245 0.070277
-0.750888288021 -0.506136894226 -0.412244677544 0.997514 -0.005245 0.070277
-0.739754140377 -0.231927514076 -0.545040309429 0.997514 -0.005245 0.070277
-0.748806595802 -0.172613799572 -0.412283599377 0.997514 -0.005245 0.070277
-0.740899324417 -0.350683838129 -0.539334297180 0.997514 -0.005245 0.070277
-0.745288908482 -0.156434595585 -0.460425615311 0.997514 -0.005245 0.070277
-0.739507555962 -0.002401590347 -0.528356671333 0.997514 -0.005245 0.070277
-0.739095747471 0.035117805004 -0.530863761902 0.997514 -0.005245 0.070277
-0.758545100689 -0.651147127151 -0.317097604275 0.997514 -0.005245 0.070277
-0.734116792679 -0.093536317348 -0.612314045429 0.997514 -0.005245 0.070277
-0.736851215363 -0.330535233021 -0.594601809978 0.997514 -0.005245 0.070277
0.125199407339 -0.715695858002 -0.594411015511 -0.000985 0.999976 0.006896
-0.256798386574 -0.717932701111 -0.363283872604 -0.000985 0.999976 0.006896
-0.583412528038 -0.718713700771 -0.311341792345 -0.000985 0.999976 0.006896
-0.418126136065 -0.716417908669 -0.582300007343 -0.000985 0.999976 0.006896
-0.520724833012 -0.718330681324 -0.351323723793 -0.000985 0.999976 0.006896
-0.538124859333 -0.716511547565 -0.588098883629 -0.000985 0.999976 0.006896
-0.655188441277 -0.717814028263 -0.437836647034 -0.000985 0.999976 0.006896
-0.741749882698 -0.718610286713 -0.348214238882 -0.000985 0.999976 0.006896
-0.398280799389 -0.717443168163 -0.447361350060 -0.000985 0.999976 0.006896
0.466241121292 -0.715518057346 -0.566555738449 -0.000985 0.999976 0.006896
0.728353023529 -0.714868366718 -0.611203253269 -0.000985 0.999976 0.006896
-0.623036026955 -0.718634963036 -0.327367872000 -0.000985 0.999976 0.006896
-0.624687552452 -0.717566132545 -0.465213268995 -0.000985 0.999976 0.006896
-0.542962968349 -0.718979597092 -0.271086990833 -0.000985 0.999976 0.006896
0.528720915318 -0.715265035629 -0.589830636978 -0.000985 0.999976 0.006896
-0.015695951879 -0.715960800648 -0.581261277199 -0.000985 0.999976 0.006896
-0.206873595715 -0.717295825481 -0.437841415405 -0.000985 0.999976 0.006896
-0.251942276955 -0.717618048191 -0.403075397015 -0.000985 0.999976 0.006896
0.129143312573 -0.715866804123 -0.571819365025 -0.000985 0.999976 0.006896
-0.418415486813 -0.718038916588 -0.373665928841 -0.000985 0.999976 0.006896
-0.606054902077 -0.717852830887 -0.425532519817 -0.000985 0.999976 0.006896
0.509259760380 -0.715145826340 -0.608079254627 -0.000985 0.999976 0.006896
0.265253007412 -0.716139018536 -0.516521394253 -0.000985 0.999976 0.006896
-0.734040379524 -0.717463791370 -0.494654506445 -0.000985 0.999976 0.006896
0.474183052778 -0.715544044971 -0.562037706375 -0.000985 0.999976 0.006896
-0.491858094931 -0.716279864311 -0.611037671566 -0.000985 0.999976 0.006896
-0.219448328018 -0.717902958393 -0.361557662487 -0.000985 0.999976 0.006896
0.149620413780 -0.715538561344 -0.611030697823 -0.000985 0.999976 0.006896
-0.691778182983 -0.718724131584 -0.326122581959 -0.000985 0.999976 0.006896
-0.504010319710 -0.716591298580 -0.572748005390 -0.000985 0.999976 0.006896
-0.199002027512 -0.219747617841 -0.615717589855 -0.000983 0.006883 0.999976
0.169994771481 -0.040995433927 -0.616898238659 -0.000983 0.006883 0.999976
0.077132701874 -0.165658265352 -0.616073608398 -0.000983 0.006883 0.999976
0.722344219685 -0.336902022362 -0.614934861660 -0.000983 0.006883 0.999976
-0.176813900471 -0.354220181704 -0.614827036858 -0.000983 0.006883 0.999976
-0.521761715412 -0.708546102047 -0.612483739853 -0.000983 0.006883 0.999976
0.110631167889 -0.054381646216 -0.616810083389 -0.000983 0.006883 0.999976
0.650914907455 -0.702230215073 -0.612516582012 -0.000983 0.006883 0.999976
0.719521760941 -0.229020938277 -0.615649163723 -0.000983 0.006883 0.999976
0.685755133629 -0.338911265135 -0.614921808243 -0.000983 0.006883 0.999976
-0.233057200909 -0.411363124847 -0.614449143410 -0.000983 0.006883 0.999976
0.498842537403 -0.010676478036 -0.617096483707 -0.000983 0.006883 0.999976
-0.157452762127 -0.246598526835 -0.615539491177 -0.000983 0.006883 0.999976
0.124668896198 -0.579738616943 -0.613331615925 -0.000983 0.006883 0.999976
0.081730484962 -0.676652610302 -0.612690269947 -0.000983 0.006883 0.999976
0.041130244732 -0.174041464925 -0.616018354893 -0.000983 0.006883 0.999976
-0.017091751099 -0.173675179482 -0.616021215916 -0.000983 0.006883 0.999976
0.375513404608 -0.454965025187 -0.614155828953 -0.000983 0.006883 0.999976
0.606605529785 -0.291178494692 -0.615238487720 -0.000983 0.006883 0.999976
0.335231035948 -0.035096600652 -0.616936028004 -0.000983 0.006883 0.999976
0.090979993343 -0.239446908236 -0.615584909916 -0.000983 0.006883 0.999976
-0.164770126343 -0.694087088108 -0.612576723099 -0.000983 0.006883 0.999976
-0.401230990887 -0.493628770113 -0.613905787468 -0.000983 0.006883 0.999976
0.404116153717 -0.394525438547 -0.614555776119 -0.000983 0.006883 0.999976
0.535875201225 -0.231572329998 -0.615633666515 -0.000983 0.006883 0.999976
-0.023545503616 -0.252011507750 -0.615502595901 -0.000983 0.006883 0.999976
-0.250388324261 -0.365056872368 -0.614755868912 -0.000983 0.006883 0.999976
0.563878953457 -0.590159535408 -0.613259255886 -0.000983 0.006883 0.999976
0.301585227251 -0.711927294731 -0.612455010414 -0.000983 0.006883 0.999976
0.353495419025 0.014888381585 -0.617266893387 -0.000983 0.006883 0.999976
0.384084790945 -0.011552923359 -0.617091536522 -0.000983 0.006883 0.999976
-0.168318092823 -0.459703445435 -0.614128589630 -0.000983 0.006883 0.999976
0.604551374912 0.247072935104 -0.618802249432 -0.000983 0.006883 0.999976
0.705771923065 -0.180441901088 -0.615970909595 -0.000983 0.006883 0.999976
-0.035281479359 -0.176746085286 -0.616001009941 -0.000983 0.006883 0.999976
0.492472648621 -0.407918006182 -0.614466428757 -0.000983 0.006883 0.999976
-0.300250828266 -0.564659178257 -0.613434672356 -0.000983 0.006883 0.999976
0.500932633877 -0.500449419022 -0.613853693008 -0.000983 0.006883 0.999976
0.163906395435 -0.202623933554 -0.615828156471 -0.000983 0.006883 0.999976
0.592433929443 -0.402321755886 -0.614502727985 -0.000983 0.006883 0.999976
0.238376379013 -0.382591098547 -0.614636063576 -0.000983 0.006883 0.999976
0.026222467422 -0.047942295671 -0.616853356361 -0.000983 0.006883 0.999976
0.418633550406 -0.425657629967 -0.614349544048 -0.000983 0.006883 0.999976
0.668756067753 -0.598569095135 -0.613202750683 -0.000983 0.006883 0.999976
0.354971677065 -0.086974114180 -0.616592407227 -0.000983 0.006883 0.999976
0.013445615768 -0.179412782192 -0.615983009338 -0.000983 0.006883 0.999976
-0.333386123180 -0.448708593845 -0.614202678204 -0.000983 0.006883 0.999976
0.409259170294 0.192482396960 -0.618442296982 -0.000983 0.006883 0.999976
0.676704645157 -0.544484794140 -0.613560795784 -0.000983 0.006883 0.999976
-0.303044497967 -0.695130348206 -0.612570881844 -0.000983 0.006883 0.999976
0.479885160923 0.338319152594 -0.619407296181 -0.000983 0.006883 0.999976
0.006728529930 -0.307320535183 -0.615136206150 -0.000983 0.006883 0.999976
0.314152300358 -0.436383277178 -0.614279329777 -0.000983 0.006883 0.999976
0.077825009823 -0.147784650326 -0.616191923618 -0.000983 0.006883 0.999976
-0.064679205418 -0.455948770046 -0.614152669907 -0.000983 0.006883 0.999976
0.456317126751 -0.169103130698 -0.616047859192 -0.000983 0.006883 0.999976
0.384464502335 0.227331280708 -0.618673205376 -0.000983 0.006883 0.999976
0.693453669548 0.042294513434 -0.617445707321 -0.000983 0.006883 0.999976
-0.139968812466 -0.501252412796 -0.613853275776 -0.000983 0.006883 0.999976
0.012252151966 -0.710563123226 -0.612466275692 -0.000983 0.006883 0.999976
0.645255506039 -0.593002319336 -0.613239824772 -0.000983 0.006883 0.999976
0.563949525356 0.401917397976 -0.619827747345 -0.000983 0.006883 0.999976
0.078697085381 -0.204303741455 -0.615817725658 -0.000983 0.006883 0.999976
0.632568478584 0.477829962969 -0.620329856873 -0.000983 0.006883 0.999976
0.627723872662 -0.087536096573 -0.616586625576 -0.000983 0.006883 0.999976
-0.213829457760 -0.663061738014 -0.612782537937 -0.000983 0.006883 0.999976
0.105135560036 -0.322210043669 -0.615036845207 -0.000983 0.006883 0.999976
0.531752705574 -0.558442473412 -0.613469481468 -0.000983 0.006883 0.999976
0.663664877415 0.510701119900 -0.620547235012 -0.000983 0.006883 0.999976
0.039770364761 -0.476184844971 -0.614017903805 -0.000983 0.006883 0.999976
0.543261229992 -0.384939134121 -0.614618182182 -0.000983 0.006883 0.999976
0.220899462700 -0.418239504099 -0.614400148392 -0.000983 0.006883 0.999976
-0.266846001148 -0.378791719675 -0.614665091038 -0.000983 0.006883 0.999976
0.698175549507 -0.340294718742 -0.614912569523 -0.000983 0.006883 0.999976
0.581088125706 0.500211596489 -0.620478451252 -0.000983 0.006883 0.999976
0.581876337528 0.305629104376 -0.619190096855 -0.000983 0.006883 0.999976
0.181412816048 -0.501275062561 -0.613850653172 -0.000983 0.006883 0.999976
-0.233394324780 -0.313491284847 -0.615097165108 -0.000983 0.006883 0.999976
0.644380629063 0.310564428568 -0.619222283363 -0.000983 0.006883 0.999976
0.191387295723 0.005427995231 -0.617205440998 -0.000983 0.006883 0.999976
0.655595183372 0.071575656533 -0.617639899254 -0.000983 0.006883 0.999976
0.130317091942 -0.692330658436 -0.612586081028 -0.000983 0.006883 0.999976
-0.039793074131 -0.331316232681 -0.614977657795 -0.000983 0.006883 0.999976
-0.013949334621 -0.575341045856 -0.613361775875 -0.000983 0.006883 0.999976
0.390235632658 -0.063221968710 -0.616749405861 -0.000983 0.006883 0.999976
0.535586893559 -0.645977735519 -0.612889885902 -0.000983 0.006883 0.999976
0.676519572735 -0.426384419203 -0.614342749119 -0.000983 0.006883 0.999976
0.683709502220 -0.558763206005 -0.613466203213 -0.000983 0.006883 0.999976
-0.603769838810 -0.680099546909 -0.612672686577 -0.000983 0.006883 0.999976
-0.397069036961 -0.615926444530 -0.613095998764 -0.000983 0.006883 0.999976
-0.089026093483 -0.276810824871 -0.615338921547 -0.000983 0.006883 0.999976
-0.104931533337 -0.241835415363 -0.615570604801 -0.000983 0.006883 0.999976
-0.151456356049 -0.553195357323 -0.613509476185 -0.000983 0.006883 0.999976
0.362046092749 -0.347177207470 -0.614869594574 -0.000983 0.006883 0.999976
-0.056380391121 -0.204494848847 -0.615817487240 -0.000983 0.006883 0.999976
0.041532278061 -0.078011669219 -0.616654157639 -0.000983 0.006883 0.999976
0.319880157709 0.061797555536 -0.617577731609 -0.000983 0.006883 0.999976
0.489212721586 -0.502094030380 -0.613842904568 -0.000983 0.006883 0.999976
-0.608656227589 -0.607864022255 -0.613151013851 -0.000983 0.006883 0.999976
-0.488527357578 -0.713732540607 -0.612449109554 -0.000983 0.006883 0.999976
0.519312143326 0.012638651766 -0.617250680923 -0.000983 0.006883 0.999976
0.580543756485 0.254245340824 -0.618849873543 -0.000983 0.006883 0.999976
0.662331402302 0.506659328938 -0.620520472527 -0.000983 0.006883 0.999976
0.346196472645 -0.515451550484 -0.613755583763 -0.000983 0.006883 0.999976
0.738388836384 -0.027768788859 -0.525228500366 -0.997472 -0.009460 0.070422
0.730004727840 0.337013930082 -0.599552571774 -0.997472 -0.009460 0.070422
0.736071228981 0.275521546602 -0.521462917328 -0.997472 -0.009460 0.070422
0.740094900131 -0.577953517437 -0.567258298397 -0.997472 -0.009460 0.070422
0.742528498173 -0.055754777044 -0.470263242722 -0.997472 -0.009460 0.070422
0.744845449924 -0.491055220366 -0.489890873432 -0.997472 -0.009460 0.070422
0.749250888824 -0.576392531395 -0.438067972660 -0.997472 -0.009460 0.070422
0.751632392406 -0.549597442150 -0.401295959949 -0.997472 -0.009460 0.070422
0.731668829918 0.090650208294 -0.605690240860 -0.997472 -0.009460 0.070422
0.741239130497 -0.020016657189 -0.484138786793 -0.997472 -0.009460 0.070422
0.741694629192 -0.369008421898 -0.519628047943 -0.997472 -0.009460 0.070422
0.736344754696 -0.270206302404 -0.583140730858 -0.997472 -0.009460 0.070422
0.729788959026 0.448898017406 -0.589157402515 -0.997472 -0.009460 0.070422
0.754995584488 -0.417519211769 -0.338050544262 -0.997472 -0.009460 0.070422
0.726875305176 0.598946332932 -0.612191617489 -0.997472 -0.009460 0.070422
0.755186975002 -0.702855110168 -0.369617044926 -0.997472 -0.009460 0.070422
0.740036368370 0.027901461348 -0.495330393314 -0.997472 -0.009460 0.070422
0.744095563889 -0.237446248531 -0.470001846552 -0.997472 -0.009460 0.070422
0.746300876141 -0.155733674765 -0.429118394852 -0.997472 -0.009460 0.070422
0.732690751553 0.344680458307 -0.560787558556 -0.997472 -0.009460 0.070422
0.741658568382 -0.131759732962 -0.491647243500 -0.997472 -0.009460 0.070422
0.748918056488 -0.507026612759 -0.434427499771 -0.997472 -0.009460 0.070422
0.728786230087 0.502272546291 -0.596876561642 -0.997472 -0.009460 0.070422
0.736929476261 -0.199312478304 -0.566390037537 -0.997472 -0.009460 0.070422
0.743151366711 -0.484730154276 -0.512999892235 -0.997472 -0.009460 0.070422
0.753105878830 -0.279846310616 -0.348142683506 -0.997472 -0.009460 0.070422
0.739588916302 0.165146991611 -0.485154092312 -0.997472 -0.009460 0.070422
0.748190581799 -0.503982484341 -0.444311618805 -0.997472 -0.009460 0.070422
0.747682571411 0.116145074368 -0.407023668289 -0.993188 0.005439 0.116398
0.762999951839 0.645390868187 -0.297541141510 -0.993188 0.005439 0.116398
0.764431178570 0.744034707546 -0.289322853088 -0.993188 0.005439 0.116398
0.754570186138 0.580332279205 -0.367044359446 -0.993188 0.005439 0.116398
0.760261058807 -0.314850449562 -0.281719118357 -0.993188 0.005439 0.116398
0.759118437767 -0.037198707461 -0.302855312824 -0.993188 0.005439 0.116398
0.760286629200 0.732154011726 -0.324316740036 -0.993188 0.005439 0.116398
0.737548410892 0.631089925766 -0.514836907387 -0.993188 0.005439 0.116398
0.760943889618 0.120099276304 -0.293660938740 -0.993188 0.005439 0.116398
0.758271634579 0.394084632397 -0.327741503716 -0.993188 0.005439 0.116398
0.750427782536 0.327009737492 -0.392146497965 -0.993188 0.005439 0.116398
0.753758609295 0.467551618814 -0.369379907846 -0.993188 0.005439 0.116398
0.744984269142 0.367096990347 -0.440385043621 -0.993188 0.005439 0.116398
0.752604901791 0.726260125637 -0.389836013317 -0.993188 0.005439 0.116398
0.760940790176 0.495509147644 -0.309039026499 -0.993188 0.005439 0.116398
0.752672195435 0.033689230680 -0.360937476158 -0.993188 0.005439 0.116398
0.736507117748 0.363260746002 -0.512798070908 -0.993188 0.005439 0.116398
0.758794367313 -0.061780497432 -0.304623901844 -0.993188 0.005439 0.116398
0.765227556229 0.361402988434 -0.266857773066 -0.993188 0.005439 0.116398
0.762834429741 -0.233757033944 -0.263005793095 -0.993188 0.005439 0.116398
0.753265142441 0.599733829498 -0.379009366035 -0.993188 0.005439 0.116398
0.755233526230 -0.284075707197 -0.326016306877 -0.993188 0.005439 0.116398
0.756717622280 0.183758854866 -0.332443445921 -0.993188 0.005439 0.116398
