0.291517317295 -1.620756626129 -0.028848394752 0.000978 0.999999 0.000978
0.323684364557 -1.620756626129 -0.029419615865 0.000978 0.999999 0.000978
0.404644101858 -1.620756626129 0.046902030706 0.000978 0.999999 0.000978
0.458620399237 -1.620756626129 0.003384772455 0.000978 0.999999 0.000978
0.489986419678 -1.624167561531 -0.021350614727 0.999298 0.001012 0.037461
0.487600475550 -1.767146468163 0.043069250882 0.999298 0.001012 0.037461
0.544944286346 -1.577625632286 0.018367746845 0.991139 0.023466 0.130737
0.543060183525 -1.406324982643 0.010414626449 0.923427 0.022079 0.383138
0.554743409157 -1.557580232620 -0.000001839362 0.608099 0.015237 0.793715
0.384376674891 -1.304054260254 -0.005783728790 0.001096 -0.130369 0.991465
0.597985267639 -1.502203226089 0.014567598701 -0.991139 -0.023466 0.130737
0.579370737076 -1.496151924133 0.048317421228 -0.381769 -0.008998 -0.924214
0.561049759388 -1.513795375824 0.047762002796 0.381769 0.008998 -0.924214
0.214094921947 -1.322532534599 0.045839320868 0.001369 0.609379 -0.792878
0.134328469634 -1.328180074692 0.041420541704 0.001369 0.792878 -0.609379
0.053790509701 -1.333035349846 0.034483421594 0.001277 0.923189 -0.384343
0.167954534292 -1.335515141487 0.027340166271 0.001096 0.991465 -0.130369
0.187608331442 -1.280078887939 0.021371599287 0.001096 -0.991465 0.130369
-0.098568797112 -1.283870339394 0.035918641835 0.001369 -0.792878 -0.609379
0.039503287524 -1.289027571678 0.042223863304 0.001369 -0.609379 -0.792878
-0.001782588661 -1.292388677597 0.044801127166 0.001369 -0.609379 -0.792878
0.168072372675 -1.313681483269 0.049133732915 0.001096 0.130369 -0.991465
0.491246998310 -1.665544033051 0.049105212092 0.001096 0.130369 -0.991465
0.478034138680 -1.721616864204 0.058537833393 -0.037461 0.001012 0.999298
0.446583926678 -1.662717819214 0.057373017073 -0.037461 0.001012 0.999298
0.421585857868 -1.803988575935 0.071278579533 0.999999 0.000978 0.000978
0.380054175854 -1.692393422127 0.098253324628 0.004907 0.000981 0.999987
0.343370467424 -1.776122808456 0.098445557058 0.004907 0.000981 0.999987
0.404645383358 -1.774229049683 0.004258326720 0.000978 0.999999 0.000978
0.407558560371 -1.774229049683 -0.011524139903 0.000978 0.999999 0.000978
0.421585857868 -1.984531760216 0.012845447287 0.999999 0.000978 0.000978
0.421585857868 -1.969815373421 0.018494168296 0.999999 0.000978 0.000978
0.325944244862 -1.823907852173 0.005836459808 0.000978 0.000978 0.999999
0.171749040484 -1.797391176224 0.005836459808 0.000978 0.000978 0.999999
0.280346482992 -1.680634021759 0.021893471479 0.000978 0.000978 0.999999
0.185319289565 -1.722338676453 0.019503647462 -0.282560 0.001213 0.959249
0.169816151261 -1.662429809570 0.014943910763 -0.282560 0.001213 0.959249
0.193552792072 -1.620756626129 -0.014715481550 0.000978 0.999999 0.000978
0.169892534614 -1.814019441605 -0.004613718949 -0.999999 0.000978 0.000978
0.283446699381 -1.951264381409 -0.028943149373 0.000978 0.000978 -0.999999
0.284366726875 -1.892059445381 -0.028943149373 0.000978 0.000978 -0.999999
0.382457733154 -2.019580841064 -0.028943149373 0.000978 0.000978 -0.999999
0.345611929893 -1.912356972694 -0.028943149373 0.000978 0.000978 -0.999999
-0.285802066326 -1.885724782944 -0.028943149373 0.000978 0.000978 -0.999999
0.125225707889 -2.003879308701 -0.028943149373 0.000978 0.000978 -0.999999
0.145346984267 -1.905066967010 -0.028943149373 0.000978 0.000978 -0.999999
0.045795626938 -1.966899991035 -0.028943149373 0.000978 0.000978 -0.999999
0.178193598986 -1.880136489868 -0.028943149373 0.000978 0.000978 -0.999999
0.109265387058 -1.867788791656 -0.028943149373 0.000978 0.000978 -0.999999
0.240484386683 -1.924220561981 -0.028943149373 0.000978 0.000978 -0.999999
0.161396905780 -1.870677351952 -0.028943149373 0.000978 0.000978 -0.999999
-0.384005010128 -2.039684057236 -0.028943149373 0.000978 0.000978 -0.999999
-0.367995589972 -1.964660882950 -0.028943149373 0.000978 0.000978 -0.999999
-0.239003941417 -2.072484731674 -0.028943149373 0.000978 0.000978 -0.999999
-0.165615051985 -1.984618186951 -0.028943149373 0.000978 0.000978 -0.999999
-0.398692309856 -1.866937160492 -0.028943149373 0.000978 0.000978 -0.999999
0.104255080223 -2.072501182556 -0.028943149373 0.000978 0.000978 -0.999999
-0.271753907204 -2.036945581436 -0.028943149373 0.000978 0.000978 -0.999999
0.031327456236 -2.072479248047 -0.028943149373 0.000978 0.000978 -0.999999
-0.009245753288 -2.078491210938 -0.028943149373 0.000978 0.000978 -0.999999
-0.079647958279 -2.093836069107 -0.028943149373 0.000978 0.000978 -0.999999
-0.262888669968 -1.908329725266 -0.028943149373 0.000978 0.000978 -0.999999
-0.175993531942 -2.096451997757 -0.013741713949 0.000978 -0.999999 0.000978
-0.189231559634 -2.096451997757 0.024261636660 0.000978 -0.999999 0.000978
-0.219805777073 -2.096451997757 -0.018884908408 0.000978 -0.999999 0.000978
0.153441414237 -2.096451997757 -0.003503249958 0.000978 -0.999999 0.000978
0.356360435486 -2.096451997757 0.053735341877 0.000978 -0.999999 0.000978
0.068996399641 -2.096451997757 0.039921142161 0.000978 -0.999999 0.000978
0.210812270641 -2.096451997757 -0.001426905394 0.000978 -0.999999 0.000978
0.142125442624 -2.096451997757 0.013987194747 0.000978 -0.999999 0.000978
0.117131769657 -2.077983617783 0.071893438697 0.001143 -0.188635 0.982047
0.238287851214 -2.084586143494 0.070618376136 0.001143 -0.188635 0.982047
0.230355530977 -2.051924228668 0.076925978065 0.001143 -0.188635 0.982047
0.011939942837 -2.067668199539 0.073885545135 0.001143 -0.188635 0.982047
0.138185948133 -2.047655344009 0.077750369906 0.001143 -0.188635 0.982047
0.125204175711 -2.047991275787 0.077685520053 0.001143 -0.188635 0.982047
-0.372421562672 -1.998804092407 0.087184429169 0.001143 -0.188635 0.982047
-0.344262421131 -2.076490402222 0.072181843221 0.001143 -0.188635 0.982047
-0.184569478035 -1.994945645332 0.087929546833 0.001143 -0.188635 0.982047
-0.134197801352 -2.025235414505 0.082080036402 0.001143 -0.188635 0.982047
-0.187079519033 -2.042904853821 0.078667789698 0.001143 -0.188635 0.982047
-0.264382958412 -2.017289638519 0.083614535630 0.001143 -0.188635 0.982047
-0.239845886827 -1.949746251106 0.096658326685 0.001143 -0.188635 0.982047
0.136252760887 -1.895478010178 0.095178946853 0.001020 0.045917 0.998945
0.268769234419 -1.902825474739 0.095514036715 0.001020 0.045917 0.998945
-0.218081057072 -1.920930266380 0.096339717507 0.001020 0.045917 0.998945
0.239906057715 -1.872037529945 0.094109915197 0.001020 0.045917 0.998945
-0.056379675865 -1.907004952431 0.095704644918 0.001020 0.045917 0.998945
-0.113207697868 -1.899314403534 0.095353908837 0.001020 0.045917 0.998945
0.178415000439 -1.848531007767 0.093037873507 0.001020 0.045917 0.998945
-0.189608991146 -1.886533737183 0.094771035016 0.001020 0.045917 0.998945
-0.145581424236 -1.877763986588 0.094371072948 0.001020 0.045917 0.998945
-0.381214350462 -1.876941323280 0.094333559275 0.001020 0.045917 0.998945
0.233335599303 -1.845322728157 0.072160393000 0.000978 0.999999 0.000978
0.244690656662 -1.845322728157 0.015946563333 0.000978 0.999999 0.000978
0.421585857868 -1.920973181725 0.055199891329 0.999999 0.000978 0.000978
0.140469104052 -1.845322728157 0.015970058739 0.000978 0.999999 0.000978
0.010580450296 -1.845322728157 0.039562262595 0.000978 0.999999 0.000978
-0.010679498315 -1.845322728157 0.008528435603 0.000978 0.999999 0.000978
0.029386997223 -1.845322728157 -0.023745046929 0.000978 0.999999 0.000978
-0.327846080065 -1.845322728157 0.071892157197 0.000978 0.999999 0.000978
-0.235863894224 -1.845322728157 0.086670055985 0.000978 0.999999 0.000978
-0.395268678665 -1.845322728157 0.042347490788 0.000978 0.999999 0.000978
-0.380591452122 -1.845322728157 0.074889428914 0.000978 0.999999 0.000978
-0.431078612804 -2.023518800735 0.000286761671 -0.999999 0.000978 0.000978
-0.431078612804 -1.958202719688 0.062169414014 -0.999999 0.000978 0.000978
0.391561567783 -1.814265370369 0.017739323899 0.000978 -0.999999 0.000978
0.404039353132 -1.814265370369 0.076636902988 0.000978 -0.999999 0.000978
0.348253935575 -1.814265370369 0.059642583132 0.000978 -0.999999 0.000978
0.289097219706 -1.834452033043 0.060068428516 0.102941 0.881346 -0.461120
0.079609140754 -1.783697485924 0.055875070393 0.000978 -0.999999 0.000978
-0.016358429566 -1.783006072044 0.075410947204 0.991465 0.001096 -0.130369
-0.217811480165 -1.755072355270 0.097554422915 -0.609379 0.001369 -0.792878
-0.137384176254 -1.816335558891 0.050285354257 0.001275 -0.924466 0.381263
-0.159329876304 -1.849168896675 0.041495032609 0.130007 0.982953 -0.130007
-0.056164711714 -1.721339106560 0.100562214851 -0.381263 0.001275 -0.924466
-0.098035171628 -1.829723954201 0.034846186638 0.923954 0.379363 0.048907
-0.060023404658 -1.786500692368 -0.019999841228 -0.001096 -0.991465 0.130369
-0.099119000137 -1.784123778343 -0.001945417142 -0.001096 -0.991465 0.130369
0.019317209721 -1.725678443909 0.102959655225 -0.130369 0.001096 -0.991465
0.044635310769 -1.807877898216 0.002367971465 -0.991397 0.079083 0.104297
0.042681973428 -1.799898624420 0.005401072558 0.001275 -0.381263 -0.924466
0.424493044615 -1.680736780167 -0.023954629898 0.018902 0.000995 -0.999821
-0.319242119789 -1.648443102837 0.045010890812 -0.999999 0.000978 0.000978
-0.146320149302 -1.660361886024 0.077667102218 0.001374 0.633537 0.773712
-0.132139801979 -1.669730663300 0.088381938636 0.001344 0.850780 0.525521
-0.248513013124 -1.671569347382 0.091663353145 0.001327 0.874782 0.484515
-0.109138667583 -1.701429486275 0.102260053158 0.001100 0.135260 0.990809
-0.343228340149 -1.774310946465 -0.058067429811 0.722131 -0.691755 0.001381
-0.453702419996 -1.765930175781 -0.064290978014 -0.481358 -0.876523 0.001326
-0.389633029699 -1.761953353882 0.010189842433 0.000978 0.000978 0.999999
-0.468102037907 -1.740081787109 0.010189842433 0.000978 0.000978 0.999999
-0.364433109760 -1.686162471771 -0.065434217453 0.000978 0.000978 -0.999999
-0.469288915396 -1.726364493370 0.010189842433 0.000978 0.000978 0.999999
-0.329514384270 -1.706019043922 -0.011895682663 0.999999 0.000978 0.000978
-0.397601366043 -1.622582197189 -0.065434217453 0.000978 0.000978 -0.999999
-0.486045420170 -1.684524655342 -0.065434217453 0.000978 0.000978 -0.999999
-0.431240707636 -1.686488032341 -0.065434217453 0.000978 0.000978 -0.999999
-0.423035502434 -1.648739576340 0.010189842433 0.000978 0.000978 0.999999
-0.503004968166 -1.659002780914 -0.063266277313 -0.999999 0.000978 0.000978
-0.431638777256 -1.620279073715 -0.065434217453 0.000978 0.000978 -0.999999
-0.431146383286 -1.619417667389 -0.006485838443 0.000978 -0.999999 0.000978
-0.329514384270 -1.677194118500 0.022176649421 -0.999999 0.000978 0.000978
-0.329514384270 -1.658399701118 -0.056783095002 -0.999999 0.000978 0.000978
-0.395339816809 -1.779562711716 -0.051613721997 0.000978 0.999999 0.000978
-0.407618939877 -1.779562711716 -0.031042572111 0.000978 0.999999 0.000978
-0.375371724367 -1.698365211487 0.030208021402 0.000978 0.000978 -0.999999
-0.368710070848 -1.670006752014 0.041329197586 0.000978 0.000978 -0.999999
0.410202682018 -1.544050931931 -0.065434217453 0.000978 0.000978 -0.999999
0.287271410227 -1.564697265625 -0.065434217453 0.000978 0.000978 -0.999999
0.490380823612 -1.515312433243 -0.065434217453 0.000978 0.000978 -0.999999
0.431910127401 -1.413682818413 -0.065434217453 0.000978 0.000978 -0.999999
0.416256576777 -1.387785077095 -0.065434217453 0.000978 0.000978 -0.999999
0.230765402317 -1.542490363121 -0.065434217453 0.000978 0.000978 -0.999999
0.333003133535 -1.452281475067 -0.065434217453 0.000978 0.000978 -0.999999
0.209829315543 -1.455764532089 -0.065434217453 0.000978 0.000978 -0.999999
0.189539849758 -1.392332196236 -0.049221184105 -0.999999 0.000978 0.000978
0.486109107733 -1.578546166420 0.012414077297 0.000978 0.000978 0.999999
0.364108085632 -1.587096810341 -0.019482700154 0.000978 -0.999999 0.000978
0.329965978861 -1.587096810341 -0.049471035600 0.000978 -0.999999 0.000978
0.496484667063 -1.492921829224 -0.052611712366 0.999999 0.000978 0.000978
0.293828845024 -1.351248979568 -0.065434217453 0.000978 0.000978 -0.999999
0.484486371279 -1.390901088715 0.024939874187 0.999999 0.000978 0.000978
0.229960441589 -1.349103450775 -0.043094504625 0.000978 0.999999 0.000978
0.458348900080 -1.330005168915 -0.005170322955 -0.515225 -0.305964 0.800580
0.404969930649 -1.340235233307 -0.024927504361 0.999999 0.000978 0.000978
0.388796955347 -1.298672795296 -0.051790617406 0.000978 0.000978 -0.999999
0.278188407421 -1.307089805603 -0.047670684755 -0.999999 0.000978 0.000978
-0.069620579481 -1.285382032394 -0.023311678320 0.001275 0.381263 0.924466
0.236837595701 -1.283165454865 -0.023817114532 0.001096 -0.130369 0.991465
-0.125258758664 -1.281539916992 -0.023423913866 0.001275 -0.381263 0.924466
0.245868921280 -1.301015377045 -0.016014652327 0.001369 0.609379 -0.792878
0.324121713638 -1.273479342461 -0.015164732933 0.000978 0.999999 0.000978
0.390167504549 -1.273479342461 -0.044760309160 0.000978 0.999999 0.000978
0.364758998156 -1.445440888405 0.012414077297 0.000978 0.000978 0.999999
0.281539022923 -1.406211972237 0.012414077297 0.000978 0.000978 0.999999
0.347813308239 -1.568382024765 0.025759551674 0.000978 0.000978 0.999999
0.414542138577 -1.491088151932 0.025759551674 0.000978 0.000978 0.999999
0.443014293909 -1.501229524612 0.025759551674 0.000978 0.000978 0.999999
0.345365017653 -1.486357927322 0.025759551674 0.000978 0.000978 0.999999
-0.016131043434 -1.583512902260 0.047475095838 0.001251 -0.341642 0.939829
0.030859082937 -1.340543746948 0.052091222256 0.001189 0.248404 0.968656
-0.231907755136 -1.451746702194 0.080464392900 0.001189 0.248404 0.968656
0.178538545966 -1.425549030304 0.022450411692 0.999999 0.000978 0.000978
0.178538545966 -1.403493285179 -0.031844854355 0.999999 0.000978 0.000978
0.178538545966 -1.450158834457 -0.016847714782 0.999999 0.000978 0.000978
-0.095868960023 -1.438243627548 -0.065434217453 0.000978 0.000978 -0.999999
0.166755273938 -1.431925654411 -0.065434217453 0.000978 0.000978 -0.999999
-0.252551615238 -1.343854784966 -0.065434217453 0.000978 0.000978 -0.999999
0.068934567273 -1.454485058784 -0.065434217453 0.000978 0.000978 -0.999999
0.136243611574 -1.522893548012 -0.065434217453 0.000978 0.000978 -0.999999
0.145595654845 -1.504860401154 -0.065434217453 0.000978 0.000978 -0.999999
-0.260649412870 -1.377094984055 -0.065434217453 0.000978 0.000978 -0.999999
-0.077784866095 -1.513613700867 -0.065434217453 0.000978 0.000978 -0.999999
-0.094143733382 -1.510944604874 -0.065434217453 0.000978 0.000978 -0.999999
-0.224280208349 -1.554645299911 -0.065434217453 0.000978 0.000978 -0.999999
-0.162436425686 -1.424464821815 -0.065434217453 0.000978 0.000978 -0.999999
-0.213358581066 -1.469579815865 -0.065434217453 0.000978 0.000978 -0.999999
-0.130192115903 -1.586881637573 -0.030140586197 0.000978 -0.999999 0.000978
-0.244466274977 -1.586881637573 -0.063758000731 0.000978 -0.999999 0.000978
0.133836746216 -1.586881637573 0.017994264141 0.000978 -0.999999 0.000978
0.166859358549 -1.586881637573 -0.050885215402 0.000978 -0.999999 0.000978
0.177962258458 -1.586881637573 -0.053469903767 0.000978 -0.999999 0.000978
-0.328587710857 -1.544605135918 -0.002367166802 -0.999999 0.000978 0.000978
-0.328587710857 -1.489594221115 0.027949562296 -0.999999 0.000978 0.000978
-0.305816859007 -1.576507568359 0.050030220300 0.001251 -0.341642 0.939829
0.033678479493 -1.517610430717 0.084388636053 0.608711 0.745393 0.271774
-0.102265425026 -1.532606840134 0.090833455324 -0.793375 0.572396 0.207168
-0.279606878757 -1.530435323715 0.092878326774 0.001251 -0.341642 0.939829
-0.200599908829 -1.514523625374 0.072638757527 0.001251 -0.341642 0.939829
0.137285903096 -1.501372098923 0.077435761690 -0.001251 -0.341642 0.939829
-0.151052147150 -1.512453317642 0.073393933475 -0.001251 -0.341642 0.939829
-0.012044169009 -1.557451248169 0.057648655027 -0.793375 -0.572396 -0.207168
-0.265969634056 -1.486601948738 0.081365495920 0.000978 0.000978 0.999999
0.064325273037 -1.455883264542 0.081365495920 0.000978 0.000978 0.999999
0.130922287703 -1.423838615417 0.093667998910 0.001355 -0.556887 0.830587
-0.130280628800 -1.418983340263 0.096918746829 0.001355 -0.556887 0.830587
0.034556418657 -1.367863535881 0.098533295095 0.001282 0.393609 0.919277
-0.039783492684 -1.370838046074 0.099811196327 0.001282 0.393609 0.919277
0.033549934626 -1.339147925377 0.086197070777 0.001282 0.393609 0.919277
-0.317149817944 -1.392668247223 0.109189406037 0.001282 0.393609 0.919277
-0.307271718979 -1.341348886490 0.076833739877 0.001189 0.968656 -0.248404
0.121854439378 -1.344131112099 0.065929129720 0.001189 0.968656 -0.248404
0.168775692582 -1.366523742676 0.092431761324 0.999999 0.000978 0.000978
-0.122532173991 -1.337767004967 0.050890617073 0.000978 0.999999 0.000978
-0.084669552743 -1.337767004967 0.030445909128 0.000978 0.999999 0.000978
-0.042347349226 -1.337767004967 0.027084866539 0.000978 0.999999 0.000978
0.105015218258 -1.337767004967 -0.006866239011 0.000978 0.999999 0.000978
0.172653526068 -1.337767004967 0.044561065733 0.000978 0.999999 0.000978
0.157346740365 -1.337767004967 0.016575641930 0.000978 0.999999 0.000978
-0.031366068870 -1.509518265724 0.117764413357 0.000978 0.000978 -0.999999
-0.035421710461 -1.511220216751 0.117791779339 0.000978 0.000978 -0.999999
-0.123441807926 -1.522093534470 0.117222629488 -0.615893 -0.212538 0.758619
-0.048427723348 -1.373844027519 0.116824328899 0.000978 0.000978 0.999999
-0.018536811695 -1.382996559143 0.116824328899 0.000978 0.000978 0.999999
-0.033911313862 -1.399085640907 0.116824328899 0.000978 0.000978 0.999999
-0.128473326564 -1.449099302292 0.116824328899 0.000978 0.000978 0.999999
-0.190697118640 -1.428835272789 0.116824328899 0.000978 0.000978 0.999999
-0.225715339184 -1.454169511795 0.116824328899 0.000978 0.000978 0.999999
-0.081009864807 -1.506651997566 0.116824328899 0.000978 0.000978 0.999999
-0.246114015579 -1.446598052979 0.116824328899 0.000978 0.000978 0.999999
-0.254875928164 -1.624937534332 0.116824328899 0.000978 0.000978 0.999999
0.020550757647 -1.605168938637 0.116824328899 0.000978 0.000978 0.999999
0.179969042540 -1.457654237747 0.116824328899 0.000978 0.000978 0.999999
0.128230571747 -1.552645325661 0.116824328899 0.000978 0.000978 0.999999
0.136843442917 -1.520799756050 0.116824328899 0.000978 0.000978 0.999999
-0.167829826474 -1.592959403992 0.116824328899 0.000978 0.000978 0.999999
0.184608563781 -1.764460206032 0.116824328899 0.000978 0.000978 0.999999
0.016752690077 -1.790470957756 0.116824328899 0.000978 0.000978 0.999999
-0.102177128196 -1.787683129311 0.116824328899 0.000978 0.000978 0.999999
-0.448649078608 -1.803665518761 0.116824328899 0.000978 0.000978 0.999999
0.036988139153 -1.808597326279 0.116824328899 0.000978 0.000978 0.999999
-0.209584474564 -1.840963602066 0.116824328899 0.000978 0.000978 0.999999
-0.037750434130 -1.841168522835 0.093263871968 0.000978 -0.999999 0.000978
-0.062431983650 -1.841168522835 0.086213447154 0.000978 -0.999999 0.000978
-0.487013697624 -1.811564803123 0.116620995104 -0.621510 -0.783405 0.001372
-0.430119454861 -1.782788395882 0.116824328899 0.000978 0.000978 0.999999
0.164567098022 -1.713019609451 0.120861515403 0.999999 0.000978 0.000978
-0.077106125653 -1.687089443207 0.116824328899 0.000978 0.000978 0.999999
-0.085122287273 -1.667427778244 0.124496303499 0.000978 0.000978 0.999999
0.021000728011 -1.680030941963 0.116951502860 0.000978 -0.999999 0.000978
-0.167838335037 -1.665300846100 0.121290810406 0.000978 0.999999 0.000978
-0.102142781019 -1.636700391769 0.124496303499 0.000978 0.000978 0.999999
0.164517313242 -1.630849719048 0.118956141174 0.000978 0.999999 0.000978
-0.171916484833 -1.630849719048 0.122400455177 0.000978 0.999999 0.000978
-0.164980515838 -1.380265474319 0.078975930810 0.000978 0.000978 -0.999999
-0.297385632992 -1.439363718033 0.078975930810 0.000978 0.000978 -0.999999
-0.183555111289 -1.416717529297 0.078975930810 0.000978 0.000978 -0.999999
-0.333225548267 -1.413795113564 0.078975930810 0.000978 0.000978 -0.999999
-0.199268728495 -1.530146837234 0.078975930810 0.000978 0.000978 -0.999999
0.054717212915 -1.444518446922 0.078975930810 0.000978 0.000978 -0.999999
-0.269628882408 -1.645251750946 0.078975930810 0.000978 0.000978 -0.999999
0.136110186577 -1.427299976349 0.078975930810 0.000978 0.000978 -0.999999
0.084718026221 -1.646546363831 0.078975930810 0.000978 0.000978 -0.999999
0.006981194019 -1.542785763741 0.078975930810 0.000978 0.000978 -0.999999
0.072928421199 -1.580838322639 0.078975930810 0.000978 0.000978 -0.999999
0.033834651113 -1.680939793587 0.078975930810 0.000978 0.000978 -0.999999
-0.419956982136 -1.787018060684 0.078975930810 0.000978 0.000978 -0.999999
0.168538585305 -1.780339598656 0.078975930810 0.000978 0.000978 -0.999999
-0.382321298122 -1.774992823601 0.078975930810 0.000978 0.000978 -0.999999
0.152332305908 -1.529134750366 0.078975930810 0.000978 0.000978 -0.999999
0.111031249166 -1.695747137070 0.078975930810 0.000978 0.000978 -0.999999
0.038711935282 -1.538436174393 0.078975930810 0.000978 0.000978 -0.999999
-0.353601098061 -1.760144472122 0.078975930810 0.000978 0.000978 -0.999999
0.076136365533 -1.476135253906 0.078975930810 0.000978 0.000978 -0.999999
-0.062094375491 -1.747263669968 0.078975930810 0.000978 0.000978 -0.999999
0.125743448734 -1.732370376587 0.078975930810 0.000978 0.000978 -0.999999
-0.105459839106 -1.810420989990 0.078975930810 0.000978 0.000978 -0.999999
0.109913542867 -1.815447926521 0.078975930810 0.000978 0.000978 -0.999999
0.191160231829 -1.797170162201 0.090749680996 0.871255 -0.490829 0.001330
0.192832902074 -1.640472173691 0.106904432178 0.999999 0.000978 0.000978
0.192832902074 -1.451292395592 0.098207697272 0.999999 0.000978 0.000978
0.188151657581 -1.379227042198 0.114182397723 0.923189 0.384343 0.001277
-0.450051754713 -1.748811125755 0.078975930810 0.000978 0.000978 -0.999999
-0.408699452877 -1.722152352333 0.078975930810 0.000978 0.000978 -0.999999
-0.533846139908 -1.748807430267 0.105326928198 -0.923189 -0.384343 0.001277
-0.370909035206 -1.694324374199 0.109480984509 0.001145 0.981537 -0.191268
-0.347867429256 -1.644511938095 0.099367156625 0.999999 0.000978 0.000978
-0.407444149256 -1.625499606133 0.088635697961 0.000978 0.999999 0.000978
-0.464889943600 -1.721832036972 0.078975930810 0.000978 0.000978 -0.999999
-0.420959830284 -1.720543146133 0.078975930810 0.000978 0.000978 -0.999999
-0.549279630184 -1.665877223015 0.116824328899 0.000978 0.000978 0.999999
-0.525493383408 -1.645807623863 0.078975930810 0.000978 0.000978 -0.999999
-0.052261315286 -1.360974550247 -0.049222033471 0.000978 0.000978 0.999999
-0.047376371920 -1.728530526161 -0.049094811082 0.000978 0.000978 0.999999
-0.084208853543 -1.682521104813 -0.049110736698 0.000978 0.000978 0.999999
-0.080793157220 -1.644408106804 -0.049123927951 0.000978 0.000978 0.999999
-0.069168470800 -1.387384653091 -0.049212776124 -0.000978 -0.000978 -0.999999
-0.074058040977 -1.271402478218 0.068160228431 -0.029310 -0.999558 -0.005053
-0.040072821081 -1.272057056427 0.011324115098 -0.029310 -0.999558 -0.005053
-0.007057599723 -1.553977489471 -0.049155879766 0.000978 0.000978 0.999999
-0.003098852932 -1.728027224541 -0.049095410854 0.000978 0.000978 0.999999
0.005305663683 -1.361230850220 -0.049222867936 -0.000978 0.000978 0.999999
0.012678408995 -1.468829751015 -0.049185246229 -0.000978 0.000978 0.999999
0.027455696836 -1.272255659103 0.003653768450 0.029309 -0.999545 -0.007075
0.090854689479 -1.447624802589 -0.049191407859 0.000978 -0.000978 -0.999999
0.093770533800 -1.654353380203 -0.049120150506 0.000978 -0.000978 -0.999999
0.106343626976 -1.769274950027 -0.049079991877 0.000978 -0.000978 -0.999999
0.110807679594 -1.925360441208 -0.049025747925 0.000978 -0.000978 -0.999999
0.134841933846 -1.734821319580 -0.049088899046 0.000978 -0.000978 -0.999999
0.130217015743 -1.697093725204 -0.049102295190 0.000978 -0.000978 -0.999999
0.155399680138 -1.819120645523 -0.049057930708 0.000978 -0.000978 -0.999999
0.150318518281 -1.824610948563 -0.049056563526 0.000978 -0.000978 -0.999999
0.163518771529 -1.855673313141 -0.049044348300 0.000978 -0.000978 -0.999999
0.210877388716 -1.848568916321 -0.049040738493 0.000978 -0.000978 -0.999999
0.265494376421 -1.898333668709 -0.049009766430 0.000978 -0.000978 -0.999999
0.230781853199 -1.533787488937 -0.049146685749 0.000978 -0.000978 -0.999999
0.207661926746 -1.328719019890 -0.049223586917 0.000978 -0.000978 -0.999999
0.223106622696 -1.289615750313 -0.049235552549 0.000978 -0.000978 -0.999999
0.282794624567 -1.334524750710 -0.049205280840 0.000978 -0.000978 -0.999999
0.302719920874 -1.265065312386 -0.049224469811 0.000978 -0.000978 -0.999999
0.320598483086 -1.273049950600 -0.049218852073 0.000978 -0.000978 -0.999999
0.350284337997 -1.228100538254 -0.043602533638 0.301575 -0.937775 -0.172132
0.451468646526 -1.211972355843 0.043125305325 0.253729 -0.955135 -0.152769
0.455912917852 -1.209121942520 0.032635439187 0.253729 -0.955135 -0.152769
0.575827419758 -1.208376884460 0.106821022928 -0.699299 -0.280039 0.657693
0.518531620502 -1.196079492569 0.051301717758 -0.699299 -0.280039 0.657693
0.430470794439 -1.225733041763 -0.045735567808 -0.709784 -0.018200 0.704184
0.408013343811 -1.258524417877 -0.049202449620 0.000978 -0.000978 -0.999999
0.366105288267 -1.369911909103 -0.049165494740 0.000978 -0.000978 -0.999999
0.364945918322 -1.397393226624 -0.049147278070 0.000979 -0.000979 -0.999999
0.692713439465 -1.284248828888 0.080464877188 -0.544695 -0.023324 0.838310
0.696541488171 -1.271013379097 0.083311416209 -0.544695 -0.023324 0.838310
0.587935924530 -1.295677065849 0.013415992260 -0.537116 0.020501 0.843259
0.372737348080 -1.426597237587 -0.049114134163 0.000978 -0.000978 -0.999999
0.430079162121 -1.402312517166 -0.049099754542 0.000978 -0.000978 -0.999999
0.524823844433 -1.394956707954 -0.029380349442 -0.512468 -0.012169 0.858620
0.718589484692 -1.448608994484 0.085605695844 -0.512468 -0.012169 0.858620
0.639905571938 -1.472705841064 0.035868074745 -0.519653 -0.086846 0.849952
0.635145068169 -1.505411386490 0.031139034778 -0.496537 -0.012111 0.867931
0.453411996365 -1.501032948494 -0.049078714103 0.000978 -0.000978 -0.999999
0.398122429848 -1.521250247955 -0.049093119800 0.000978 -0.000978 -0.999999
0.424894809723 -1.595431804657 -0.049062624574 0.000978 -0.000978 -0.999999
0.694742679596 -1.677757620811 0.046493504196 -0.436168 -0.006549 0.899842
0.535972297192 -1.624265074730 -0.029867554083 -0.436168 -0.006549 0.899842
0.558387517929 -1.637552261353 -0.020353414118 -0.520631 -0.444603 0.728884
0.591746449471 -1.732433676720 0.037585321814 -0.001381 0.688930 0.724826
0.496884018183 -1.838561892509 0.038572199643 0.497416 0.009385 -0.867461
0.513125419617 -1.989697217941 0.046399392188 0.497416 0.009385 -0.867461
0.489725500345 -1.855445742607 0.034294765443 0.497416 0.009385 -0.867461
0.358877629042 -1.746196746826 -0.038924872875 0.450867 -0.017290 -0.892424
0.443417966366 -2.002382278442 0.009237967432 0.450867 -0.017290 -0.892424
0.399069726467 -1.974634289742 -0.011752560735 0.279780 -0.210183 -0.936775
0.400069296360 -2.050193548203 0.006662655622 0.169905 -0.310801 -0.935166
0.422883450985 -2.127414226532 0.041260872036 0.110899 -0.365556 -0.924159
0.262941032648 -1.978324651718 -0.032656818628 0.106364 -0.393684 -0.913071
0.327877968550 -2.104275703430 0.033422995359 0.036497 -0.458234 -0.888082
0.282161980867 -2.035322666168 -0.004126492888 0.036497 -0.458234 -0.888082
0.246276214719 -2.161053180695 0.062069311738 0.009307 -0.472016 -0.881541
0.175436720252 -2.009727001190 -0.021350208670 0.045018 -0.467915 -0.882626
0.122660659254 -1.974605202675 -0.042710520327 0.044961 -0.470042 -0.881498
0.124246299267 -2.116026639938 0.035508830100 0.001329 -0.487672 -0.873026
0.003547447966 -1.978848338127 -0.041075207293 0.001329 -0.487672 -0.873026
0.052841346711 -2.157253265381 0.058525003493 0.001329 -0.487672 -0.873026
0.025285210460 -2.089361667633 0.020622245967 0.001329 -0.487672 -0.873026
-0.029549375176 -1.992284178734 -0.033574271947 0.001329 -0.487672 -0.873026
-0.074543476105 -2.144981861115 0.051674030721 0.001329 -0.487672 -0.873026
-0.085868634284 -2.055732250214 0.001847632229 0.001329 -0.487672 -0.873026
-0.158371999860 -2.187533855438 0.075430072844 0.001329 -0.487672 -0.873026
-0.168655231595 -2.081354141235 0.016443088651 -0.009347 -0.484714 -0.874622
-0.193439871073 -2.104156494141 0.029673345387 -0.044961 -0.470042 -0.881498
-0.108902879059 -1.748214244843 -0.049087531865 -0.000978 -0.000978 -0.999999
-0.140888109803 -1.715144157410 -0.049095664173 -0.000978 -0.000978 -0.999999
-0.143875688314 -1.385325551033 -0.049209881574 -0.000978 -0.000978 -0.999999
-0.286126196384 -1.264384508133 0.123693712056 -0.035799 -0.999296 -0.011251
-0.284682095051 -1.263481378555 0.101703107357 -0.241063 -0.965527 -0.098211
-0.380117565393 -1.253338456154 0.215936511755 -0.198206 -0.976255 -0.087407
-0.416070580482 -1.241300463676 0.168192043900 -0.196697 -0.976064 -0.092782
-0.451593518257 -1.232964396477 0.164171069860 -0.255566 -0.958045 -0.129749
-0.363104403019 -1.235029578209 0.009511083364 -0.301078 -0.938978 -0.166349
-0.439010411501 -1.218666076660 0.054997000843 -0.301078 -0.938978 -0.166349
-0.578670024872 -1.196987867355 0.158821210265 -0.253287 -0.956127 -0.147198
-0.574212372303 -1.202269673347 0.185345932841 -0.253287 -0.956127 -0.147198
-0.574027240276 -1.190823674202 0.110074229538 0.705483 -0.279953 0.651092
-0.436684072018 -1.243703365326 -0.045085906982 0.718099 -0.018197 0.695703
-0.663231074810 -1.234829664230 0.176135629416 -0.195114 -0.967817 -0.158934
-0.483017683029 -1.240045428276 -0.011137887836 -0.267444 -0.929686 -0.253293
-0.604747951031 -1.228947997093 0.069998338819 -0.015283 -0.999505 0.027509
-0.764543712139 -1.224862813950 0.170963540673 0.043407 -0.993910 0.101283
-0.748701930046 -1.254665374756 0.117317445576 0.551089 -0.020614 0.834192
-0.615769028664 -1.234628677368 0.029691293836 0.551089 -0.020614 0.834192
-0.704966545105 -1.302441477776 0.087316185236 0.543477 0.020534 0.839173
-0.659190773964 -1.284706830978 0.057188984007 0.543477 0.020534 0.839173
-0.665608525276 -1.328523397446 0.060597397387 0.545939 -0.081249 0.833876
-0.781657576561 -1.412818431854 0.128347277641 0.545939 -0.081249 0.833876
-0.666578114033 -1.407305121422 0.053898662329 0.518815 -0.014901 0.854757
-0.629101097584 -1.388208985329 0.031396865845 0.518815 -0.014901 0.854757
-0.659048140049 -1.452361226082 0.048261255026 0.528379 -0.086876 0.844552
-0.757185876369 -1.516730427742 0.102902382612 0.528379 -0.086876 0.844552
-0.673008680344 -1.512048363686 0.051507651806 0.502912 -0.012135 0.864253
-0.783197045326 -1.598450779915 0.108494654298 0.520430 -0.136338 0.842950
-0.736166298389 -1.617033958435 0.076342009008 0.520430 -0.136338 0.842950
-0.668990135193 -1.568204522133 0.042743165046 0.520430 -0.136338 0.842950
-0.503717482090 -1.493487715721 -0.047047726810 0.442471 -0.006565 0.896759
-0.604901731014 -1.578193664551 0.002147853374 0.442471 -0.006565 0.896759
-0.438396155834 -1.471950411797 -0.049089264125 -0.000978 -0.000978 -0.999999
-0.350889027119 -1.496802926064 -0.049113277346 -0.000978 -0.000978 -0.999999
-0.496420562267 -1.255648374557 -0.049099348485 -0.000978 -0.000978 -0.999999
-0.487769305706 -1.246095538139 -0.049112875015 -0.002944 -0.002944 -0.999991
-0.338021308184 -1.425167798996 -0.049157369882 -0.000978 -0.000978 -0.999999
-0.316821277142 -1.308023929596 -0.049208793789 -0.000978 -0.000978 -0.999999
-0.312240540981 -1.329208374023 -0.049202561378 -0.000978 -0.000978 -0.999999
-0.291607469320 -1.281449079514 -0.049222577363 -0.000978 -0.000978 -0.999999
-0.182416021824 -1.300150156021 -0.049236156046 -0.000978 -0.000978 -0.999999
-0.261431038380 -1.749768614769 -0.049064937979 -0.000978 -0.000978 -0.999999
-0.206716567278 -1.564807653427 -0.049138341099 -0.000978 -0.000978 -0.999999
-0.202552780509 -1.632680177689 -0.049116667360 -0.000978 -0.000978 -0.999999
-0.178762719035 -1.682768583298 -0.049103386700 -0.000978 -0.000978 -0.999999
-0.164523005486 -1.890369176865 -0.049032732844 -0.000978 -0.000978 -0.999999
-0.200884744525 -1.970747351646 -0.041007842869 -0.044961 -0.470042 -0.881498
-0.237798497081 -2.177851200104 0.070969223976 -0.009307 -0.472016 -0.881541
-0.240284577012 -2.105540513992 0.032290063798 -0.009307 -0.472016 -0.881541
-0.416280388832 -2.146211862564 0.058733724058 -0.036451 -0.460366 -0.886981
-0.340132474899 -2.095050573349 0.029082182795 -0.036451 -0.460366 -0.886981
-0.350869894028 -2.047033786774 0.007016707212 -0.106516 -0.397014 -0.911611
-0.315432429314 -1.833119750023 -0.049014244229 0.000978 0.000978 0.999999
-0.328198254108 -1.815285682678 -0.049004614353 0.000978 0.000978 0.999999
-0.734403073788 -1.761754393578 0.057786166668 -0.058796 0.727066 0.684045
-0.651851534843 -1.684075951576 0.016366057098 0.528225 -0.438807 0.726930
-0.376409202814 -1.590115666389 -0.049082461745 -0.000978 -0.000978 -0.999999
-0.483851313591 -1.697550058365 -0.013084862381 0.443546 0.001308 0.896251
-0.523749709129 -1.733400225639 0.006638292223 0.443546 0.001308 0.896251
-0.471560835838 -1.718930602074 -0.016788084060 -0.001377 -0.651358 -0.758770
-0.533554613590 -1.769984006882 0.030606456101 0.001379 -0.668888 -0.743362
-0.375387042761 -1.678488135338 -0.049004718661 0.000978 0.000978 -0.999999
-0.465708047152 -1.772822499275 0.020134519786 -0.506950 0.006723 -0.861949
-0.447825014591 -1.797488689423 0.009382236749 -0.506950 0.006723 -0.861949
-0.524365782738 -2.010355949402 0.052470520139 -0.506950 0.006723 -0.861949
-0.473301947117 -1.796507120132 0.024385854602 -0.506950 0.006723 -0.861949
-0.390667051077 -1.873305320740 -0.022123565897 -0.460420 -0.020018 -0.887476
-0.381415069103 -1.793465852737 -0.028633549809 -0.460420 -0.020018 -0.887476
-0.356765568256 -1.855303525925 -0.040122348815 -0.460420 -0.020018 -0.887476
-0.432201564312 -2.128906965256 0.042392060161 -0.046563 -0.403104 -0.913969
-0.199960276484 -1.268002271652 0.139362454414 -0.035726 -0.999319 -0.009187
-0.233467891812 -1.267610549927 0.234887972474 -0.035726 -0.999319 -0.009187
-0.107612386346 -1.270830273628 0.125705718994 -0.025168 -0.999658 -0.007047
0.031243301928 -1.884414553642 -0.049040853977 0.000978 0.000978 0.999999
0.062448553741 -1.443353414536 -0.049193520099 0.000978 0.000978 0.999999
0.297499746084 -1.862131714821 -0.049010869116 -0.000978 0.000978 0.999999
0.279109209776 -1.616708874702 -0.049089547247 -0.000978 0.000978 0.999999
0.587936282158 -1.696313261986 0.000624753535 0.058912 0.728494 0.682514
0.703979849815 -1.564499020576 0.065931506455 -0.513371 -0.138947 0.846843
0.615376293659 -1.552036643028 0.014086199924 -0.513371 -0.138947 0.846843
0.760924935341 -1.566675662994 0.100204989314 -0.513371 -0.138947 0.846843
0.751556754112 -1.379570245743 0.112241581082 -0.539335 -0.081114 0.838175
0.643350839615 -1.313276529312 0.049108214676 -0.539335 -0.081114 0.838175
0.777927756310 -1.418926596642 0.125381782651 -0.539335 -0.081114 0.838175
0.604899287224 -1.230854868889 0.043037042022 -0.043407 -0.993910 0.101283
0.583706319332 -1.231534719467 0.067048706114 0.268662 -0.928236 -0.257291
0.622366070747 -1.232582688332 0.114585846663 0.195033 -0.967417 -0.161451
0.372606128454 -1.233086705208 0.022785048932 0.301575 -0.937775 -0.172132
0.393309533596 -1.236647963524 0.082018062472 0.253664 -0.958140 -0.132746
0.428340733051 -1.237522840500 0.157677844167 0.197127 -0.975719 -0.095464
0.336551100016 -1.255147933960 0.140560075641 0.198640 -0.975925 -0.090066
0.286613196135 -1.258995532990 0.069740131497 0.241597 -0.965108 -0.100985
0.251494854689 -1.266091465950 0.167002186179 0.035799 -0.999296 -0.011251
0.227042049170 -1.267400383949 0.189711689949 0.044328 -0.998927 -0.013401
0.169784098864 -1.269631981850 0.203122273088 0.035726 -0.999319 -0.009187
0.107329100370 -1.270872950554 0.138794511557 0.025168 -0.999658 -0.007047
0.116346418858 -1.270740151405 0.151735097170 0.025168 -0.999658 -0.007047
0.020677402616 -1.273074269295 0.119046591222 0.025117 -0.999672 -0.005023
0.073489770293 -1.272414326668 0.243530616164 0.025117 -0.999672 -0.005023
-0.031288679689 -1.273256897926 0.202464506030 -0.025117 -0.999672 -0.005023
0.058373931795 -1.068838357925 0.247494399548 -0.006790 0.835152 0.549978
-0.049962256104 -1.064508676529 0.240822792053 0.006790 0.835152 0.549978
-0.079269722104 -1.041849613190 0.206799820065 0.006790 0.835152 0.549978
0.598570227623 -0.873588085175 0.192118436098 -0.001197 -0.965696 -0.259673
0.613511860371 -0.863272368908 0.153619438410 -0.001197 -0.965696 -0.259673
0.545429646969 -0.897096514702 0.135476797819 0.991232 0.034958 -0.127428
0.535477399826 -0.979021310806 0.140454351902 0.297528 -0.465764 0.833391
0.509627461433 -0.971734046936 0.151788905263 0.189148 -0.475105 0.859359
0.467073619366 -0.984597504139 0.149455159903 0.028377 -0.479700 0.876973
0.415365993977 -0.883906662464 0.179162919521 -0.194880 -0.254842 0.947142
0.390639722347 -1.079742789268 0.101676784456 -0.323069 -0.244837 0.914156
0.382981091738 -1.020200490952 0.096583120525 -0.993814 -0.029781 0.106992
0.506449341774 -0.873731553555 0.196987092495 0.174041 -0.254990 0.951152
0.541930913925 -1.004472613335 0.069564104080 0.962786 0.069401 -0.261202
0.524758696556 -1.088846087456 0.102648250759 0.001197 -0.965696 -0.259673
0.456767112017 -1.068608045578 0.027119284496 0.001197 -0.965696 -0.259673
0.401706606150 -1.071574687958 0.038190551102 -0.001197 -0.965696 -0.259673
0.418018281460 -1.028926253319 0.021683745086 -0.335389 0.242468 -0.910343
0.420781135559 -1.043379306793 0.016904916614 -0.263611 0.249514 -0.931800
0.506833553314 -1.020763039589 0.024216402322 0.335389 0.242468 -0.910343
0.528807818890 -0.997134506702 0.043715313077 0.794123 0.157624 -0.586961
0.490886718035 -0.889701068401 0.306089729071 0.194880 -0.254842 0.947142
0.335091263056 -0.859844803810 0.140827834606 -0.001197 -0.965696 -0.259673
0.351752787828 -0.880315065384 0.217223927379 0.001197 -0.965696 -0.259673
0.422211021185 -0.876169025898 0.285239219666 0.353042 0.241709 -0.903846
0.377261221409 -0.856482923031 0.190337941051 -0.309109 -0.245849 0.918700
0.597247242928 -0.822606682777 0.105719670653 -0.001197 0.965696 0.259673
0.562182724476 -0.867170393467 0.272033751011 -0.001197 0.965696 0.259673
0.432323902845 -0.838150739670 0.163730785251 0.001197 0.965696 0.259673
0.393955528736 -0.872100472450 0.290433079004 0.001197 0.965696 0.259673
0.532186865807 -0.869700610638 0.281476736069 0.001197 0.965696 0.259673
0.544233739376 -0.865578651428 0.266093254089 -0.001197 0.965696 0.259673
0.343963950872 -0.818840801716 0.091665111482 0.001197 0.965696 0.259673
0.524664282799 -0.996631205082 0.174758210778 -0.001052 0.996710 0.081042
0.581213653088 -0.969134092331 0.255683630705 -0.477153 0.284427 -0.831521
0.351673632860 -1.001249432564 0.228796288371 -0.001040 0.997710 0.067624
0.494606047869 -0.999384641647 0.208715960383 0.001052 0.996710 0.081042
0.347332894802 -0.996149480343 0.168817281723 0.001052 0.996710 0.081042
0.356092870235 -0.962454795837 0.138616099954 0.001308 -0.443546 -0.896251
0.341099202633 -0.969591140747 0.242596298456 0.649175 0.213278 -0.730127
0.425505071878 -1.009545803070 0.202040657401 0.001052 -0.996710 -0.081042
0.460689216852 -1.007836818695 0.209111735225 0.989391 -0.144543 -0.014566
0.507993996143 -0.971978724003 0.134597226977 0.001145 0.191268 -0.981537
0.339457809925 -1.051572084427 0.116378098726 0.001199 0.262509 -0.964929
0.508638679981 -1.115437865257 0.097232565284 0.001223 0.297091 -0.954848
0.557179570198 -1.158726692200 0.133023768663 0.006634 -0.884928 -0.465682
0.496880352497 -0.966449737549 0.270567238331 0.175381 0.338135 -0.924611
0.517030775547 -0.979272723198 0.246173530817 0.003629 0.274560 -0.961563
0.555884003639 -0.983497858047 0.219619154930 -0.001052 0.996710 0.081042
0.424248129129 -0.931017220020 0.294675320387 0.048924 -0.194504 0.979681
0.311925858259 -0.958241462708 0.164385646582 0.001106 0.990081 -0.140492
0.541021287441 -1.025106191635 0.274225562811 0.227876 -0.198211 0.953302
0.313775360584 -1.050710082054 0.177585527301 -0.983429 -0.067946 0.168077
0.627768754959 -1.029857635498 0.122815050185 0.999999 0.000978 0.000978
0.599618077278 -1.090549468994 0.218950003386 0.699010 -0.337284 0.630575
0.565703153610 -1.169300436974 0.183603003621 0.413230 -0.642249 0.645568
0.530400753021 -1.174665212631 0.194628924131 0.110897 -0.678689 0.726005
0.416715204716 -1.158402681351 0.210807502270 -0.041191 -0.677527 0.734343
0.391552776098 -1.096711754799 0.248147949576 -0.314227 -0.454926 0.833249
0.412000417709 -0.256605565548 0.335733473301 0.460910 -0.790824 0.402690
0.511445820332 -0.232384607196 0.356253087521 0.001302 -0.430994 0.902354
0.503462314606 -0.211200416088 0.325236052275 0.001079 0.993804 0.111142
0.467345595360 -0.206612616777 0.284312874079 -0.001079 0.993804 0.111142
0.514323711395 -0.266912907362 0.314085453749 0.001230 -0.951115 0.308835
0.356774985790 -0.233988329768 0.261565953493 -0.999995 0.002944 0.000981
0.358240395784 -0.241046950221 0.330840170383 -0.918036 -0.009038 0.396395
0.481953352690 -0.200449034572 0.219323083758 0.001065 0.995500 0.094759
0.509646177292 -0.270557403564 0.291806459427 0.001275 -0.924466 0.381263
0.361968815327 -0.693046450615 -0.295729368925 0.001327 -0.874782 0.484515
0.368228673935 -0.676766991615 -0.283524721861 0.001036 0.063217 0.997999
0.338216662407 -0.601150751114 -0.288286000490 0.001036 0.063217 0.997999
0.474979639053 -0.630811214447 -0.286418437958 0.001036 0.063217 0.997999
0.497593313456 -0.590620934963 -0.288949072361 0.001036 0.063217 0.997999
0.459030419588 -0.585642218590 -0.297635465860 0.001330 0.871255 0.490829
0.668546795845 -0.621008753777 -0.271845698357 -0.833890 0.066541 0.547904
0.306586921215 -0.734387099743 -0.295713216066 0.860641 0.182201 0.475500
0.243817389011 -0.580541253090 -0.298694252968 -0.956976 0.062273 0.283407
0.235240012407 -0.348180651665 -0.401358664036 -0.991970 0.039319 0.120205
0.234130293131 -0.540045201778 -0.360085964203 -0.999995 0.002944 -0.000981
0.234601557255 -0.402968585491 -0.392071157694 -0.999995 0.002944 -0.000981
0.234744176269 -0.345978319645 -0.431202381849 -0.999991 0.002950 0.002950
0.425534963608 -0.309912413359 -0.420788943768 0.001125 0.986241 -0.165311
0.710502028465 -0.477218925953 -0.386313617229 0.999995 0.002944 -0.000981
0.708241641521 -0.501517176628 -0.340656131506 0.991970 0.039319 0.120205
0.707256376743 -0.507532835007 -0.330572843552 0.991970 0.039319 0.120205
0.707161426544 -0.338658154011 -0.290550082922 0.989830 -0.141723 -0.012275
0.709450662136 -0.283849716187 -0.240244954824 0.999995 0.000979 0.002938
0.696868300438 -0.259266287088 0.055006481707 0.996717 0.013829 0.079780
0.628914654255 -0.247984752059 0.185462981462 0.394799 0.158205 0.905044
0.556168317795 -0.207529723644 0.183143213391 0.001131 0.984919 -0.173011
0.493629813194 -0.208899676800 0.175400853157 0.001131 0.984919 -0.173011
0.629375874996 -0.214655607939 0.141671255231 0.001122 0.986665 -0.162760
0.564493060112 -0.220998257399 0.103489644825 0.001122 0.986665 -0.162760
0.511087417603 -0.220613628626 0.105804935098 0.001122 0.986665 -0.162760
0.375142008066 -0.220639243722 0.105650752783 0.001122 0.986665 -0.162760
0.509499311447 -0.243339478970 -0.025075502694 0.001131 0.984919 -0.173011
0.560511231422 -0.241540759802 -0.014909788966 0.001131 0.984919 -0.173011
0.450378447771 -0.229294970632 0.054298963398 0.001131 0.984919 -0.173011
0.323769867420 -0.236662015319 0.012663122267 0.001131 0.984919 -0.173011
0.408086150885 -0.252243816853 -0.075399622321 0.001131 0.984919 -0.173011
0.338239371777 -0.253873288631 -0.084608867764 0.001131 0.984919 -0.173011
0.404630452394 -0.265035659075 -0.150836586952 0.001122 0.986665 -0.162760
0.580375611782 -0.288414418697 -0.291475385427 0.001122 0.986665 -0.162760
0.585811018944 -0.288545310497 -0.292262911797 0.001122 0.986665 -0.162760
0.476698279381 -0.269246697426 -0.176168814301 0.001122 0.986665 -0.162760
0.681511998177 -0.276104241610 -0.217421486974 0.001122 0.986665 -0.162760
0.396424263716 -0.267479598522 -0.165538609028 0.001122 0.986665 -0.162760
0.655525743961 -0.293347269297 -0.321149885654 0.001122 0.986665 -0.162760
0.563070654869 -0.281774401665 -0.251531422138 0.001122 0.986665 -0.162760
0.419062882662 -0.299766719341 -0.359767079353 0.001122 0.986665 -0.162760
0.368024200201 -0.307263523340 -0.404865324497 0.001122 0.986665 -0.162760
0.520344913006 -0.290080547333 -0.301498413086 0.001122 0.986665 -0.162760
0.382687538862 -0.293037623167 -0.319287061691 0.001122 0.986665 -0.162760
0.423717826605 -0.287907749414 -0.288427591324 0.001122 0.986665 -0.162760
0.235824048519 -0.262622207403 -0.136318072677 0.001122 0.986665 -0.162760
0.243099197745 -0.286050826311 -0.277256786823 0.001122 0.986665 -0.162760
0.496189236641 -0.285668134689 -0.274954766035 0.001122 0.986665 -0.162760
0.235334903002 -0.297654747963 -0.270507067442 -0.999995 0.000979 0.002938
0.235777944326 -0.288457036018 -0.111473500729 -0.999995 0.000979 0.002938
0.235611125827 -0.320393174887 -0.335675835609 -0.989830 -0.141723 -0.012275
0.242007285357 -0.372841089964 -0.216263562441 -0.972900 -0.231079 0.008295
0.283403605223 -0.378391921520 -0.065315902233 0.774410 -0.610739 0.165187
0.291584640741 -0.345948815346 0.049912586808 0.612853 -0.753919 0.236677
0.247002840042 -0.383463352919 -0.093697629869 -0.945652 -0.290036 0.147041
0.419963657856 -0.217705070972 0.190697431564 0.001131 0.173011 0.984919
0.507940530777 -0.249103978276 0.196186080575 0.001131 0.173011 0.984919
0.317817717791 -0.304557740688 0.150119930506 -0.152965 -0.830168 0.536119
0.335124522448 -0.300532251596 0.158694848418 0.136755 -0.970069 0.200660
0.333504468203 -0.321624457836 0.058727793396 0.001180 -0.971447 0.237255
0.445109844208 -0.322015553713 0.057124912739 0.001180 -0.971447 0.237255
0.327295541763 -0.381283998489 -0.125826880336 -0.530098 -0.783136 0.325106
0.374829500914 -0.384113967419 -0.156555593014 0.001378 -0.751123 -0.660161
0.259370297194 -0.604575812817 -0.241716384888 0.450986 0.164924 0.877161
0.295430839062 -0.473599016666 -0.292857617140 0.883788 -0.056179 0.464503
0.309363365173 -0.443046718836 -0.298599690199 -0.573858 0.015138 0.818815
0.435408771038 -0.401323795319 -0.200060695410 0.001102 -0.990471 0.137718
0.511698961258 -0.397605538368 -0.173396632075 0.001102 -0.990471 0.137718
0.376845896244 -0.403650492430 -0.216745957732 0.001102 -0.990471 0.137718
0.558738589287 -0.418774276972 -0.279655307531 0.001038 -0.065416 0.997858
0.543338060379 -0.522078216076 -0.286368787289 0.001038 -0.065416 0.997858
0.546991884708 -0.545621216297 -0.287898808718 0.001038 -0.065416 0.997858
0.528681039810 -0.542455017567 -0.287693023682 0.001038 -0.065416 0.997858
0.309679269791 -0.561919569969 -0.298494100571 -0.414096 -0.038613 0.909414
0.488293528557 -0.577528297901 -0.301011294127 0.001365 -0.806665 0.591008
0.585122764111 -0.573261499405 -0.295181512833 0.001365 -0.806665 0.591008
0.651504158974 -0.423072427511 -0.297017008066 -0.483113 -0.042426 0.874530
0.652811229229 -0.396404922009 -0.176882684231 -0.804396 -0.580051 0.128408
0.659052312374 -0.395893782377 -0.136645451188 -0.807575 -0.572590 0.141289
0.485923498869 -0.368721187115 -0.078538626432 0.001259 -0.935342 0.353743
0.455819308758 -0.388601571321 -0.130964711308 -0.001259 -0.935342 0.353743
0.401285409927 -0.393234580755 -0.143182381988 -0.001259 -0.935342 0.353743
0.695924580097 -0.362509012222 -0.041924003512 0.942511 -0.299705 0.147818
0.446918994188 -0.289963424206 0.182356029749 0.001372 -0.783405 0.621510
0.592478990555 -0.304747730494 0.130327075720 0.001174 -0.973432 0.228974
0.469351589680 -0.312427997589 0.097525089979 0.001174 -0.973432 0.228974
0.614371180534 -0.300374209881 0.160282582045 -0.200896 -0.962460 0.182513
0.644310295582 -0.348051786423 0.001449752599 -0.758319 -0.650191 0.046950
