0.246108889580 -0.335069864988 0.970830142498 0.023155 0.007047 0.999707
0.181197673082 -0.303539067507 0.972145795822 0.023155 0.007047 0.999707
0.093680828810 -0.317280977964 0.973691403866 0.010944 0.006965 0.999916
0.043130926788 -0.324254482985 0.974247455597 0.004936 0.006910 0.999964
0.026251116768 -0.453544855118 0.974173009396 0.005014 -0.023063 0.999721
0.136721417308 -0.499898970127 0.971882998943 0.019320 -0.023387 0.999540
0.170470356941 -0.595688164234 0.969042897224 0.019320 -0.023387 0.999540
0.091999255121 -0.546669542789 0.971504867077 0.013140 -0.023248 0.999643
0.032376155257 -0.642643272877 0.969660878181 0.005053 -0.031329 0.999496
0.063697718084 -0.631844401360 0.969788670540 0.013244 -0.031582 0.999413
0.152985379100 -0.651666164398 0.967799067497 0.019475 -0.029725 0.999368
0.177620321512 -0.622637212276 0.968204379082 0.019474 -0.031773 0.999305
0.211764276028 -0.716258049011 0.964475512505 0.025780 -0.029904 0.999220
0.326581358910 -0.699271202087 0.961742222309 0.034303 -0.030145 0.998957
0.438616663218 -0.832932114601 0.951319754124 0.044548 -0.072798 0.996351
0.425881981850 -0.873680770397 0.948917210102 0.042379 -0.072805 0.996445
0.593889176846 -0.970700562000 0.924829721451 0.106343 -0.130240 0.985763
0.563440263271 -1.015928983688 0.918527007103 0.123785 -0.215667 0.968589
0.594339370728 -1.036469697952 0.907182335854 0.150237 -0.326662 0.933124
0.334779590368 -1.000315546989 0.938584983349 0.037512 -0.135272 0.990098
0.316334575415 -0.868292868137 0.953486800194 0.031187 -0.072053 0.996913
0.156033813953 -0.741897940636 0.964640974998 0.019746 -0.046766 0.998711
0.138128608465 -0.792452812195 0.962676167488 0.019746 -0.046766 0.998711
0.197698444128 -0.937793791294 0.951522111893 0.028228 -0.136621 0.990221
0.228368982673 -0.983122885227 0.944379150867 0.025913 -0.136325 0.990325
0.670076668262 -1.093110203743 0.856273114681 0.252485 -0.581814 0.773139
0.081716001034 -0.891006231308 0.957390308380 0.013775 -0.075231 0.997071
0.105982020497 -0.841151714325 0.960797727108 0.013775 -0.075231 0.997071
0.098729796708 -0.833814024925 0.961412549019 0.013428 -0.046481 0.998829
0.061749543995 -0.737732291222 0.966331541538 0.013428 -0.046481 0.998829
0.009890312329 -1.035533666611 0.938706576824 0.005867 -0.221769 0.975082
0.493221461773 -1.148581266403 0.861128747463 0.133245 -0.651254 0.747070
0.007053510752 -1.109890818596 0.916860103607 0.009086 -0.408890 0.912538
0.007634046488 -1.167631387711 0.888881146908 0.012020 -0.479472 0.877475
0.171606704593 -1.174056649208 0.879597485065 0.049101 -0.556941 0.829099
0.810772120953 -1.267182469368 0.650772809982 -0.774507 -0.568606 0.277175
0.474852919579 -0.827521383762 0.949842393398 0.055997 -0.071369 0.995877
0.430944800377 -0.748744904995 0.955777108669 0.041367 -0.045609 0.998102
0.212233230472 0.882961869240 0.962747693062 0.019243 0.019243 0.999630
0.370552271605 1.010419726372 0.956299364567 0.029664 0.019435 0.999371
0.729321658611 -0.601979553699 0.912190794945 0.677244 -0.012516 0.735652
0.644883215427 1.838492989540 0.915486514568 0.385834 0.030082 0.922078
0.873217284679 2.236437082291 0.394112050533 0.936760 0.187352 0.295600
0.944772303104 1.214131355286 0.211506351829 0.980825 0.015125 0.194303
0.946353256702 1.283218026161 0.197589874268 0.981870 0.015070 0.188955
0.951780557632 1.448503017426 0.155099034309 0.982379 0.015042 0.186293
0.964876592159 1.142518043518 0.111114181578 0.984325 0.014931 0.175731
0.959388256073 1.122151255608 0.040001705289 0.999612 0.015223 0.023341
0.952694118023 1.535985469818 0.040613394231 0.999612 0.015223 0.023341
0.922111451626 2.172279596329 0.052345801145 0.996315 0.085761 0.001059
0.960911154747 1.249757289886 0.061412494630 0.751398 0.012500 -0.659730
0.963810920715 1.142531394958 0.062939204276 0.822819 0.012322 -0.568170
0.971023380756 1.141198039055 -0.195017695427 0.985371 0.021846 -0.169019
0.969806611538 1.277566194534 -0.186681821942 0.982137 0.019759 -0.187129
0.967691957951 1.477484464645 -0.177647396922 0.972887 0.020293 -0.230389
0.947434663773 1.370030760765 -0.320632517338 0.928068 -0.364550 0.076115
0.913212597370 -1.529593348503 0.340548783541 0.909199 -0.303066 0.285497
0.905707418919 -0.734188437462 -0.611011624336 0.178584 0.003412 0.983919
0.909225165844 -0.644026041031 -0.613617479801 0.772811 0.009677 0.634562
0.860309123993 -0.611902475357 -0.706395566463 0.753843 0.006916 -0.657019
0.855852603912 -0.787803292274 -0.712172508240 0.664262 0.006934 -0.747468
0.849335670471 -0.934350550175 -0.718722224236 0.590518 0.006851 -0.806995
0.841423034668 -1.157645463943 -0.725917398930 0.546835 0.006785 -0.837213
0.831424534321 -0.597638785839 -0.728783190250 0.543688 0.006779 -0.839260
0.848475098610 -0.821485698223 -0.718514502048 0.587425 0.006846 -0.809250
0.851387500763 -0.057445071638 -0.709475755692 0.662886 0.006919 -0.748688
0.866384744644 -0.643093824387 -0.699800252914 0.752644 0.006930 -0.658391
0.865204930305 0.027221798897 -0.691790938377 0.838437 0.009512 -0.544916
0.876987159252 -0.723583698273 -0.686123788357 0.838437 0.009512 -0.544916
0.877754032612 -0.529819905758 -0.681649923325 0.879230 0.009339 -0.476305
0.882406353951 -0.366068363190 -0.669726312160 0.879834 0.009317 -0.475190
0.887885034084 -0.634130895138 -0.664829492569 0.900354 0.009201 -0.435061
0.886694669724 -0.018340349197 -0.653146803379 0.900354 0.009201 -0.435061
0.894207298756 -0.549150884151 -0.649679541588 0.909253 0.009132 -0.416143
0.902871966362 -0.811274886131 -0.637201547623 0.901874 0.009189 -0.431902
0.908050715923 -1.106962203979 -0.633212745190 0.903379 0.009178 -0.428745
0.907724976540 -0.542224764824 -0.619927704334 0.942953 0.011300 -0.332733
0.489289075136 2.449875116348 0.438346564770 0.005784 0.979755 0.200115
0.217910781503 2.458778858185 0.395126283169 -0.001140 0.983447 0.181191
0.067745432258 2.470641374588 0.320917576551 -0.005606 0.987766 0.155845
0.087669506669 2.457182168961 0.401130765676 -0.005723 0.983281 0.182004
0.177506208420 2.453437805176 0.422232240438 -0.003489 0.978085 0.208177
0.239731371403 2.450822114944 0.435459405184 -0.001158 0.978758 0.205018
0.365034729242 2.423019886017 0.538567423820 0.001225 0.954632 0.297786
0.470581829548 2.429411888123 0.517286300659 0.003685 0.954408 0.298483
0.594702422619 2.409416198730 0.574545919895 0.024044 0.945328 0.325233
0.527973830700 2.416959047318 0.555300712585 0.011257 0.946858 0.321456
0.129647374153 2.411220788956 0.572274446487 -0.003732 0.946668 0.322190
-0.016852179542 2.412351846695 0.566236734390 -0.006220 0.946656 0.322186
0.072705522180 2.397196292877 0.610316336155 -0.006287 0.939223 0.343250
0.183861076832 2.399858236313 0.604717373848 -0.003763 0.939530 0.342446
0.563859343529 2.333397150040 0.767345964909 0.075458 0.898631 0.432166
0.573851048946 2.384200572968 0.643681228161 0.024451 0.933000 0.359044
0.596452832222 2.394788265228 0.614609420300 0.024451 0.933000 0.359044
0.399326086044 2.389944076538 0.632053136826 0.001262 0.935026 0.354578
0.321899473667 2.390300512314 0.631108760834 -0.001261 0.934187 0.356781
0.312503695488 2.376239776611 0.667226254940 -0.001269 0.930303 0.366791
0.497885227203 2.383885383606 0.647004365921 0.003811 0.931161 0.364588
0.360705792904 2.359144687653 0.710403084755 -0.001268 0.929435 0.368984
0.258195728064 2.348353862762 0.736619830132 -0.003838 0.924989 0.379975
0.156369045377 2.347487211227 0.736899197102 -0.008989 0.923305 0.383961
0.107157170773 2.329387903214 0.778276741505 -0.011679 0.914870 0.403581
0.144438251853 2.336151361465 0.763851761818 -0.009063 0.915316 0.402635
0.312022030354 2.331074476242 0.778798043728 -0.006441 0.918458 0.395465
0.170139446855 2.308891057968 0.818296015263 -0.012437 0.786305 0.617713
0.028632612899 2.299777269363 0.827205598354 -0.006932 0.700124 0.713988
0.674253642559 2.464452981949 0.337680727243 0.035367 0.989147 0.142611
0.623102903366 2.460182666779 0.374901145697 0.023881 0.988208 0.151245
0.612240672112 2.453866004944 0.412969321012 0.022338 0.979329 0.201039
0.435143023729 2.464323282242 0.360372364521 0.005595 0.988161 0.153316
0.921297729015 -0.048077933490 0.355303555727 0.958177 0.013495 0.285858
0.895927190781 -0.042322255671 0.438049018383 0.953176 0.016156 0.301984
0.895260155201 0.140558555722 0.430522292852 0.951502 0.016169 0.307217
0.904206097126 0.434926539660 0.387731730938 0.954369 0.013616 0.298318
0.913881421089 0.333583563566 0.361118912697 0.956407 0.013540 0.291723
0.920367658138 0.408895373344 0.335751771927 0.958847 0.013505 0.283603
0.931787371635 0.096085965633 0.312650561333 0.958847 0.013505 0.283603
0.937537193298 -0.099583700299 0.303173869848 0.957940 0.015986 0.286521
0.946193456650 -0.261535525322 0.282828420401 0.956161 0.016039 0.292400
0.942490696907 -0.159188807011 0.289755314589 0.957940 0.015986 0.286521
0.943132221699 -0.057015053928 0.282164543867 0.959478 0.015971 0.281332
0.936111748219 0.183998554945 0.293122857809 0.961357 0.015880 0.274848
0.928813934326 0.435102105141 0.305104821920 0.962396 0.013384 0.271320
0.890380024910 0.715091586113 0.417212814093 0.950533 0.016195 0.310200
0.899751961231 0.502897620201 0.398546427488 0.952494 0.013660 0.304252
0.902496695518 0.494472146034 0.390279352665 0.954369 0.013616 0.298318
0.910040259361 0.585780739784 0.361555695534 0.956196 0.013572 0.292411
0.888612031937 0.636784553528 0.426367342472 0.948558 0.016247 0.316186
0.881848931313 0.746159732342 0.441290169954 0.947552 0.016272 0.319188
0.894327521324 0.312763661146 0.424880802631 0.951502 0.016169 0.307217
0.877573370934 0.232246279716 0.479973465204 0.949306 0.016260 0.313934
0.889088213444 0.149297803640 0.449432730675 0.950533 0.016195 0.310200
0.882974743843 -0.276176363230 0.490989536047 0.951224 0.018700 0.307932
0.884094238281 -0.136479765177 0.479946374893 0.950292 0.016234 0.310937
0.868639290333 0.393307894468 0.497920572758 0.945233 0.016362 0.325986
0.862847745419 0.759071469307 0.495636016130 0.942043 0.016438 0.335089
0.853386521339 0.519812285900 0.534906029701 0.943119 0.016413 0.332049
0.859423756599 0.255751878023 0.531912326813 0.944922 0.018924 0.326749
0.864594340324 0.187298521399 0.520766437054 0.946270 0.016337 0.322963
0.857221186161 -0.288071542978 0.569403290749 0.946995 0.018864 0.320695
0.855621337891 -0.046687394381 0.560090243816 0.946229 0.018849 0.322949
0.844515681267 0.115176230669 0.582562923431 0.944922 0.018924 0.326749
0.851247906685 0.323075056076 0.551714062691 0.942797 0.018982 0.332826
0.836324095726 0.528778731823 0.581930935383 0.940911 0.018996 0.338120
0.834639966488 0.693484067917 0.577473104000 0.939511 0.019070 0.341987
0.802863240242 0.537441074848 0.672358214855 0.938340 0.021644 0.345034
0.789597332478 0.634189486504 0.703158795834 0.941667 0.021546 0.335857
0.780952215195 0.461904525757 0.740692257881 0.948718 0.021362 0.315402
0.787334859371 -0.144700184464 0.767908334732 0.955378 0.023605 0.294440
0.838870644569 -0.132575765252 0.613012433052 0.943866 0.018953 0.329785
0.844771146774 0.078794389963 0.583950638771 0.942001 0.018966 0.335074
0.834131062031 0.178035661578 0.607932031155 0.940620 0.019041 0.338928
0.837889373302 0.322238683701 0.589172184467 0.938389 0.019099 0.345052
0.823600471020 0.585014879704 0.613311231136 0.937254 0.019128 0.348123
0.822627842426 0.432970881462 0.624718308449 0.938340 0.021644 0.345034
0.809844315052 0.287006348372 0.668562114239 0.941378 0.021597 0.336660
0.825359106064 -0.263251096010 0.659701943398 0.944874 0.021446 0.326732
0.830418109894 -0.154251456261 0.638272285461 0.942797 0.018982 0.332826
0.821420013905 -0.072696596384 0.658638298512 0.942749 0.021512 0.332809
0.817638039589 -0.071476668119 0.669380784035 0.943818 0.021479 0.329768
0.794902622700 0.007239051163 0.731798589230 0.950645 0.023797 0.309367
0.794046103954 0.051961839199 0.731168627739 0.950645 0.023797 0.309367
0.827106654644 0.682237267494 0.598380625248 0.937254 0.019128 0.348123
0.824667930603 0.759745180607 0.600614905357 0.936105 0.019156 0.351199
0.787298262119 -0.260997772217 0.777498960495 0.957867 0.023544 0.286245
0.778615176678 -0.152472585440 0.797188639641 0.956918 0.026064 0.289185
0.776789903641 0.069981776178 0.784554541111 0.956075 0.023622 0.292169
0.760627627373 0.200090438128 0.826367199421 0.956075 0.023622 0.292169
0.755113899708 0.160638049245 0.847917258739 0.956918 0.026064 0.289185
0.781890869141 0.313546657562 0.748983800411 0.953295 0.023739 0.301106
0.784970939159 0.485495269299 0.726982951164 0.948718 0.021362 0.315402
0.792247235775 0.678979754448 0.692849040031 0.941667 0.021546 0.335857
0.922501504421 0.407412111759 0.328603893518 0.959899 0.013451 0.280022
0.918550252914 -0.341621458530 0.379426717758 0.958847 0.013505 0.283603
0.918734014034 -0.296354442835 0.376469910145 0.958812 0.015960 0.283592
0.904097020626 0.842792570591 0.368481159210 0.956196 0.013572 0.292411
0.909078180790 0.838412821293 0.352462947369 0.956196 0.013572 0.292411
0.900407075882 0.803532481194 0.381983160973 0.953438 0.013638 0.301281
0.912940442562 0.837471842766 0.339535474777 0.959707 0.013482 0.280680
0.843749940395 0.833350062370 0.545031368732 0.939808 0.019024 0.341172
0.829946637154 -0.320658475161 0.650090098381 0.944874 0.021446 0.326732
0.827029347420 -0.335774838924 0.659543693066 0.945651 0.021463 0.324476
0.800638556480 0.849834263325 0.659397959709 0.937205 0.021677 0.348105
0.765428423882 0.841871380806 0.759615004063 0.949661 0.023836 0.312372
1.002645611763 -0.325701743364 0.095988877118 0.715236 -0.026698 -0.698373
0.973378121853 -0.306295782328 0.093415588140 -0.001353 0.542465 -0.840077
0.885585963726 0.482225567102 -0.590445339680 0.937121 0.013949 -0.348726
0.896759331226 0.367667198181 -0.563597559929 0.947587 0.013769 -0.319200
0.895485699177 0.210330754519 -0.574553370476 0.947587 0.013769 -0.319200
0.908807754517 0.217100396752 -0.532882213593 0.954369 0.013616 -0.298318
0.886500060558 0.226725533605 -0.597773969173 0.910183 0.014364 -0.413957
0.890186548233 0.124896645546 -0.592880606651 0.937121 0.013949 -0.348726
0.882534742355 0.413552254438 -0.600159227848 0.909733 0.014399 -0.414943
0.930052101612 -0.110123179853 -0.470367670059 0.975029 0.015401 -0.221544
0.922704160213 0.151383638382 -0.484884917736 0.975029 0.015401 -0.221544
0.918337583542 0.098258048296 -0.505813121796 0.962995 0.015827 -0.269054
0.915095806122 0.243990227580 -0.509398400784 0.962995 0.015827 -0.269054
0.910058677197 0.364631682634 -0.520804107189 0.962995 0.015827 -0.269054
0.905672252178 0.399751424789 -0.533928394318 0.954369 0.013616 -0.298318
0.931464076042 0.793803393841 0.280614614487 -0.316961 -0.008701 0.948398
0.931847989559 0.701033115387 0.280114382505 -0.316222 -0.006200 0.948665
0.951060056686 0.217543140054 0.266204386950 0.967639 0.015665 0.251851
0.956971049309 -0.063790783286 0.260360956192 0.977568 0.015256 0.210066
0.961883783340 -0.355491042137 0.259216636419 0.978150 0.015229 0.207344
0.970024824142 -0.372843265533 -0.334861338139 0.981537 -0.001145 -0.191268
0.932322502136 -0.027308925986 -0.433370828629 0.999072 0.015466 -0.040210
0.932944238186 -0.088867075741 -0.441936284304 0.999072 0.015466 -0.040210
0.926583051682 0.295128166676 -0.448802262545 0.992056 0.014378 -0.124975
0.915583312511 0.484297066927 -0.493590742350 0.975029 0.015401 -0.221544
0.909976005554 0.662984609604 -0.504647076130 0.962995 0.015827 -0.269054
0.904272854328 0.699851095676 -0.523054122925 0.962995 0.015827 -0.269054
0.898925781250 0.713468849659 -0.540103912354 0.954369 0.013616 -0.298318
0.895942151546 0.735571980476 -0.548595786095 0.954369 0.013616 -0.298318
0.944721996784 0.748303234577 0.256296217442 0.976977 0.015284 0.212795
0.961058318615 0.450483471155 0.199160397053 0.981870 0.015070 0.188955
0.953232586384 0.113318480551 -0.380182892084 0.919454 0.014265 -0.392940
0.942917704582 -0.206629663706 -0.396426528692 0.779050 0.012454 -0.626838
0.937529504299 -0.179797649384 -0.404340118170 0.915795 0.014289 -0.401391
0.934393465519 -0.072251103818 -0.407794773579 0.915795 0.014289 -0.401391
0.923542380333 0.506580293179 -0.443335413933 0.999156 0.015435 -0.038073
0.922101438046 0.594885826111 -0.444803655148 0.999156 0.015435 -0.038073
0.918600320816 0.656572699547 -0.467496752739 0.992056 0.014378 -0.124975
0.917376875877 0.778945207596 -0.462132215500 0.992056 0.014378 -0.124975
0.966031849384 0.805211544037 -0.262014955282 0.983815 0.017260 -0.178352
0.957087099552 0.171876132488 -0.359293580055 0.981352 0.015098 -0.191625
0.959237039089 0.075203277171 -0.355910032988 0.981352 0.015098 -0.191625
0.966585218906 0.040630217642 -0.320994138718 0.981438 0.015063 -0.191189
0.965836405754 0.230294495821 -0.309786081314 0.981438 0.015063 -0.191189
0.974927425385 0.083080135286 -0.274127632380 0.982379 0.015042 -0.186293
0.979754865170 0.057910900563 -0.250280588865 0.983370 0.014987 -0.180995
0.975381731987 0.333071202040 -0.250945597887 0.983446 0.014953 -0.180586
0.972899198532 0.557878375053 -0.245488420129 0.983446 0.014953 -0.180586
0.971697449684 0.588547646999 -0.249463096261 0.983446 0.014953 -0.180586
0.976053297520 0.527328312397 -0.230551347136 0.985692 0.014848 -0.167899
0.978167593479 0.468976557255 -0.223431795835 0.985692 0.014848 -0.167899
0.981962084770 0.129503801465 -0.232096523046 0.985312 0.014842 -0.170118
0.990914404392 -0.011372476816 -0.191393241286 0.987397 0.014737 -0.157575
0.988580524921 0.047305442393 -0.200265794992 0.987397 0.014737 -0.157575
0.984462261200 0.276183068752 -0.203659012914 0.987802 0.014710 -0.155016
0.976448178291 0.865004122257 -0.191254064441 0.931815 0.331710 -0.147274
0.981209576130 0.671026527882 -0.184054717422 0.990383 0.016748 -0.137336
0.997157931328 -0.226229116321 -0.171692699194 0.991388 0.016653 -0.129891
0.990497708321 0.303811013699 -0.156711339951 0.993750 0.016399 -0.110417
0.997549533844 -0.167296290398 -0.161242291331 0.993202 0.016462 -0.115233
0.981263220310 0.649728596210 -0.142411261797 0.769183 0.012473 0.638907
0.981341362000 0.130202114582 -0.132588103414 0.777959 0.012481 0.628191
0.971085488796 0.612753748894 -0.128858655691 0.852818 0.014914 0.521995
0.968117952347 0.682590305805 -0.121839970350 0.999235 0.015404 -0.035944
0.984998166561 -0.227990895510 -0.095783792436 0.999739 0.017115 0.015102
0.971605241299 0.578101754189 -0.080058708787 0.999560 0.015253 0.025421
0.977186501026 0.214187562466 -0.068603977561 0.999560 0.015253 0.025421
0.980550706387 0.001551650465 -0.065963260829 0.999560 0.015253 0.025421
0.982770562172 -0.178172975779 -0.038657769561 0.999560 0.015253 0.025421
0.980671703815 -0.064294494689 -0.028094312176 0.999560 0.015253 0.025421
0.979145288467 0.026693491265 -0.025732344016 0.999560 0.015253 0.025421
0.969699442387 0.663497984409 -0.058886598796 0.999560 0.015253 0.025421
0.968953132629 0.679882645607 -0.039484065026 0.999560 0.015253 0.025421
0.966285943985 0.816163420677 -0.022240296006 0.999527 0.017286 0.025420
0.969075322151 0.612923562527 -0.000631961506 0.999560 0.015253 0.025421
0.973765373230 0.328429818153 -0.004843342584 0.999560 0.015253 0.025421
0.976861298084 0.138204425573 -0.005990122911 0.999560 0.015253 0.025421
0.979022383690 0.013352539390 -0.011980520561 0.999560 0.015253 0.025421
0.983662009239 -0.333044350147 0.025111375377 0.999612 0.015223 0.023341
0.982686817646 -0.267961442471 0.023945545778 0.999612 0.015223 0.023341
0.973312139511 0.312100440264 0.024715574458 0.999612 0.015223 0.023341
0.968659996986 0.604303300381 0.022254718468 0.999612 0.015223 0.023341
0.964142799377 0.857609033585 0.030339863151 0.999336 0.027731 0.023623
0.965577185154 0.764018654823 0.059516329318 0.991672 0.016657 -0.127707
0.973733305931 0.825042724609 0.083163164556 0.993451 0.016466 -0.113067
0.977321624756 0.146446511149 0.139418646693 0.982379 0.015042 0.186293
0.973614454269 0.310016095638 0.145046502352 0.982379 0.015042 0.186293
0.971235156059 0.415038228035 0.148658514023 0.982379 0.015042 0.186293
0.969982564449 0.378654390574 0.158352121711 0.982379 0.015042 0.186293
0.964542746544 0.792647659779 0.151774421334 0.982342 0.017356 0.186286
0.958219647408 0.740546166897 0.189590409398 0.981870 0.015070 0.188955
0.954919397831 0.816135048866 0.200213983655 0.981833 0.017388 0.188948
0.946580171585 0.808296144009 0.243241563439 0.978010 0.017611 0.207812
0.984100580215 -0.019065372646 0.116700634360 0.984325 0.014931 0.175731
0.991543054581 -0.361903041601 0.075731806457 0.938109 0.006296 -0.346282
0.976450622082 0.097886309028 0.038122661412 0.999612 0.015223 0.023341
0.969747602940 0.517207503319 0.035548754036 0.999612 0.015223 0.023341
0.967128753662 0.670247375965 0.042196359485 0.999612 0.015223 0.023341
0.970502912998 0.450873523951 0.050624653697 0.999852 0.016947 -0.002991
0.982312977314 -0.280550032854 0.054056279361 0.999852 0.016947 -0.002991
0.977740108967 0.002705208957 0.053173732013 0.999852 0.016947 -0.002991
0.984372973442 0.036402437836 0.073428355157 0.937948 0.013961 -0.346495
0.980737864971 0.398160636425 0.089139528573 0.997807 0.015805 0.064273
0.982587277889 0.151718571782 0.108759589493 0.989675 0.016812 0.142343
0.987658739090 -0.023377634585 0.087318487465 0.997807 0.015805 0.064273
0.933210372925 0.350934743881 -0.398357391357 0.785247 0.012464 -0.619057
0.918157398701 0.836473405361 -0.446972489357 0.999122 0.017492 -0.038072
0.927876889706 0.493214517832 -0.403189927340 0.917162 0.014270 -0.398259
0.943424344063 0.592570960522 -0.384810954332 0.738307 0.012514 -0.674348
0.951887369156 0.774805307388 -0.338457524776 0.981352 0.015098 -0.191625
0.952045202255 0.502252221107 -0.359078198671 0.981352 0.015098 -0.191625
0.935077548027 0.615043699741 -0.392229229212 0.685896 0.009739 -0.727634
0.929303586483 0.801703214645 -0.395082801580 0.688753 0.009740 -0.724930
0.938080310822 0.092770025134 -0.396970033646 0.781483 0.012448 -0.623803
0.971337199211 -0.112615451217 0.192921578884 0.981870 0.015070 0.188955
0.965152561665 -0.023588748649 0.217507645488 0.980825 0.015125 0.194303
0.963378906250 -0.220265477896 0.242301329970 0.980379 0.015119 0.196541
0.952769935131 0.280193895102 0.254256069660 0.978048 0.015264 0.207821
0.957837164402 0.035420488566 0.248967409134 0.977568 0.015256 0.210066
0.945004999638 0.454891234636 0.274608671665 0.967485 0.015702 0.252440
0.759463608265 -0.286763399839 0.876981437206 0.804334 0.017997 0.593906
0.750413715839 -0.276195973158 0.888641536236 0.783043 0.018081 0.621705
0.741119146347 0.151292920113 0.887522757053 0.804290 0.020765 0.593874
0.742339611053 0.234415322542 0.883037030697 0.826546 0.020629 0.562491
0.721561431885 0.649598121643 0.896547555923 0.635584 0.015299 0.771880
0.737490534782 0.779171884060 0.869267463684 0.863893 0.023055 0.503147
0.738071501255 0.483147591352 0.880349278450 0.836284 0.020598 0.547910
0.654209911823 2.333045721054 0.789981544018 0.266978 0.813424 0.516782
0.709197700024 2.364828109741 0.687544763088 0.701656 0.548325 0.454993
0.421096116304 2.270282983780 0.894008040428 0.001384 0.712619 0.701550
0.419852674007 2.285804748535 0.877247214317 0.001379 0.745961 0.665988
0.693627595901 2.425246953964 0.532022178173 -0.978347 0.074136 -0.193239
0.747870862484 2.347070932388 0.626789629459 0.865162 0.310846 0.393534
0.293741881847 2.286693572998 0.875392138958 -0.006903 0.768995 0.639218
0.622727751732 2.329521417618 0.765555918217 -0.925608 0.127907 -0.356215
0.039413038641 2.294344902039 0.842855513096 -0.001233 0.309560 -0.950879
0.214656606317 2.302951335907 0.849981009960 -0.012326 0.989421 0.144547
0.027114402503 2.266524791718 0.894337415695 -0.006935 0.744860 0.667184
-0.000725515594 2.222497224808 0.926932752132 -0.001162 0.212622 0.977134
0.076289974153 2.198808431625 0.930164277554 0.003256 0.116148 0.993227
0.502237439156 2.212491273880 0.918103516102 0.065519 0.172732 0.982787
0.795175373554 2.377772092819 0.495149105787 0.897170 0.246022 0.366823
0.808646738529 2.377125024796 0.461235314608 0.910151 0.230804 0.344028
0.797144353390 2.390326261520 0.481201469898 0.897306 0.264609 0.353305
0.793166279793 2.424990892410 0.459752470255 0.827015 0.419042 0.374766
0.843951344490 2.462364673615 0.255876928568 0.665064 0.720615 0.195970
0.874379158020 2.376784324646 0.225253671408 0.972086 0.125145 0.198462
0.864978671074 2.443633317947 0.211625263095 0.930835 0.319582 0.177236
0.683903813362 2.483760118484 -0.200983375311 0.064512 0.996103 -0.060138
0.604084908962 2.457150220871 -0.421531409025 0.067524 0.984429 -0.162295
0.526067256927 2.472255706787 -0.355453372002 0.042336 0.973721 -0.223774
0.503868997097 2.465665340424 -0.402079433203 0.047287 0.988423 -0.144169
0.148178234696 2.462285041809 -0.505511403084 0.007765 0.990617 -0.136446
0.049692641944 2.477353334427 -0.395827591419 -0.001100 0.990809 -0.135260
0.150229319930 2.479634761810 -0.373692333698 0.012298 0.989468 -0.144228
0.015367150307 2.480127811432 -0.376413464546 -0.001114 0.988281 -0.152643
0.475328028202 2.488819599152 -0.270230263472 0.034996 0.997923 -0.054085
0.577709615231 2.488748073578 -0.203731372952 0.037272 0.997828 -0.054311
0.523152768612 2.491539716721 -0.190011769533 0.034996 0.997923 -0.054085
0.349902004004 2.496514797211 -0.165301024914 -0.019053 0.999794 -0.007020
0.326267480850 2.491984128952 -0.264107972383 -0.061067 0.997429 -0.037497
0.045348249376 2.487102985382 -0.332589864731 -0.011362 0.998854 -0.046482
0.249695464969 2.479256391525 -0.188188955188 -0.057950 0.996089 0.066698
0.866285502911 2.473227977753 -0.092675894499 0.386275 0.922118 0.022110
0.827533602715 2.480496406555 -0.102846287191 0.063348 0.997991 0.001038
0.753267407417 2.484383583069 -0.107446379960 0.046293 0.998902 -0.007201
0.430258810520 2.493657588959 0.009087197483 0.012960 0.999876 -0.008972
0.560098230839 2.490968942642 -0.079733356833 0.023387 0.999540 -0.019320
0.365816324949 2.490535736084 -0.113587923348 0.009394 0.865633 -0.500591
0.763239681721 2.488812446594 0.224035948515 0.030568 0.998197 0.051649
0.751463294029 2.493083000183 0.116939842701 0.038303 0.998982 0.023810
0.663122594357 2.494148731232 0.196627750993 0.037347 0.997701 0.056554
0.594943702221 2.495873928070 0.206226184964 0.026457 0.997954 0.058205
0.518586456776 2.499845743179 0.145098611712 0.017287 0.999577 0.023388
0.570936203003 2.499237775803 0.118167527020 0.016947 0.999852 0.002991
0.534915208817 2.499746799469 0.084411792457 0.015072 0.999773 -0.015072
0.509440541267 2.498506784439 0.057086985558 0.011275 0.945831 -0.324464
0.453837126493 2.500475168228 0.067594312131 0.011362 0.998854 -0.046482
0.448221981525 2.500740051270 0.078536503017 0.009007 0.999815 -0.017014
0.504054248333 2.493634700775 0.036371968687 0.011497 0.998158 -0.059576
0.280871838331 2.495236158371 -0.027032475919 0.000991 0.999917 0.012883
0.202004417777 2.495472431183 -0.045324869454 -0.004955 0.999928 0.010901
0.187963098288 2.494954109192 -0.006644585170 -0.002967 0.999956 0.008902
0.187610343099 2.495802402496 0.038354136050 -0.001034 0.998260 -0.058965
0.159737020731 2.496108055115 0.041431792080 -0.001116 0.987889 -0.155160
0.080947816372 2.501770973206 0.068220973015 -0.002990 0.999816 -0.018940
0.144077166915 2.495112657547 -0.082919925451 -0.004965 0.999928 -0.010923
0.021244803444 2.494268417358 -0.048554312438 -0.006910 0.999972 0.002961
0.040883988142 2.502098560333 0.096042267978 -0.004975 0.999904 -0.012934
0.034254517406 2.497658252716 0.223417028785 -0.005389 0.994730 0.102383
0.361652553082 2.497948884964 0.218487784266 0.007529 0.994956 0.100033
0.555997848511 2.495924234390 0.216288968921 0.016212 0.995437 0.094032
0.712855279446 2.486082077026 0.249702975154 -0.066867 0.940078 0.334337
0.352424263954 2.488514184952 0.252107501030 0.005669 0.985221 0.171195
0.172054931521 2.487478494644 0.260502099991 -0.001131 0.985302 0.170816
0.148096978664 2.486376285553 0.268411397934 -0.001100 0.990809 0.135260
0.191682636738 2.485177516937 0.277460932732 0.001100 0.991102 0.133100
0.676371097565 2.478138923645 0.295996755362 0.030601 0.989441 0.141672
0.110354714096 2.480043172836 0.305152833462 -0.003676 0.954626 0.297785
0.127635553479 2.481489896774 -0.250725150108 -0.005315 0.996086 0.088234
0.051078259945 2.474913120270 -0.187426328659 -0.009645 0.995597 0.093237
0.012870514765 2.472584962845 -0.164942622185 -0.009498 0.997300 0.072819
0.664641261101 2.478826284409 -0.304612219334 0.062198 0.996258 -0.060016
0.498568832874 2.485707759857 -0.313095688820 0.035000 0.998035 -0.051970
0.277625739574 2.474652051926 -0.396646916866 0.014405 0.991743 -0.127431
0.078515231609 2.469327688217 -0.455190122128 0.005493 0.991973 -0.126331
0.176900923252 2.475653648376 -0.399928390980 0.012209 0.991164 -0.132081
0.882070064545 2.450709104538 -0.080957800150 0.952494 0.304252 0.013660
0.693300724030 2.414628982544 0.603510558605 -0.026679 0.943938 0.329044
0.266849696636 2.498378753662 -0.118105329573 -0.003929 0.899854 0.436174
0.081233561039 2.477845191956 -0.159462228417 -0.000978 -0.000978 -0.999999
0.180901229382 2.474848270416 -0.145998477936 0.004907 -0.999987 0.000981
0.022727793083 2.474112987518 -0.116732507944 0.004907 -0.999987 -0.000981
0.247026041150 2.508651971817 -0.141622990370 -0.004916 0.999984 0.002950
0.135741114616 -2.050724744797 0.318565249443 0.034632 -0.544418 0.838099
0.192186295986 -2.074435710907 0.302790731192 0.045266 -0.484213 0.873778
0.355221003294 -2.048026561737 0.308073103428 0.062503 -0.487521 0.870871
0.531194984913 -2.071318149567 0.281360298395 0.082219 -0.458474 0.884896
0.178815379739 -2.034768342972 0.326625943184 -0.059510 0.870511 0.488538
0.263547539711 -2.027403354645 0.327707886696 -0.083118 0.863587 0.497302
0.312891274691 -2.019603490829 0.323993027210 -0.108127 0.891697 0.439529
0.744347155094 -2.326614856720 0.063018314540 0.378763 -0.788149 0.485139
0.596260190010 -2.386234998703 0.043156072497 0.288817 -0.955515 0.059799
0.855604588985 -2.050787448883 0.202953547239 0.387792 -0.435667 0.812288
0.448239892721 -1.919744133949 0.341939687729 -0.110950 0.711561 0.693809
0.430171608925 -1.934410452843 0.349643290043 -0.007286 0.059331 0.998212
0.415738075972 -1.946079254150 0.350080013275 0.029522 -0.201932 0.978955
0.610301256180 -1.990951061249 0.316280454397 0.127095 -0.455542 0.881095
0.286416143179 -2.013225317001 0.332989394665 0.052937 -0.438424 0.897208
0.467438906431 -1.988851785660 0.332385003567 0.073004 -0.442159 0.893961
0.118307128549 -2.039079904556 0.326215296984 0.034607 -0.549567 0.834733
0.475339114666 -2.005514860153 0.319480866194 0.104884 -0.695782 0.710554
0.568834543228 -2.036085844040 0.290599167347 0.017289 -0.456167 0.889726
0.098619043827 -2.070400714874 0.303343951702 0.034405 -0.527085 0.849116
0.070527806878 -2.083477020264 0.296390533447 0.014771 -0.490144 0.871516
0.406305164099 -2.074702024460 0.283276796341 0.070684 -0.464296 0.882855
0.727923393250 -1.936908841133 0.313303560019 0.254971 -0.420928 0.870522
0.745528757572 -1.930194735527 0.311406463385 0.275686 -0.415813 0.866658
0.784092485905 -2.044320583344 0.238954752684 0.364132 -0.443636 0.818899
0.290398478508 -2.147469758987 0.265720039606 0.036655 -0.304617 0.951769
0.286488890648 -2.166883945465 0.258233606815 0.046090 -0.375306 0.925754
0.590402424335 -2.140573501587 0.243829190731 0.159944 -0.476897 0.864284
0.397324383259 -2.178290843964 0.245449364185 0.070765 -0.467607 0.881099
0.556499063969 -2.167693376541 0.234268769622 0.109331 -0.464300 0.878904
0.550244927406 -2.182883739471 0.226665750146 0.116136 -0.488917 0.864565
0.530126988888 -2.193346977234 0.223448947072 0.116424 -0.490131 0.863838
0.258763104677 -2.251717567444 0.214489862323 0.045484 -0.505833 0.861432
0.110704310238 -2.237560987473 0.229179516435 0.028732 -0.513076 0.857862
0.183860525489 -2.288421630859 0.195041388273 0.045901 -0.538288 0.841510
0.595203220844 -2.202390432358 0.207495450974 0.187695 -0.515034 0.836367
0.288967221975 -2.286281347275 0.190596371889 0.057938 -0.563837 0.823852
0.102981150150 -2.325831413269 0.172352477908 0.029114 -0.572568 0.819340
0.160186812282 -2.340861797333 0.159439176321 0.029292 -0.603974 0.796465
0.575201690197 -2.273047208786 0.166038915515 0.198005 -0.587875 0.784345
0.027755575255 -2.397844076157 0.115770608187 0.012551 -0.704256 0.709835
0.764564394951 -2.279113054276 0.100841350853 0.314244 -0.610761 0.726789
0.509083330631 -2.379745483398 0.086536422372 0.162356 -0.757157 0.632735
0.037781555206 -2.420990705490 0.091882526875 0.015301 -0.755325 0.655172
0.496643662453 -2.449294567108 -0.542068600655 0.163698 -0.906746 -0.388606
0.464971303940 -2.425704717636 -0.589763462543 0.107352 -0.777932 -0.619110
0.762373447418 -2.304126262665 -0.631592273712 0.303339 -0.608282 -0.733470
0.597889721394 -2.353350639343 -0.637533307076 0.139111 -0.614783 -0.776331
0.497027814388 -2.394494295120 -0.618734419346 0.110943 -0.690808 -0.714476
0.468360900879 -2.395793199539 -0.621794283390 0.092401 -0.693740 -0.714274
0.405607551336 -2.406893253326 -0.619001746178 0.076876 -0.694788 -0.715095
0.339708477259 -2.477679967880 -0.523581206799 0.099069 -0.994033 -0.045639
0.362516671419 -2.357760906219 -0.667555034161 0.101596 -0.948669 -0.299510
0.174444973469 -2.423789024353 -0.620716929436 0.035237 -0.652590 -0.756892
0.046259883791 -2.439286231995 -0.610207200050 0.012525 -0.694416 -0.719465
0.066097587347 -2.394178390503 -0.646888375282 0.009643 -0.610281 -0.792126
0.771684765816 -2.261273145676 -0.683806300163 0.457460 -0.821529 -0.340325
0.974372506142 -2.139749765396 -0.548416435719 0.913408 -0.300597 -0.274458
1.004626154900 -2.015226125717 -0.527560651302 0.963959 -0.117430 -0.238732
1.000736355782 -2.014459371567 -0.548378884792 0.974788 -0.129219 -0.181910
0.992740094662 -2.099019289017 -0.523666322231 0.927221 -0.195575 -0.319392
0.995596349239 -2.088043451309 -0.521414935589 0.943667 -0.187638 -0.272554
0.927535593510 -2.252972126007 -0.513350188732 0.748706 -0.574062 -0.331500
0.925771951675 -2.265748739243 -0.491085976362 0.714953 -0.654979 -0.244631
0.895184934139 -2.301324367523 -0.482948243618 0.665730 -0.703682 -0.248265
0.860679507256 -2.325150966644 -0.501128435135 0.600583 -0.758216 -0.253790
0.862294495106 -2.333767175674 -0.473977774382 0.598727 -0.751188 -0.277924
1.014494538307 -1.996426105499 -0.479142934084 0.989688 -0.082377 -0.117185
1.017302989960 -1.975196361542 -0.468192100525 0.992954 -0.082652 -0.084916
0.962040185928 -2.223896980286 -0.458833366632 0.883284 -0.453732 -0.118056
0.775686979294 -2.410094261169 -0.407622188330 0.498342 -0.861032 -0.101382
0.677814304829 -2.452742576599 -0.419692307711 0.351437 -0.909686 -0.221275
0.656773447990 -2.461243629456 -0.414292901754 0.297264 -0.951506 -0.079184
0.846390008926 -2.363963365555 -0.373802661896 0.567510 -0.795130 0.213778
0.556379556656 -2.490938425064 -0.406708896160 0.251185 -0.966000 -0.061234
0.501838922501 -2.502569675446 -0.417837083340 0.213092 -0.975354 -0.057231
0.373614937067 -2.514195203781 -0.462302714586 0.135205 -0.935510 -0.326404
0.329220563173 -2.515881776810 -0.473564416170 0.106229 -0.937232 -0.332132
0.158285871148 -2.535871267319 -0.459719240665 0.064301 -0.938269 -0.339877
0.328678727150 -2.527752161026 -0.433334439993 0.113657 -0.975455 -0.188596
0.377940714359 -2.523189067841 -0.423192232847 0.143336 -0.972909 -0.181390
0.414642989635 -2.519803285599 -0.399084299803 0.145740 -0.987534 -0.059462
0.517580807209 -2.498573303223 -0.380221515894 0.210569 -0.973102 0.093448
0.647124171257 -2.449456453323 -0.343667447567 0.263697 -0.840438 0.473421
0.755329132080 -2.408366918564 -0.347364097834 0.376981 -0.803691 0.460398
0.984671831131 -2.130625009537 -0.322619527578 0.837277 -0.224189 0.498706
0.958899259567 -2.187823295593 -0.318248122931 0.622236 -0.329802 0.709967
0.932553946972 -2.237955093384 -0.321104884148 0.553651 -0.392649 0.734368
0.870842814445 -2.288809061050 -0.310650229454 0.377173 -0.431282 0.819595
0.304177552462 -2.534726619720 -0.398532569408 0.119770 -0.989554 0.080234
0.648044586182 -2.417444467545 -0.314064323902 0.187866 -0.600256 0.777431
0.771452426910 -2.341306447983 -0.299950122833 0.285346 -0.488051 0.824854
0.486873507500 -2.445176601410 -0.305219829082 0.114484 -0.531844 0.839068
0.142294853926 -2.481650352478 -0.303217709064 0.020477 -0.525586 0.850494
0.122108735144 -2.494599819183 -0.310690283775 0.023206 -0.525555 0.850443
0.226827576756 -2.502015352249 -0.320558845997 0.055297 -0.599762 0.798265
0.627569735050 -2.446294784546 -0.488512635231 0.286452 -0.843873 -0.453678
0.965627551079 -2.064528465271 -0.634515225887 0.882865 -0.275237 -0.380519
0.976963877678 -2.014251470566 -0.646555244923 0.921583 -0.293817 -0.253686
0.809168100357 -2.247524738312 -0.658024549484 0.449291 -0.653059 -0.609633
0.785188674927 -2.257829904556 -0.665947139263 0.472577 -0.842018 -0.260148
0.624686300755 2.504918575287 -0.616136848927 0.087086 0.843732 -0.529653
0.013000933453 2.540579080582 -0.606762051582 -0.001339 0.863341 -0.504619
0.081784158945 2.545451164246 -0.596496641636 0.008977 0.924588 -0.380863
0.256498932838 2.540979146957 -0.599701106548 0.037941 0.924985 -0.378105
0.309813201427 2.538882970810 -0.599533379078 0.037887 0.926270 -0.374950
0.342634111643 2.543424129486 -0.574928164482 0.066604 0.987374 -0.143724
0.152853652835 2.551975727081 -0.563081562519 0.013587 0.998131 -0.059574
0.649644970894 2.515380382538 -0.557582199574 0.113670 0.990882 0.072336
0.315477579832 2.545848846436 -0.553058743477 0.048899 0.996455 0.068459
0.122712522745 2.552687883377 -0.556933164597 0.013375 0.999020 0.042183
0.130972862244 2.548591613770 -0.539328277111 0.017936 0.586353 0.809857
0.440877079964 2.502462148666 -0.532810032368 0.024913 0.214727 0.976356
0.579330325127 2.454751014709 -0.526072680950 -0.019532 0.173490 0.984642
0.676876008511 2.420900821686 -0.484705924988 -0.997711 0.013667 0.066234
0.736282348633 2.419022321701 -0.327533394098 -0.034095 0.025829 0.999085
0.781697154045 2.416182279587 -0.326754748821 -0.011228 0.035726 0.999299
0.944735407829 2.091195583344 -0.338265508413 0.609810 0.079290 0.788572
0.889181852341 2.170853137970 -0.630428612232 0.930450 0.008934 -0.366309
0.680431604385 2.477361440659 -0.445619225502 -0.998485 0.040947 0.036748
0.911804854870 2.363106250763 -0.342012554407 0.475881 0.097436 0.874096
0.944795131683 2.202959537506 -0.353947430849 0.960651 0.077822 0.266635
0.930741190910 2.135588169098 -0.485711485147 0.976266 -0.015346 -0.216030
0.894704639912 2.169212579727 -0.615267813206 0.935306 0.016588 -0.353451
0.682763993740 2.491250753403 -0.482820361853 -0.971948 0.231763 -0.040043
0.874340832233 2.448176145554 -0.566477179527 0.860718 0.409647 -0.302249
0.810299456120 2.479046821594 -0.333076000214 0.003464 0.197447 0.980307
0.871202409267 2.470518589020 -0.336504638195 0.418076 0.238258 0.876610
0.922274172306 2.227227210999 -0.519386887550 0.958745 0.023505 -0.283294
0.912570178509 2.237249374390 -0.547352552414 0.957237 0.046541 -0.285536
0.910393476486 2.203999757767 -0.561030566692 0.962406 0.046066 -0.267681
0.924169659615 2.342301845551 -0.487206310034 0.983189 0.065546 -0.170419
0.934542119503 2.312124490738 -0.437091708183 0.984901 0.079792 -0.153630
0.909229815006 2.424984455109 -0.494384437799 0.935386 0.321838 -0.146539
0.778137385845 2.512825250626 -0.353138804436 0.094189 0.878625 0.468131
0.898903131485 2.417303562164 -0.530297815800 0.857353 0.251267 -0.449234
0.643138229847 2.493212461472 -0.534192621708 -0.006277 0.340224 0.940324
0.584850549698 2.489379405975 -0.532723546028 -0.005994 0.252954 0.967460
0.444408595562 2.445152044296 -0.523580670357 0.010044 0.141727 0.989855
0.370646476746 2.479075908661 -0.527619600296 0.016812 0.142343 0.989675
0.982253849506 -1.481173992157 -0.609053909779 0.999960 0.008884 0.000987
0.982994973660 -1.559528470039 -0.602900803089 0.999956 0.008884 0.002961
0.983183264732 -1.598267674446 -0.567340791225 0.999972 0.006896 0.002956
0.983496785164 -1.655164241791 -0.690726220608 0.999984 0.004916 -0.002950
0.983548521996 -1.652130842209 -0.652839303017 0.999995 0.002944 -0.000981
0.983155667782 -1.573928356171 -0.649956941605 0.999956 0.008884 -0.002961
0.924213469028 -1.717248439789 -0.797067701817 -0.004088 0.573732 0.819033
0.981951653957 -1.755450844765 -0.758918881416 -0.006829 0.818121 0.575006
0.995962262154 -1.784603953362 -0.719458043575 0.996124 0.081294 0.033602
0.968057274818 -1.691447496414 -0.449835300446 -0.003901 0.422597 -0.906309
0.962828695774 -1.561004877090 -0.426489353180 0.001059 -0.087863 -0.996132
0.931649684906 -1.522542715073 -0.435823529959 0.001197 -0.259673 -0.965696
0.992902517319 -1.504490733147 -0.440900415182 0.532430 -0.354414 -0.768706
1.005970358849 -1.507291793823 -0.833528518677 0.546328 0.358274 -0.757077
0.921923816204 -1.773543000221 -0.720858752728 0.999976 0.006883 -0.000983
0.921128869057 -1.653650164604 -0.815321326256 0.999976 0.006883 -0.000983
0.920491397381 -1.558276534081 -0.823700129986 0.999976 0.006883 -0.000983
0.920019268990 -1.488551735878 -0.811856031418 0.999976 0.006883 -0.000983
0.919974982738 -1.481908082962 -0.456393331289 0.999976 0.006883 0.000983
0.938750863075 -1.404688954353 -0.650906801224 0.521756 0.849797 -0.074941
0.979107320309 -1.564037084579 -0.489749819040 0.801502 0.160902 0.575939
0.977531790733 -1.739121198654 -0.641507863998 0.805355 -0.590217 -0.055200
0.939478456974 -1.709508299828 -0.779645681381 0.203490 -0.555389 -0.806309
0.980243265629 -1.664888501167 -0.514485061169 0.899570 0.254706 -0.354822
0.943172037601 -1.619750261307 -0.848549902439 -0.001133 0.173397 0.984851
0.791609525681 -1.555504441261 -0.846992492676 0.001133 -0.173397 0.984851
0.919884204865 -1.536038279533 -0.843711078167 0.001133 -0.173397 0.984851
0.788208305836 -1.476931214333 -0.817161679268 0.004017 -0.499448 0.866335
0.867668986320 -1.465569615364 -0.810908198357 0.004017 -0.499448 0.866335
0.861322283745 -1.432302713394 -0.781045854092 0.004143 -0.766514 0.642214
0.876974284649 -1.404550790787 -0.748097598553 0.004143 -0.766514 0.642214
0.877147912979 -1.398798346519 -0.739344477654 0.006292 -0.940032 0.341029
0.821414649487 -1.374062776566 -0.629301190376 0.006883 -0.999976 0.000983
0.985150039196 -1.372969985008 -0.655021250248 0.006883 -0.999976 0.000983
0.882453024387 -1.375513792038 -0.588277637959 0.006292 -0.940032 -0.341029
0.980933725834 -1.376227378845 -0.584511399269 0.006292 -0.940032 -0.341029
0.901267945766 -1.409109234810 -0.510022521019 0.004143 -0.766514 -0.642214
0.857764899731 -1.435276150703 -0.479184508324 0.004143 -0.766514 -0.642214
0.908529222012 -1.484120368958 -0.441970288754 0.004017 -0.499448 -0.866335
0.898490905762 -1.521136879921 -0.422687768936 0.001133 -0.173397 -0.984851
0.831657230854 -1.576420664787 -0.413018465042 0.001133 -0.173397 -0.984851
0.958053171635 -1.623195767403 -0.415821254253 -0.001133 0.173397 -0.984851
0.905960857868 -1.686219096184 -0.434339672327 -0.004017 0.499448 -0.866335
0.910926818848 -1.691009879112 -0.437124729156 -0.004017 0.499448 -0.866335
0.853994131088 -1.757194519043 -0.488990098238 -0.004143 0.766514 -0.642214
0.963072836399 -1.785579323769 -0.527125716209 -0.006292 0.940032 -0.341029
0.888670086861 -1.799774765968 -0.564763307571 -0.006292 0.940032 -0.341029
0.814854443073 -1.810684442520 -0.645172774792 -0.006883 0.999976 0.000983
0.988557934761 -1.809525012970 -0.621486723423 -0.006883 0.999976 0.000983
0.847341954708 -1.798097491264 -0.704348385334 -0.006292 0.940032 0.341029
0.863691210747 -1.775086283684 -0.753356635571 -0.004143 0.766514 0.642214
0.910050630569 -1.751982569695 -0.780521154404 -0.004143 0.766514 0.642214
0.815610706806 -1.708081245422 -0.817132592201 -0.004017 0.499448 0.866335
0.852361619473 -1.693708062172 -0.825289189816 -0.004017 0.499448 0.866335
0.986509323120 -1.666570425034 -0.840243458748 -0.001133 0.173397 0.984851
1.010947108269 -1.546297907829 -0.917187035084 0.999863 0.006992 -0.014983
0.975279808044 -1.460021615028 -0.947414636612 -0.003901 0.422597 -0.906309
0.868221998215 -1.399276852608 -0.913728058338 -0.004088 0.573732 -0.819033
0.758408665657 -1.298500776291 -0.781477212906 -0.725363 0.622883 -0.293027
0.759633600712 -1.280269622803 -0.745673239231 -0.727076 0.662787 -0.179090
0.788567960262 -1.261490225792 -0.715069472790 -0.006015 0.965957 -0.258631
0.751430511475 -1.344464898109 -0.668882369995 -0.999976 0.006896 -0.000985
0.752253532410 -1.344055533409 -0.814803183079 -0.999948 0.004945 -0.008902
0.751832306385 -1.378629088402 -0.784300088882 -0.999948 0.004945 -0.008902
0.752372145653 -1.354981660843 -0.835187375546 -0.999936 0.002967 -0.010880
0.752408206463 -1.391500711441 -0.851063668728 -0.999936 0.002967 -0.010880
0.752906084061 -1.418629288673 -0.900115668774 -0.999940 0.000989 -0.010880
0.759424805641 -1.409823298454 -0.906991124153 -0.724386 0.392581 -0.566697
0.862983345985 -1.449013948441 -0.941932320595 -0.003901 0.422597 -0.906309
0.979260981083 -1.521218657494 -0.966629385948 -0.001197 0.259673 -0.965696
1.003024220467 -1.546734213829 -0.960543215275 0.721280 0.064786 -0.689607
1.009929537773 -1.626786589622 -0.872288942337 0.914618 0.041151 0.402220
1.011010169983 -1.782932996750 -0.781059622765 0.912930 0.337104 0.230041
1.009038448334 -1.803452730179 -0.739477753639 0.913246 0.370696 0.169014
1.006887078285 -1.811251878738 -0.553604662418 0.912341 0.396130 -0.103518
1.001560926437 -1.738504648209 -0.465465128422 0.912306 0.292462 -0.286642
1.001878261566 -1.667654514313 -0.420874208212 0.914244 0.108937 -0.390243
1.002679109573 -1.413549184799 -0.485841244459 0.917221 -0.323979 -0.231825
1.009172439575 -1.343507766724 -0.431974381208 0.999778 0.019053 0.009025
0.837279200554 -1.260376095772 -0.551965057850 -0.006015 0.965957 0.258631
0.804305672646 -1.254826426506 -0.575452208519 -0.007458 0.996241 0.086305
1.006486415863 -1.266752600670 -0.604747354984 0.717284 0.694284 0.058935
0.772692799568 -1.252087831497 -0.609169423580 -0.007458 0.996241 0.086305
0.755700826645 -1.418490171432 -0.795161128044 -0.912306 -0.292462 0.286642
0.909955322742 -1.526801228523 -0.968001306057 -0.001197 0.259673 -0.965696
1.013054370880 -1.828547596931 -0.496752709150 0.999952 -0.006924 0.006924
1.011079430580 -1.627596139908 -0.317193001509 0.999876 0.004975 0.014924
1.011203169823 -1.565707206726 -0.354019165039 0.999863 0.006992 0.014983
1.010158896446 -1.438239932060 -0.381727486849 0.999826 0.015043 0.011031
0.956953287125 -1.366379857063 -0.374442905188 -0.004151 0.707101 0.707101
0.899769425392 -1.342888951302 -0.398313492537 -0.004151 0.707101 0.707101
0.763578534126 -1.335419774055 -0.415597736835 -0.725642 0.483208 0.489850
0.981144487858 -1.276618838310 -0.499290019274 -0.006517 0.905831 0.423590
0.752078294754 -1.283231258392 -0.538099646568 -0.727076 0.662787 0.179090
0.751870751381 -1.310475826263 -0.536416649818 -0.999972 0.006910 0.002961
0.752020120621 -1.319443821907 -0.499527335167 -0.999952 0.006924 0.006924
0.751841843128 -1.409900188446 -0.462919384241 -0.999936 0.002967 0.010880
0.752326011658 -1.397714257240 -0.419010072947 -0.999936 0.002967 0.010880
0.752323091030 -1.473214745522 -0.408566057682 -0.999917 -0.000989 0.012857
0.752944827080 -1.426251649857 -0.359662979841 -0.999940 0.000989 0.010880
0.776667714119 -1.384699463844 -0.360996454954 -0.004088 0.573732 0.819033
0.753036141396 -1.488996028900 -0.354175090790 -0.999917 -0.000989 0.012857
0.763882100582 -1.553633570671 -0.412402570248 -0.914244 -0.108937 -0.390243
0.756452739239 -1.495850086212 -0.320032447577 -0.723452 0.172833 0.668390
0.833624303341 -1.525902271271 -0.296466708183 -0.001197 0.259673 0.965696
0.793192386627 -1.545788645744 -0.293500572443 -0.001059 0.087863 0.996132
0.755475401878 -1.577393651009 -0.307260692120 -0.722974 0.055834 0.688615
0.856962561607 -1.605281233788 -0.973538458347 0.001059 -0.087863 -0.996132
0.876395046711 -1.457966923714 -0.317940890789 -0.003901 0.422597 0.906309
0.905270993710 -1.588775277138 -0.289673894644 -0.001059 0.087863 0.996132
0.754555404186 -1.724756479263 -0.371441096067 -0.999831 -0.013011 0.013011
