0.743149757385 -1.543793916702 -0.088258683681 0.097566 0.473692 -0.875270
0.682018339634 -1.529468655586 -0.088606402278 0.094074 0.321971 -0.942064
-0.413366675377 1.744163393974 -0.517070055008 -0.001164 0.215328 -0.976541
-0.140429705381 1.737439036369 -0.518550217152 -0.001164 0.215328 -0.976541
-0.584801852703 2.042130947113 -0.441678762436 -0.684018 0.261863 -0.680843
-0.270091176033 1.901745080948 -0.483399271965 -0.001158 0.207235 -0.978290
-0.542990028858 2.030063629150 -0.455823063850 -0.001158 0.207235 -0.978290
-0.431866884232 1.902826547623 -0.483264684677 0.001162 0.212622 -0.977134
-0.463840574026 1.977746248245 -0.467042386532 0.001162 0.212622 -0.977134
-0.256335139275 1.833525776863 -0.498062700033 0.001162 0.212622 -0.977134
-0.460620135069 1.904334664345 -0.482950806618 0.001160 0.209925 -0.977717
-0.395684242249 1.827692985535 -0.499314725399 0.001160 0.209925 -0.977717
-0.567893624306 1.884133577347 -0.487265616655 0.001160 0.209925 -0.977717
-0.373702853918 1.811991333961 -0.502658724785 -0.001158 0.207235 -0.978290
-0.506789803505 1.833660483360 -0.498012125492 -0.001158 0.207235 -0.978290
-0.123874485493 1.750809550285 -0.515702605247 -0.001158 0.207235 -0.978290
-0.184261590242 1.864369988441 -0.491422355175 -0.001160 0.209925 -0.977717
-0.085331976414 1.805551648140 -0.504012107849 -0.001160 0.209925 -0.977717
-0.270286202431 1.969129085541 -0.469029992819 -0.001160 0.209925 -0.977717
-0.263470858335 2.054603815079 -0.450728505850 0.001160 0.209925 -0.977717
-0.243381798267 2.083661556244 -0.444498032331 0.001160 0.209925 -0.977717
-0.124693311751 1.851496458054 -0.494187474251 0.001160 0.209925 -0.977717
-0.216472536325 2.094442844391 -0.442188978195 0.001160 0.209925 -0.977717
-0.095751561224 1.942147493362 -0.474774748087 0.001160 0.209925 -0.977717
-0.198221996427 2.079896450043 -0.445301026106 0.001160 0.209925 -0.977717
-0.025156378746 2.100996255875 -0.440733045340 0.001160 0.209925 -0.977717
-0.016361089423 1.892190575600 -0.485445320606 0.001160 0.209925 -0.977717
0.266835749149 2.130922079086 -0.419586688280 -0.001368 0.797530 -0.603278
0.382214426994 2.108775615692 -0.439164280891 -0.001160 0.209925 -0.977717
0.211941838264 2.012690782547 -0.459689766169 -0.001160 0.209925 -0.977717
0.117565587163 1.872733473778 -0.489636927843 -0.001160 0.209925 -0.977717
0.450227051973 2.116125583649 -0.437588036060 0.001160 0.209925 -0.977717
0.421438574791 2.084631681442 -0.444320678711 0.001160 0.209925 -0.977717
0.460779339075 2.062982559204 -0.448929607868 0.001160 0.209925 -0.977717
0.134578570724 1.820423841476 -0.500817000866 0.001158 0.207235 -0.978290
0.425983011723 2.012948274612 -0.459619075060 0.001158 0.207235 -0.978290
0.315377980471 1.874050617218 -0.489349752665 -0.001162 0.212622 -0.977134
0.475027680397 1.961711287498 -0.470542550087 -0.001162 0.212622 -0.977134
0.572667956352 2.018080949783 -0.458441495895 -0.001162 0.212622 -0.977134
0.421776980162 1.893626213074 -0.485236853361 -0.001160 0.209925 -0.977717
0.537518680096 1.901757836342 -0.483502089977 -0.001160 0.209925 -0.977717
0.374249637127 1.871448874474 -0.489971548319 -0.001160 0.209925 -0.977717
0.483128786087 1.769803166389 -0.511483490467 0.001158 0.207235 -0.978290
0.600392937660 1.780340194702 -0.509192645550 0.001158 0.207235 -0.978290
0.520113885403 1.752393126488 -0.515264153481 0.001164 0.215328 -0.976541
0.434628307819 1.756097555161 -0.514454722404 0.001164 0.215328 -0.976541
0.592009723186 1.991022825241 -0.451531022787 0.718884 0.248054 -0.649365
0.110602125525 2.069476842880 -0.447526693344 -0.001160 0.209925 -0.977717
0.027828650549 1.808071136475 -0.503464281559 -0.001160 0.209925 -0.977717
0.177463993430 2.036695957184 -0.454545170069 -0.001160 0.209925 -0.977717
0.070451229811 2.110825538635 -0.438654869795 -0.001160 0.209925 -0.977717
0.032148357481 1.997424840927 -0.462918609381 -0.001160 0.209925 -0.977717
-0.646145820618 1.783194422722 -0.493072688580 -0.001176 0.231726 -0.972780
-0.319084614515 -2.275171518326 -0.145310759544 -0.127302 -0.929440 0.346316
-0.311088085175 -2.246143579483 -0.065178021789 -0.107976 -0.922576 0.370397
-0.268419116735 -2.259517431259 -0.087411619723 -0.070975 -0.922679 0.378981
-0.232298523188 -2.273832082748 -0.117029935122 -0.070305 -0.932532 0.354177
-0.115906409919 -2.290411233902 -0.137653738260 -0.070131 -0.932877 0.353302
-0.249042242765 -2.288990259171 -0.167710483074 -0.071446 -0.966397 0.246926
-0.174295037985 -2.296723127365 -0.176470696926 -0.074386 -0.964493 0.253416
-0.069619201124 -2.309987545013 -0.199186041951 -0.028084 -0.965834 0.257637
-0.078936249018 -2.283567667007 -0.113703295588 -0.024451 -0.933000 0.359044
0.065842717886 -2.286800146103 -0.121321864426 0.024451 -0.933000 0.359044
0.295062661171 -2.248236894608 -0.066325061023 0.105166 -0.921908 0.372861
0.163571581244 -2.260947704315 -0.071565888822 0.070975 -0.922679 0.378981
0.074014507234 -2.255473852158 -0.044514443725 0.022057 -0.922507 0.385351
0.036997836083 -2.327881097794 -0.370639085770 0.023202 -0.999690 0.009079
0.061447568238 -2.327033042908 -0.338901489973 0.025168 -0.999658 0.007047
0.137218594551 -2.322699069977 -0.347535878420 0.071308 -0.997249 0.020222
-0.558938801289 -2.061263799667 -0.330237984657 -0.086585 -0.227130 0.970008
-0.391181796789 -2.121062040329 -0.330840677023 -0.085078 -0.252695 0.963798
-0.527140438557 -2.094920158386 -0.447635054588 -0.555188 -0.163115 -0.815573
-0.423860311508 -2.103292465210 -0.454316139221 -0.066604 -0.143724 -0.987374
-0.398384481668 -2.197506666183 -0.396910697222 -0.265113 -0.963938 -0.023213
-0.462288796902 -2.173834323883 -0.372820794582 -0.385752 -0.921298 -0.049048
0.525740563869 -2.054930925369 -0.326147139072 0.078385 -0.222713 0.971728
0.440834373236 -2.100825309753 -0.329916656017 0.078677 -0.228538 0.970351
0.462498724461 -2.090676069260 -0.453459054232 0.066604 -0.143724 -0.987374
0.549166858196 -2.122239351273 -0.352404236794 0.981120 -0.150659 -0.121262
0.518355011940 -2.121036767960 -0.444811075926 0.071893 -0.147323 -0.986472
0.417348653078 -2.184403896332 -0.425021469593 0.375297 -0.901005 -0.217585
0.191363662481 -1.219085931778 -0.566290259361 -0.951115 0.001230 -0.308835
0.183734714985 -0.098239809275 -0.575881004333 0.951115 0.001230 -0.308835
0.182352811098 0.727644622326 -0.578379452229 0.951115 0.001230 -0.308835
0.183751001954 0.692333042622 -0.574151158333 0.951115 0.001230 -0.308835
0.185603052378 0.615889668465 -0.568613409996 0.951115 0.001230 -0.308835
0.175085201859 0.104850135744 -0.586021482944 0.587928 0.001364 -0.808912
0.176304787397 0.686158299446 -0.583900153637 0.587928 0.001364 -0.808912
0.171054944396 -0.900855779648 -0.591087162495 0.587928 0.001364 -0.808912
0.168006539345 -0.493763536215 -0.592436850071 0.587928 0.001364 -0.808912
0.128733009100 -0.416898429394 -0.575643658638 -0.951115 0.001230 -0.308835
0.126902177930 -0.677653729916 -0.570562839508 -0.951115 0.001230 -0.308835
0.129867196083 0.457052528858 -0.577277064323 -0.951115 0.001230 -0.308835
0.126103863120 0.558155417442 -0.565480172634 -0.951115 0.001230 -0.308835
0.142562642694 -0.803402304649 -0.591499388218 -0.587928 0.001364 -0.808912
0.141593784094 -0.628481030464 -0.590423762798 -0.587928 0.001364 -0.808912
0.158298641443 -0.785897254944 -0.594418525696 -0.000979 0.002938 -0.999995
0.165623545647 -0.957326471806 -0.594782829285 -0.000979 0.002938 -0.999995
0.144149541855 0.484641581774 -0.589914977551 -0.587928 0.001364 -0.808912
0.140640050173 0.509321510792 -0.587312757969 -0.587928 0.001364 -0.808912
0.156277269125 0.461662054062 -0.591767311096 0.000979 0.002938 -0.999995
0.159465178847 0.472320854664 -0.591744661331 0.000979 0.002938 -0.999995
0.222009599209 1.100333213806 -0.528533577919 -0.422452 0.714027 -0.558300
0.353810399771 1.205388903618 -0.493425071239 -0.409343 0.497409 -0.764868
0.396793991327 1.344815373421 -0.476274788380 0.946096 0.099241 -0.308308
0.386994868517 1.695927023888 -0.543982982635 0.587634 -0.020740 -0.808861
0.372843325138 1.505191802979 -0.513516843319 0.587014 -0.184490 -0.788276
0.281750947237 1.156869769096 -0.477966487408 -0.681775 0.731560 0.001383
0.345759660006 1.123141646385 -0.507398664951 0.918783 0.392631 0.040982
0.306790471077 1.092845320702 -0.534646749496 0.422027 -0.025136 -0.906235
0.250208526850 1.051710367203 -0.559830725193 0.422027 -0.025136 -0.906235
0.541971981525 1.896354198456 -0.520876228809 -0.001158 0.207235 -0.978290
0.553240895271 1.881772518158 -0.523984193802 -0.001158 0.207235 -0.978290
0.430101275444 1.814766526222 -0.528930008411 0.001296 -0.908224 -0.418483
0.339777559042 1.957615494728 -0.507818758488 0.001158 0.207235 -0.978290
0.567462027073 1.947560906410 -0.497886627913 0.975784 0.126190 -0.178665
0.524268209934 1.952455639839 -0.508918583393 0.001158 0.207235 -0.978290
0.515062093735 2.057169437408 -0.486599564552 -0.001158 0.207235 -0.978290
0.430029451847 2.006435155869 -0.497413277626 0.001158 0.207235 -0.978290
0.355080187321 2.059556722641 -0.486090779305 0.001158 0.207235 -0.978290
0.393293619156 1.962143898010 -0.506853580475 0.001158 0.207235 -0.978290
-0.252929687500 -1.197750329971 -0.573325634003 -0.951115 0.001230 -0.308835
-0.127336621284 -0.196651130915 -0.565579354763 0.951115 0.001230 -0.308835
-0.128347933292 -0.497639834881 -0.569331467152 0.951115 0.001230 -0.308835
-0.132563754916 -0.521490335464 -0.582356929779 0.951115 0.001230 -0.308835
-0.131548017263 0.760327994823 -0.576506555080 0.951115 0.001230 -0.308835
-0.137329876423 0.940132975578 -0.581744015217 0.587662 0.061185 -0.806790
-0.143093347549 -0.213293358684 -0.589380025864 0.587928 0.001364 -0.808912
-0.146739393473 0.598827302456 -0.590303122997 0.587928 0.001364 -0.808912
-0.143271967769 -0.418645501137 -0.589946269989 0.587928 0.001364 -0.808912
-0.144554898143 -0.599348068237 -0.591262400150 0.587928 0.001364 -0.808912
-0.179001271725 -0.991902947426 -0.593350052834 -0.528033 0.260122 -0.808404
-0.153945073485 -0.761797249317 -0.594367325306 0.000979 0.002938 -0.999995
-0.148502349854 -0.345380902290 -0.593482375145 0.000979 0.002938 -0.999995
-0.165746793151 0.235142275691 -0.592248678207 -0.000979 0.002938 -0.999995
-0.167061433196 0.450291872025 -0.591791450977 -0.000979 0.002938 -0.999995
-0.170300155878 -0.520982384682 -0.592079162598 -0.587928 0.001364 -0.808912
-0.182286590338 -0.925842285156 -0.584230542183 -0.587928 0.001364 -0.808912
-0.183264002204 -0.105951152742 -0.581778109074 -0.587928 0.001364 -0.808912
-0.177091643214 0.634255945683 -0.584689676762 -0.587928 0.001364 -0.808912
-0.185717463493 -0.614325106144 -0.576173722744 -0.951115 0.001230 -0.308835
-0.184400260448 0.236019313335 -0.578421056271 -0.951115 0.001230 -0.308835
-0.186388060451 0.385904550552 -0.571984648705 -0.951115 0.001230 -0.308835
-0.189262613654 -0.652020335197 -0.565342724323 -0.951115 0.001230 -0.308835
-0.184674367309 0.951804459095 -0.578205764294 -0.950343 -0.026364 -0.310086
-0.268939077854 1.043421268463 -0.546934306622 -0.684192 -0.466723 -0.560402
-0.289208948612 1.150644183159 -0.513592839241 0.422452 0.714027 -0.558300
-0.223671615124 1.101133346558 -0.522690117359 0.681775 0.731560 0.001383
-0.234266638756 1.033077478409 -0.567528843880 -0.422027 -0.025136 -0.906235
-0.276438474655 1.125123977661 -0.534116387367 -0.001299 0.424733 -0.905318
-0.383704185486 1.346164822578 -0.491901159286 -0.587662 0.061185 -0.806790
-0.388927429914 1.572908997536 -0.517194747925 -0.951080 -0.070976 -0.300681
-0.354878932238 1.513751864433 -0.517044067383 0.001174 -0.228974 -0.973432
-0.335451006889 1.624530434608 -0.527625620365 0.950930 -0.095485 -0.294304
-0.345748722553 1.687873005867 -0.549605548382 0.587634 0.020740 -0.808861
-0.341569781303 1.734392166138 -0.539663910866 0.586177 0.207700 -0.783108
-0.536956071854 2.048907279968 -0.488360702991 0.001158 0.207235 -0.978290
-0.452061653137 1.906920909882 -0.518623948097 -0.001158 0.207235 -0.978290
-0.553243696690 1.937975406647 -0.512004911900 0.001158 0.207235 -0.978290
-0.573085844517 1.873989105225 -0.516257286072 -0.974586 0.039754 -0.220456
-0.566197156906 1.968623638153 -0.499410629272 -0.975784 0.126190 -0.178665
-0.387642771006 2.102571964264 -0.466486930847 0.001071 0.994811 0.101730
-0.351134687662 1.853218197823 -0.530070245266 -0.001158 0.207235 -0.978290
-0.400073140860 2.061789512634 -0.485614866018 0.001158 0.207235 -0.978290
-0.409375965595 1.948913216591 -0.509673595428 0.001158 0.207235 -0.978290
0.474523425102 1.490142464638 -0.512656688690 0.001059 0.087863 -0.996132
0.447848439217 1.426582574844 -0.518311679363 0.001059 0.087863 -0.996132
0.496524304152 1.278460144997 -0.523576498032 0.001005 0.029133 -0.999575
0.513894081116 1.143771529198 -0.525692760944 0.000981 0.004907 -0.999987
0.480835646391 1.154007077217 -0.525650203228 0.000981 0.004907 -0.999987
0.473087668419 1.163758873940 -0.524700045586 -0.822519 -0.252487 -0.509621
0.506159543991 1.035796523094 -0.514501750469 -0.822519 -0.252487 -0.509621
0.427239775658 1.235867738724 -0.481247812510 -0.846611 -0.104928 -0.521766
0.422044664621 1.353926062584 -0.496251404285 -0.846611 -0.104928 -0.521766
0.410868883133 1.529830217361 -0.479467809200 -0.848897 0.045849 -0.526566
0.548685789108 1.101790189743 -0.517049670219 0.823167 0.255786 -0.506922
0.490619063377 1.452384710312 -0.498143494129 0.848897 0.045849 -0.526566
0.497981041670 1.493095397949 -0.482618868351 0.848897 0.045849 -0.526566
-0.461618512869 1.530761718750 -0.509042799473 0.001059 0.087863 -0.996132
-0.493480861187 1.279993653297 -0.523530304432 0.001005 0.029133 -0.999575
-0.457808256149 1.270608782768 -0.523812890053 0.001005 0.029133 -0.999575
-0.428328901529 1.389647722244 -0.510709285736 0.846611 -0.104928 -0.521766
-0.482037693262 1.163387775421 -0.525611221790 0.000981 0.004907 -0.999987
-0.550699770451 1.162728786469 -0.485750257969 -0.823167 0.255786 -0.506922
-0.498326510191 1.331563591957 -0.512997746468 -0.841663 0.136130 -0.522563
-0.503384947777 1.465279579163 -0.479140430689 -0.848897 0.045849 -0.526566
-0.411155313253 1.474853634834 -0.482038795948 0.848897 0.045849 -0.526566
-0.412601798773 1.551820755005 -0.477529615164 0.848897 0.045849 -0.526566
-0.714754045010 1.310279250145 -0.395483225584 -0.902463 -0.390060 0.182796
-0.692322373390 1.309821009636 -0.286603271961 -0.903474 -0.387615 0.183000
-0.707092165947 1.320738434792 -0.362566530704 -0.903474 0.387615 0.183000
-0.650523722172 -1.368637204170 -0.119728222489 -0.903474 0.387615 0.183000
0.699183940887 1.295554518700 -0.358757674694 0.902463 -0.390060 0.182796
0.670548915863 1.315800547600 -0.181625291705 0.903474 0.387615 0.183000
0.674028456211 -1.416124582291 -0.248469457030 0.902463 -0.390060 0.182796
0.700666487217 -1.387446761131 -0.334003925323 0.903474 0.387615 0.183000
0.662993550301 -1.355368494987 -0.295702219009 0.301702 0.951325 0.062908
0.363954156637 -1.312077641487 -0.601371705532 0.529261 0.760507 -0.376182
0.540222644806 -1.352109432220 -0.567496120930 0.235344 0.913943 -0.330637
0.478091329336 -1.346755146980 -0.595597863197 0.238450 0.902600 -0.358407
0.585868000984 -1.605019450188 -0.571409344673 0.956644 0.001219 -0.291258
0.439228147268 -1.677402377129 -0.554905533791 0.174693 -0.949301 -0.261362
0.375116169453 -1.689548015594 -0.551153838634 0.088506 -0.960741 -0.262953
0.066540472209 -1.702394604683 -0.571823060513 -0.001166 -0.975939 -0.218041
0.077781386673 -1.693825840950 -0.610260486603 0.001166 -0.975939 -0.218041
-0.126309856772 -1.698534488678 -0.589144825935 0.001166 -0.975939 -0.218041
-0.205688238144 -1.692927956581 -0.604631602764 -0.102168 -0.969968 -0.220734
-0.585393667221 -1.579411983490 -0.578644275665 -0.956644 0.001219 -0.291258
-0.469528049231 -1.401960730553 -0.602162063122 0.000978 0.000978 -0.999999
-0.564062237740 -1.376868009567 -0.602162063122 0.000978 0.000978 -0.999999
-0.572067022324 -1.385415554047 -0.602162063122 0.000978 0.000978 -0.999999
-0.409231364727 -1.420544624329 -0.602162063122 0.000978 0.000978 -0.999999
-0.392078131437 -1.428170919418 -0.602162063122 0.000978 0.000978 -0.999999
-0.490322053432 -1.522950530052 -0.602162063122 0.000978 0.000978 -0.999999
-0.291778177023 -1.417082071304 -0.606249451637 -0.045917 0.001020 -0.998945
-0.269732654095 -1.293964862823 -0.607252836227 -0.045917 0.001020 -0.998945
-0.348562180996 -1.564226984978 -0.603664755821 -0.045917 0.001020 -0.998945
-0.278808295727 -1.477921605110 -0.606839776039 -0.045917 0.001020 -0.998945
-0.305635154247 -1.636714220047 -0.605618715286 -0.045917 0.001020 -0.998945
-0.254397183657 -1.485547900200 -0.607950925827 -0.045917 0.001020 -0.998945
-0.204106673598 -1.652142524719 -0.610239982605 -0.045917 0.001020 -0.998945
-0.311335504055 -1.522306442261 -0.605359256268 -0.045917 0.001020 -0.998945
-0.126833304763 -1.205775737762 -0.611114382744 0.000978 0.000978 -0.999999
-0.063122101128 -1.219731211662 -0.611114382744 0.000978 0.000978 -0.999999
-0.115924209356 -1.235361099243 -0.611114382744 0.000978 0.000978 -0.999999
-0.120438285172 -1.298680067062 -0.611114382744 0.000978 0.000978 -0.999999
-0.150194719434 -1.669805049896 -0.611114382744 0.000978 0.000978 -0.999999
-0.069213509560 -1.493536233902 -0.611114382744 0.000978 0.000978 -0.999999
-0.075341708958 -1.664537668228 -0.611114382744 0.000978 0.000978 -0.999999
-0.098139695823 -1.602343440056 -0.611114382744 0.000978 0.000978 -0.999999
-0.082529515028 -1.559582829475 -0.611114382744 0.000978 0.000978 -0.999999
0.029781922698 -1.322657585144 -0.611114382744 0.000978 0.000978 -0.999999
0.071294769645 -1.664069533348 -0.611114382744 0.000978 0.000978 -0.999999
0.050439562649 -1.595282793045 -0.611114382744 0.000978 0.000978 -0.999999
0.073972880840 -1.531351327896 -0.611114382744 0.000978 0.000978 -0.999999
0.157755300403 -1.327087163925 -0.611114382744 0.000978 0.000978 -0.999999
0.161154836416 -1.199462652206 -0.611114382744 0.000978 0.000978 -0.999999
0.085651837289 -1.254882216454 -0.611114382744 0.000978 0.000978 -0.999999
0.182067707181 -1.626526236534 -0.611114382744 0.000978 0.000978 -0.999999
0.026966780424 -1.190491199493 -0.609039068222 -0.001191 0.967932 -0.251210
0.025845035911 -1.186016678810 -0.592152714729 0.001197 0.966294 -0.257439
-0.315843462944 -1.272524118423 -0.591495871544 -0.529261 0.760507 -0.376182
0.209930554032 -1.559881448746 -0.609896600246 0.045917 0.001020 -0.998945
0.230635747313 -1.621540069580 -0.608954131603 0.045917 0.001020 -0.998945
0.228191792965 -1.603998422623 -0.609065353870 0.045917 0.001020 -0.998945
0.197127878666 -1.313321590424 -0.610479295254 0.045917 0.001020 -0.998945
0.328820675611 -1.295681953430 -0.604484975338 0.045917 0.001020 -0.998945
0.368465870619 -1.606557607651 -0.602680444717 0.045917 0.001020 -0.998945
0.315280735493 -1.514589428902 -0.605101287365 0.045917 0.001020 -0.998945
0.300165951252 -1.347133636475 -0.605789303780 0.045917 0.001020 -0.998945
0.479829907417 -1.546125054359 -0.602162063122 0.000978 0.000978 -0.999999
0.402766227722 -1.652273535728 -0.602162063122 0.000978 0.000978 -0.999999
0.398628652096 -1.490520954132 -0.602162063122 0.000978 0.000978 -0.999999
0.477687835693 -1.405572772026 -0.602162063122 0.000978 0.000978 -0.999999
0.552055239677 -1.527987241745 -0.602162063122 0.000978 0.000978 -0.999999
-0.023525774479 1.286918044090 -0.453671693802 0.001230 -0.308835 -0.951115
0.094618260860 1.290362596512 -0.454790920019 0.001230 -0.308835 -0.951115
-0.434333622456 1.275411248207 -0.446128010750 0.001364 -0.808912 -0.587928
0.098841488361 1.271608352661 -0.440893918276 0.001364 -0.808912 -0.587928
-0.483590960503 1.260264754295 -0.425280779600 0.001364 -0.808912 -0.587928
0.566495597363 1.268647193909 -0.436818182468 0.001364 -0.808912 -0.587928
0.432179093361 1.258160591125 -0.422384619713 0.001364 -0.808912 -0.587928
0.121226012707 1.309568643570 -0.461031317711 0.001230 -0.308835 -0.951115
-0.221944510937 1.313163161278 -0.462199240923 0.001230 -0.308835 -0.951115
-0.259122788906 1.317335247993 -0.460982412100 0.001230 0.308835 -0.951115
0.514084339142 1.341119050980 -0.453254580498 0.001230 0.308835 -0.951115
-0.368502259254 1.341821432114 -0.453026384115 0.001230 0.308835 -0.951115
-0.202215731144 1.334412574768 -0.455433666706 0.001230 0.308835 -0.951115
0.461623728275 1.361183524132 -0.432582706213 0.001364 0.808912 -0.587928
0.334900468588 1.363230705261 -0.429765015841 0.001364 0.808912 -0.587928
0.050777807832 1.362017631531 -0.431434810162 0.001364 0.808912 -0.587928
0.457392424345 1.367628931999 -0.423711478710 0.001364 0.808912 -0.587928
0.046573434025 -0.541178762913 -0.574128389359 0.808912 0.001364 -0.587928
0.051031243056 -0.291247963905 -0.567551553249 0.808912 0.001364 -0.587928
0.042506862432 -0.632190644741 -0.579886257648 0.808912 0.001364 -0.587928
0.034358642995 -0.931640505791 -0.591629981995 0.808912 0.001364 -0.587928
0.023175081238 -1.125004649162 -0.596610069275 0.309558 0.003700 -0.950873
0.022011961788 -1.179091572762 -0.597188770771 0.309558 0.003700 -0.950873
-0.021104272455 -1.166305780411 -0.597995638847 -0.309558 0.003700 -0.950873
-0.042215418071 -0.787083148956 -0.582930386066 -0.808912 0.001364 -0.587928
-0.053790293634 -0.256794422865 -0.566062808037 -0.808912 0.001364 -0.587928
-0.047615800053 -0.261466830969 -0.574569582939 -0.808912 0.001364 -0.587928
-0.038645945489 -0.850950896740 -0.587956130505 -0.808912 0.001364 -0.587928
-0.033819831908 -0.690619826317 -0.592856407166 -0.309560 0.001233 -0.950879
-0.022948749363 -0.914350330830 -0.596783518791 -0.309560 0.001233 -0.950879
-0.001369649195 -0.484021484852 -0.603035449982 -0.309560 0.001233 -0.950879
-0.007070546504 -0.079037308693 -0.600468277931 -0.309560 0.001233 -0.950879
0.020816721022 -0.023840725422 -0.595344960690 0.309560 0.001233 -0.950879
0.028981573880 -0.145215570927 -0.592906355858 0.309560 0.001233 -0.950879
0.011490666308 -0.763394594193 -0.599680662155 0.309560 0.001233 -0.950879
0.002067208290 -0.265318036079 -0.601863324642 0.309560 0.001233 -0.950879
0.021974092349 0.033789727837 -0.605192363262 0.286119 0.001218 -0.958193
-0.028676919639 0.791029691696 -0.591420650482 -0.309560 0.001233 -0.950879
-0.013788271695 0.395282447338 -0.597272515297 -0.309560 0.001233 -0.950879
-0.050133939832 0.852315604687 -0.568597197533 -0.808912 0.001364 -0.587928
-0.044379826635 0.644848465919 -0.577048897743 -0.808912 0.001364 -0.587928
-0.038825057447 0.245746001601 -0.585717380047 -0.808912 0.001364 -0.587928
-0.052566826344 1.088079214096 -0.509261190891 -0.779086 0.273391 -0.564166
-0.047604411840 1.244670271873 -0.440276771784 -0.779086 0.273391 -0.564166
-0.002526110969 0.616624414921 -0.600364506245 -0.309560 0.001233 -0.950879
0.027807606384 0.264561533928 -0.592493116856 0.309560 0.001233 -0.950879
0.012089293450 0.415396809578 -0.597213745117 0.309560 0.001233 -0.950879
0.028776418418 0.217209920287 -0.595732986927 0.192838 0.732785 -0.652564
0.055819325149 0.158377915621 -0.579377114773 0.783405 0.001372 -0.621510
0.027159720659 0.101073049009 -0.603496193886 0.286119 0.001218 -0.958193
0.033860228956 0.222130119801 -0.590241909027 0.808912 0.001364 -0.587928
0.036399062723 0.852093636990 -0.585132777691 0.808912 0.001364 -0.587928
0.052113071084 0.560418725014 -0.564251780510 0.808912 0.001364 -0.587928
0.053454283625 0.284271478653 -0.563113570213 0.808912 0.001364 -0.587928
0.040748778731 1.015728116035 -0.558187127113 0.779086 0.273391 -0.564166
0.001977710519 1.031972050667 -0.570556461811 0.278877 0.419077 -0.864061
0.020192872733 0.670162796974 -0.593927681446 0.309560 0.001233 -0.950879
0.023905001581 0.888139367104 -0.592162847519 0.309560 0.001233 -0.950879
-0.006859808695 1.089374303818 -0.541737735271 -0.278877 0.419077 -0.864061
0.190843001008 1.719119668007 -0.538496136665 -0.001030 0.056668 -0.998393
0.046784851700 1.669571161270 -0.541462123394 0.001036 0.063217 -0.997999
0.149869352579 1.659115433693 -0.535873115063 0.001341 -0.859615 -0.510941
-0.253504097462 1.686587810516 -0.540342807770 0.001030 0.056668 -0.998393
-0.104883581400 1.669507980347 -0.541415512562 -0.001036 0.063217 -0.997999
-0.287746608257 1.734176635742 -0.522284746170 -0.851224 0.132413 -0.507824
-0.256720930338 1.781449198723 -0.524748861790 -0.001167 0.215818 -0.976433
-0.198722064495 1.843422055244 -0.510939776897 -0.001168 0.220763 -0.975327
-0.133441269398 1.854045510292 -0.508423924446 0.003518 0.224001 -0.974582
-0.209083467722 1.951726436615 -0.486362218857 -0.003506 0.218537 -0.975822
-0.187507122755 2.031664609909 -0.468440711498 -0.001168 0.220763 -0.975327
0.197728320956 2.064322710037 -0.449036955833 0.003875 0.915765 -0.401697
0.260523676872 2.030317783356 -0.458964645863 0.767901 0.298540 -0.566746
0.153566330671 1.780771851540 -0.525047302246 0.001166 0.218041 -0.975939
0.246464997530 1.873992681503 -0.504086792469 -0.001168 0.220763 -0.975327
0.266268521547 1.929509878159 -0.491553783417 -0.003518 0.224001 -0.974582
0.141214177012 1.884732961655 -0.501537978649 0.003506 0.218537 -0.975822
0.164798602462 2.001412153244 -0.475290775299 0.001168 0.220763 -0.975327
0.017984095961 1.773318767548 -0.526708960533 -0.001168 0.220763 -0.975327
0.145178407431 2.057078361511 -0.462713211775 -0.001168 0.220763 -0.975327
0.029070280492 1.896630048752 -0.498884528875 -0.001168 0.220763 -0.975327
-0.000187027268 1.765188574791 -0.528533756733 -0.001168 0.220763 -0.975327
-0.011628570966 1.974926948547 -0.481181532145 0.001168 0.220763 -0.975327
-0.040297470987 1.930269002914 -0.491289347410 0.001168 0.220763 -0.975327
-0.047879878432 1.972421169281 -0.481777638197 0.001168 0.220763 -0.975327
-0.060467131436 1.852832674980 -0.508770763874 0.001168 0.220763 -0.975327
-0.045660696924 1.808821678162 -0.518702387810 0.001168 0.220763 -0.975327
0.179888248444 -1.753346085548 -0.607807815075 -0.001147 -0.193909 -0.981019
0.280118942261 -1.748383045197 -0.605670988560 0.847394 -0.129807 -0.514854
-0.165193229914 -1.973975539207 -0.556629419327 0.003881 -0.912036 -0.410093
-0.249453097582 -1.944538116455 -0.571712136269 -0.003425 -0.183805 -0.982957
-0.019347775728 -1.767597794533 -0.605229198933 0.001141 -0.186011 -0.982547
-0.084444761276 -1.959175348282 -0.568980395794 0.001141 -0.186011 -0.982547
-0.015042867512 -1.842899441719 -0.590969979763 0.001141 -0.186011 -0.982547
0.013560704887 -1.780459523201 -0.602796256542 -0.001141 -0.186011 -0.982547
0.130750656128 -1.912600040436 -0.577833950520 -0.001141 -0.186011 -0.982547
0.136898428202 -1.844963192940 -0.590560972691 0.003425 -0.183805 -0.982957
0.138892769814 -1.828017711639 -0.593770265579 -0.003445 -0.189485 -0.981878
0.181296706200 -1.803898096085 -0.598421633244 -0.001141 -0.186011 -0.982547
0.149358928204 -1.771648049355 -0.604459643364 0.001140 -0.181191 -0.983447
-0.128509834409 -1.804897189140 -0.598201096058 0.003445 -0.189485 -0.981878
-0.267483919859 -1.860251069069 -0.587773025036 -0.001141 -0.186011 -0.982547
-0.228458404541 -1.797512769699 -0.599576711655 -0.001140 -0.181191 -0.983447
-0.285282731056 -1.769301652908 -0.594557166100 -0.839917 -0.155540 -0.519949
-0.027094157413 -1.697586536407 -0.611056029797 -0.000981 -0.004907 -0.999987
0.124576717615 -1.693686723709 -0.608430385590 0.000981 0.999995 0.002944
-0.277503997087 -1.693913936615 -0.608345627785 -0.000981 0.999987 0.004907
0.100035786629 1.298535585403 -0.427015751600 0.909269 -0.294304 -0.294304
-0.024088837206 1.256740093231 -0.481828004122 0.000978 0.000978 -0.999999
-0.038573373109 1.390701889992 -0.465035408735 -0.484330 0.665326 -0.568125
0.009476389736 1.386826395988 -0.481347888708 0.001359 0.822094 -0.569351
0.030177321285 1.381713747978 -0.481224328279 0.484330 0.665326 -0.568125
-0.643965542316 1.173641800880 -0.475631624460 -0.630144 -0.549053 -0.549053
-0.662428677082 1.227593302727 -0.476433008909 -0.753685 -0.001378 -0.657235
-0.709710657597 1.191367268562 -0.332062453032 -0.406019 -0.913864 0.001289
-0.629378676414 1.206242799759 -0.211721330881 -0.768784 0.001375 0.639507
-0.622128546238 1.276664376259 -0.348740279675 -0.045917 0.998945 0.001020
-0.705601096153 1.301027774811 -0.410219103098 -0.081212 -0.001055 0.996696
-0.644181072712 1.347425222397 -0.405191540718 -0.081212 0.001055 0.996696
-0.715214967728 1.356173992157 -0.389722466469 -0.045917 -0.998945 0.001020
-0.624385178089 1.353202462196 -0.289441466331 -0.045425 -0.998283 0.036973
-0.674160778522 1.358003020287 -0.265509694815 -0.768784 0.001375 0.639507
-0.719256997108 1.414810419083 -0.351533263922 -0.999999 0.000978 0.000978
-0.628107607365 1.357579112053 -0.501910328865 -0.517259 -0.001344 -0.855828
-0.590461671352 1.336438894272 -0.517373859882 -0.002938 0.000979 -0.999995
-0.565449595451 1.179413080215 -0.504984259605 0.992658 -0.001090 -0.120950
-0.568225145340 1.234222292900 -0.517461001873 -0.002938 0.000979 -0.999995
-0.623511135578 1.455747842789 -0.504730939865 -0.520412 0.004034 -0.853906
-0.677317738533 1.451583385468 -0.411644399166 -0.403862 0.914819 -0.001290
-0.653366982937 1.416620492935 -0.240534022450 -0.768784 0.001375 0.639507
-0.566756248474 1.437738060951 -0.515837132931 0.992979 0.001085 -0.118289
-0.628764033318 1.155535936356 -0.419105976820 -0.403862 -0.914819 -0.001290
0.643284499645 1.192243456841 -0.253468006849 0.376466 -0.845095 0.379590
0.690923511982 1.183788895607 -0.399229884148 0.404815 -0.914390 -0.003880
0.647885799408 1.164777278900 -0.420026332140 0.403862 -0.914819 -0.001290
0.641012489796 1.170211553574 -0.473618268967 0.630144 -0.549053 -0.549053
0.580469429493 1.188100576401 -0.517429828644 0.002944 -0.000981 -0.999995
0.608938813210 1.190585851669 -0.512638747692 0.520412 -0.004034 -0.853906
0.563203394413 1.218877553940 -0.500779509544 -0.992658 0.001090 -0.120950
0.588669240475 1.296653151512 -0.517374217510 0.002938 -0.000979 -0.999995
0.602428913116 1.296571373940 -0.516576766968 0.518447 -0.004040 -0.855100
0.683240354061 1.318584084511 -0.451139032841 0.752644 0.006930 -0.658391
0.629600882530 1.320373535156 -0.500196695328 0.518447 0.004040 -0.855100
0.563359439373 1.394404888153 -0.501976847649 -0.992091 0.001091 -0.125512
0.563471376896 1.426551818848 -0.503057777882 -0.992658 -0.001090 -0.120950
0.648590862751 1.415779232979 -0.488452315331 0.522373 0.001343 -0.852716
0.638236939907 1.433477282524 -0.494770824909 0.520412 0.004034 -0.853906
0.640213549137 1.467454433441 -0.358709901571 0.404815 0.914390 -0.003880
0.709706604481 1.360479116440 -0.310272037983 0.768784 0.001375 0.639507
0.641745328903 1.354737043381 -0.271624058485 0.045425 -0.998283 0.036973
0.662620365620 1.353880047798 -0.338378161192 0.045917 -0.998945 0.001020
0.643328666687 1.352959752083 -0.403542339802 0.045917 -0.998945 0.001020
0.717181324959 1.384851455688 -0.411767721176 0.753685 0.001378 -0.657235
0.566716551781 1.414453029633 -0.517472922802 0.002938 -0.000979 -0.999995
0.657509088516 1.274980068207 -0.368258863688 0.045917 0.998945 0.001020
0.705962181091 1.272787332535 -0.354018837214 0.045917 0.998945 0.001020
0.639922201633 1.274154663086 -0.276602685452 0.045425 0.998283 0.036973
-0.657262980938 -1.536800384521 -0.318116307259 -0.376466 -0.845095 0.379590
-0.662542045116 -1.491308927536 -0.251554280519 -0.768784 0.001375 0.639507
-0.719256997108 -1.499374032021 -0.371376752853 -0.999999 0.000978 0.000978
-0.719256997108 -1.459268689156 -0.401515811682 -0.999999 0.000978 0.000978
-0.598614454269 -1.535045742989 -0.618440032005 -0.002938 -0.000979 -0.999995
-0.608089029789 -1.438038945198 -0.615125536919 -0.517259 0.001344 -0.855828
-0.671385467052 -1.424223184586 -0.407425045967 -0.081212 -0.001055 0.996696
-0.653905689716 -1.352075219154 -0.393338739872 -0.045917 -0.998945 0.001020
-0.719256997108 -1.286597490311 -0.324938774109 -0.999999 0.000978 0.000978
-0.675366401672 -1.321231365204 -0.529364764690 -0.937612 0.001255 -0.347682
-0.565421402454 -1.402970552444 -0.605734407902 0.991465 -0.001096 -0.130369
-0.564202189445 -1.308553457260 -0.596040248871 0.992091 0.001091 -0.125512
-0.578577160835 -1.320783615112 -0.618488788605 -0.002938 -0.000979 -0.999995
-0.677898466587 -1.265707612038 -0.506727814674 -0.725661 0.633564 -0.268352
-0.645705580711 -1.239934802055 -0.484754204750 -0.406019 0.913864 -0.001289
-0.645932435989 -1.239732861519 -0.348835378885 -0.404815 0.914390 -0.003880
-0.712861597538 -1.269602179527 -0.329089939594 -0.406019 0.913864 0.001289
-0.651127159595 -1.263059258461 -0.272920072079 -0.376466 0.845095 0.379590
-0.705028116703 -1.432543277740 -0.345130562782 -0.045917 0.998945 0.001020
-0.629308998585 -1.430088400841 -0.293833673000 -0.045425 0.998283 0.036973
-0.683546245098 -1.525611042976 -0.448237568140 -0.406019 -0.913864 -0.001289
-0.691661417484 -1.522107720375 -0.396332889795 -0.404815 -0.914390 -0.003880
-0.640696406364 -1.544885277748 -0.329594850540 -0.406019 -0.913864 0.001289
0.623711824417 -1.517132282257 -0.242761597037 0.376466 -0.845095 0.379590
0.668182551861 -1.531821846962 -0.376611590385 0.404815 -0.914390 -0.003880
0.629503548145 -1.548818349838 -0.434889942408 0.406019 -0.913864 -0.001289
0.676174283028 -1.392642498016 -0.523742675781 0.936656 -0.008848 -0.350140
0.680441677570 -1.369636178017 -0.511769413948 0.936656 0.008848 -0.350140
0.619464695454 -1.353578209877 -0.395910799503 0.045917 -0.998945 0.001020
0.669937551022 -1.317088246346 -0.262504875660 0.768784 0.001375 0.639507
0.659895896912 -1.259956121445 -0.290239483118 0.376466 0.845095 0.379590
0.680042207241 -1.255722641945 -0.333110660315 0.406019 0.913864 0.001289
0.645090460777 -1.240198493004 -0.370194196701 0.404815 0.914390 -0.003880
0.626406788826 -1.232137203217 -0.479295462370 0.406019 0.913864 -0.001289
0.703991413116 -1.268826246262 -0.439261704683 0.725661 0.633564 -0.268352
0.709173440933 -1.277594447136 -0.433844059706 0.937612 0.001255 -0.347682
0.690259933472 -1.325302481651 -0.484694302082 0.937612 0.001255 -0.347682
0.621875882149 -1.370957612991 -0.605856776237 0.518447 0.004040 -0.855100
0.564589023590 -1.305200576782 -0.613121628761 -0.992658 -0.001090 -0.120950
0.587486207485 -1.284628868103 -0.618472754955 0.002938 -0.000979 -0.999995
0.651828527451 -1.349534749985 -0.252452164888 0.045425 -0.998283 0.036973
0.620643377304 -1.428785204887 -0.361860394478 0.045917 0.998945 0.001020
0.687426149845 -1.504698634148 -0.283510684967 0.768784 0.001375 0.639507
0.717259049416 -1.495609998703 -0.412105321884 0.937612 0.001255 -0.347682
0.680154740810 -1.467764854431 -0.511862695217 0.937612 -0.001255 -0.347682
0.433542698622 2.199820041656 -0.420217961073 -0.893111 0.001311 -0.449834
-0.481118887663 2.267246007919 -0.378028184175 -0.217966 0.858334 -0.464493
-0.429363042116 2.242597579956 -0.391725510359 0.987889 -0.001116 0.155160
-0.439599782228 2.188723087311 -0.426251679659 0.711237 0.001381 -0.702951
-0.501037597656 2.169246673584 -0.363106489182 -0.711237 0.001381 0.702951
-0.486672401428 2.212511301041 -0.354698061943 -0.456129 0.001314 0.889912
-0.478452116251 2.263984441757 -0.353358149529 -0.157685 0.001118 0.987489
0.262399047613 -1.123868227005 0.267878204584 -0.017461 -0.484885 0.874404
0.220216214657 -1.128646135330 0.262097954750 0.009347 -0.874622 -0.484714
0.606065511703 -1.037439584732 0.233268290758 -0.307691 0.832484 0.460756
0.001816235483 -1.161648631096 0.224730238318 0.025670 -0.874124 -0.485024
-0.110313773155 -1.141170620918 0.248383268714 -0.009347 -0.484714 0.874622
-0.602046489716 -1.017748832703 0.247066959739 -0.244163 -0.489862 0.836911
-0.121162667871 -1.112189292908 0.262113541365 -0.036901 -0.490641 0.870580
-0.370976716280 -1.088672518730 0.254965186119 -0.149647 -0.469281 0.870277
0.440547615290 -1.065087676048 0.252269476652 0.158278 -0.516252 0.841684
0.003329850500 1.471081852913 0.725926101208 0.006423 0.921108 -0.389255
-0.011491239071 1.412868976593 0.695104002953 -0.001378 -0.767655 0.640861
0.015753671527 1.433407425880 0.694676280022 0.944593 -0.044981 0.325146
0.744492173195 1.168891787529 0.274725764990 -0.894257 -0.126131 0.429413
0.044364061207 -0.510863959789 0.533287465572 -0.225706 -0.967858 0.110940
0.054893784225 -0.508959054947 0.495772063732 -0.134574 -0.572308 -0.808921
0.100435905159 -0.512234926224 0.494365543127 0.336885 -0.184652 -0.923262
-0.115135155618 -0.463162571192 0.511668324471 -0.972759 0.230926 0.020341
-0.025396473706 -0.472135424614 0.530829429626 0.225706 0.967858 -0.110940
0.019281145185 -0.480723828077 0.547336518764 0.225706 0.967858 -0.110940
0.038560651243 -0.490398854017 0.501838862896 0.225706 0.967858 -0.110940
0.022533718497 -0.484609067440 0.519800722599 0.225706 0.967858 -0.110940
-0.095114462078 -0.458086460829 0.510773956776 0.225706 0.967858 -0.110940
-0.129867121577 -0.492170840502 0.580881059170 -0.030536 -0.426174 0.904126
0.524353623390 -0.464056372643 0.547622740269 0.184379 -0.410861 0.892859
0.445455551147 -0.562079012394 0.519125521183 0.187404 -0.408222 0.893440
0.381859719753 -0.526174962521 0.545291423798 0.095906 -0.426710 0.899289
0.413459479809 -0.527238607407 0.541391789913 0.095906 -0.426710 0.899289
0.306258291006 -0.448369264603 0.589304804802 0.086648 -0.419487 0.903616
0.263804584742 -0.498004674911 0.570335030556 0.086648 -0.419487 0.903616
0.101143062115 -0.627941310406 0.517696321011 0.027883 -0.426207 0.904196
0.169524013996 -0.545573472977 0.554375290871 0.027883 -0.426207 0.904196
0.077057667077 -0.550165474415 0.555133223534 0.030536 -0.426174 0.904126
0.111137688160 -0.698346436024 0.481132894754 0.030944 -0.461471 0.886616
0.084052942693 -0.693427920341 0.484610855579 0.030944 -0.461471 0.886616
-0.124577164650 -0.648208320141 0.506819665432 -0.030944 -0.461471 0.886616
-0.054232627153 -0.739054203033 0.461943864822 -0.030944 -0.461471 0.886616
-0.047055751085 -0.733484685421 0.465084940195 -0.030944 -0.461471 0.886616
-0.133323401213 -0.530800223351 0.562527000904 -0.027883 -0.426207 0.904196
-0.067220911384 -0.614775538445 0.525018513203 -0.027883 -0.426207 0.904196
-0.239086642861 -0.591320216656 0.529622137547 -0.086648 -0.419487 0.903616
-0.245955199003 -0.525131404400 0.559624254704 -0.086648 -0.419487 0.903616
-0.539757788181 -0.481503754854 0.536731660366 -0.184379 -0.410861 0.892859
-0.474117159843 -0.458558827639 0.560788452625 -0.184379 -0.410861 0.892859
-0.547154605389 -0.533762335777 0.511221349239 -0.187404 -0.408222 0.893440
-0.500374078751 -0.531408250332 0.522032856941 -0.187404 -0.408222 0.893440
-0.478207111359 -0.619594991207 0.484250366688 -0.197620 -0.453190 0.869233
-0.467774331570 -0.694517850876 0.448582231998 -0.206455 -0.444102 0.871866
-0.589563310146 -0.765802741051 0.378954768181 -0.224645 -0.505833 0.832867
-0.574237108231 -0.768815100193 0.381276160479 -0.224645 -0.505833 0.832867
-0.572493672371 -0.886848390102 0.311345785856 -0.234156 -0.494328 0.837144
-0.575597226620 -0.972391247749 0.257466316223 -0.256987 -0.524877 0.811457
-0.479674041271 -0.958085656166 0.292180240154 -0.155726 -0.532435 0.832023
-0.313359588385 -0.979722380638 0.309270530939 -0.155726 -0.532435 0.832023
-0.390163064003 -0.898693859577 0.343250483274 -0.144362 -0.491413 0.858879
-0.280689626932 -0.854942858219 0.386808127165 -0.144362 -0.491413 0.858879
-0.383747994900 -0.844277143478 0.376490324736 -0.123691 -0.519504 0.845468
-0.382435351610 -0.854251563549 0.370543539524 -0.123691 -0.519504 0.845468
-0.267368227243 -0.671405136585 0.486593246460 -0.114672 -0.451610 0.884816
-0.436178475618 -0.764729738235 0.417442619801 -0.114672 -0.451610 0.884816
-0.413185447454 -0.647230625153 0.482141941786 -0.100385 -0.467991 0.878013
-0.428855329752 -0.728394150734 0.437197774649 -0.100385 -0.467991 0.878013
-0.355834960938 -0.554107010365 0.535018980503 -0.095906 -0.426710 0.899289
-0.371408462524 -0.482899546623 0.567131996155 -0.095906 -0.426710 0.899289
-0.216351717710 -0.639686048031 0.508138358593 -0.030944 -0.461471 0.886616
-0.166867524385 -0.723259210587 0.466310799122 -0.030944 -0.461471 0.886616
-0.124487675726 -0.713405549526 0.472903430462 -0.030944 -0.461471 0.886616
-0.091532640159 -0.908961117268 0.365789592266 -0.031449 -0.504557 0.862806
-0.026486435905 -0.928958415985 0.356550246477 -0.031449 -0.504557 0.862806
0.036619275808 -0.898685574532 0.373807340860 0.031449 -0.504557 0.862806
0.006102457643 -0.903925776482 0.371894806623 0.031449 -0.504557 0.862806
0.131023079157 -0.751504182816 0.452773988247 0.030944 -0.461471 0.886616
0.232418403029 -0.734131574631 0.458330065012 0.030944 -0.461471 0.886616
0.155359715223 -0.726021766663 0.465209126472 0.030944 -0.461471 0.886616
0.377517193556 -0.765259981155 0.424481421709 0.114672 -0.451610 0.884816
0.294742882252 -0.753360033035 0.441159993410 0.114672 -0.451610 0.884816
0.387752443552 -0.633969843388 0.491931498051 0.100385 -0.467991 0.878013
0.400991588831 -0.662416338921 0.475283384323 0.100385 -0.467991 0.878013
0.464025110006 -0.700006663799 0.446276277304 0.206455 -0.444102 0.871866
0.453695654869 -0.615680873394 0.491505742073 0.206455 -0.444102 0.871866
0.523160934448 -0.597568511963 0.485138714314 0.197620 -0.453190 0.869233
0.552398800850 -0.758310079575 0.393101096153 0.224645 -0.505833 0.832867
0.630130887032 -0.852844774723 0.314681679010 0.234156 -0.494328 0.837144
0.399150788784 -0.871177077293 0.357404828072 0.123691 -0.519504 0.845468
0.458747595549 -0.793772935867 0.396264642477 0.123691 -0.519504 0.845468
0.346524894238 -0.854693949223 0.375508457422 0.144362 -0.491413 0.858879
0.447788298130 -0.927820742130 0.316545516253 0.144362 -0.491413 0.858879
0.289339989424 -0.880193710327 0.370614558458 0.144362 -0.491413 0.858879
0.218483135104 -0.885699689388 0.374415725470 0.034262 -0.505704 0.862026
0.105891063809 -0.972579300404 0.327857702971 0.034262 -0.505704 0.862026
0.205051541328 -0.903656184673 0.364406734705 0.034262 -0.505704 0.862026
0.100264847279 -1.019693732262 0.299305289984 0.034486 -0.528319 0.848345
-0.037348333746 -1.031600475311 0.294538170099 -0.034486 -0.528319 0.848345
-0.222204014659 -0.999116122723 0.307193994522 -0.034486 -0.528319 0.848345
-0.227378964424 -0.900556981564 0.365416198969 -0.034262 -0.505704 0.862026
-0.248513311148 -0.853806376457 0.392018139362 -0.034262 -0.505704 0.862026
-0.240554586053 -0.961877942085 0.328917980194 -0.034262 -0.505704 0.862026
-0.231167659163 -1.041604757309 0.279558390379 -0.040192 -0.539129 0.841263
-0.260795712471 -0.999092936516 0.305367916822 -0.040192 -0.539129 0.841263
-0.378781676292 -1.001303434372 0.283402591944 -0.155686 -0.523403 0.837741
0.154071718454 -1.044701695442 0.281176835299 0.040192 -0.539129 0.841263
0.252766042948 -1.065981388092 0.262833237648 0.040192 -0.539129 0.841263
0.346962153912 -1.041464924812 0.263886958361 0.155686 -0.523403 0.837741
0.420847475529 -1.026448607445 0.259441375732 0.155686 -0.523403 0.837741
0.472115665674 -0.988821566105 0.273649722338 0.155726 -0.532435 0.832023
0.607690989971 -0.897044003010 0.294438749552 0.242131 -0.510480 0.825096
0.599886655807 -0.975946962833 0.247193396091 0.248947 -0.508718 0.824155
-0.751784324646 1.098649859428 0.274596631527 -0.729022 0.023879 0.684073
-0.781870901585 1.058173537254 0.243953764439 -0.729022 0.023879 0.684073
-0.816980183125 0.909578263760 0.206541031599 -0.767845 0.009685 0.640563
-0.772707700729 0.836524844170 0.260675460100 -0.767845 0.009685 0.640563
-0.546652793884 0.777031123638 0.623626708984 0.838844 -0.001351 0.544370
-0.544357597828 0.664655327797 0.618400037289 0.843735 -0.009511 0.536675
-0.557920098305 0.526076257229 0.637265086174 0.844128 -0.015001 0.535932
-0.553456723690 0.384234160185 0.626027226448 0.850074 -0.017682 0.526366
-0.801011502743 0.752242922783 0.227479204535 -0.767650 0.004135 0.640856
-0.788135707378 0.736229896545 0.243037223816 -0.767650 0.004135 0.640856
-0.838642477989 0.553003370762 0.182862713933 -0.772599 0.004132 0.634881
-0.831239342690 0.651757836342 0.191448092461 -0.772599 0.004132 0.634881
-0.844489455223 0.826674461365 0.126065537333 -0.987362 0.005616 0.158382
-0.857717871666 0.955458641052 0.012819770724 -0.997670 0.015803 0.066371
-0.843774318695 0.994933307171 -0.013891968876 0.967393 0.167060 -0.190371
-0.804834604263 1.034653902054 0.078984700143 0.254097 0.805939 -0.534694
-0.775205910206 1.035923838615 0.123423725367 0.952995 0.170226 -0.250647
-0.764015197754 1.030255913734 0.157846659422 0.938710 0.192166 -0.286175
-0.672657132149 0.291607528925 0.414343655109 0.729036 -0.609944 -0.310605
-0.589774727821 0.281687825918 0.600826323032 0.870606 0.004000 -0.491965
-0.582274973392 0.308007538319 0.599381446838 0.637988 -0.726642 -0.254879
-0.816506803036 0.513734340668 0.209781795740 -0.771670 -0.012469 0.635901
-0.781134486198 0.416995167732 0.250897169113 -0.771670 -0.012469 0.635901
-0.820487856865 0.265714854002 0.200347185135 -0.771670 -0.012469 0.635901
-0.849949240685 0.317770957947 0.158262282610 -0.993011 0.012070 0.117406
-0.851743459702 0.414574116468 0.132595509291 -0.993011 0.012070 0.117406
-0.853806734085 0.360744804144 0.120883703232 -0.993011 0.012070 0.117406
-0.861084997654 0.526679933071 0.041418854147 -0.993041 0.012043 0.117150
-0.859606683254 0.548883080482 0.051843512803 -0.993041 0.012043 0.117150
-0.858421266079 0.761430621147 0.039523333311 -0.997549 0.013723 0.068614
-0.863996267319 0.650931298733 -0.017787927762 -0.997059 0.013804 0.075390
-0.865016758442 0.705951809883 -0.044329814613 -0.999668 0.017183 0.019205
-0.864825367928 0.778476953506 -0.100014522672 -0.999668 0.017183 0.019205
-0.870122015476 0.509223818779 -0.159033730626 -0.999772 0.015102 0.015102
-0.869701981544 0.536143362522 -0.159700497985 -0.999772 0.015102 0.015102
-0.865052282810 0.813941538334 -0.146692723036 -0.999772 0.015102 0.015102
-0.867069065571 0.717856585979 -0.179809764028 -0.999769 0.017081 0.013062
-0.847766220570 0.931995809078 -0.113580353558 0.972050 0.181704 -0.148667
-0.821425080299 0.914694786072 -0.122178882360 0.251212 0.833778 -0.491636
-0.779706716537 0.922916293144 -0.001831596717 0.959508 0.205704 -0.192432
-0.778831303120 0.243876561522 0.096293516457 0.871937 -0.489201 -0.020215
-0.807897567749 0.216605305672 0.142450213432 0.588435 -0.807518 0.040727
-0.816510856152 0.196305558085 0.187111616135 0.791857 -0.001372 -0.610705
-0.752933025360 0.224939242005 0.279600024223 0.895617 0.017249 -0.444491
-0.681490123272 0.274819850922 0.425411909819 0.893085 0.006596 -0.449840
-0.862177729607 0.480988532305 0.036865439266 -0.993011 0.012070 0.117406
-0.861763536930 0.418724477291 0.047099936754 -0.993011 0.012070 0.117406
-0.862040877342 0.364181160927 0.050633002073 -0.993011 0.012070 0.117406
-0.865834057331 0.367331385612 0.012292972766 -0.997059 0.013804 0.075390
-0.870755732059 0.262376427650 -0.049523826689 -0.998676 0.009295 0.050605
-0.870965778828 0.299077898264 -0.072139762342 -0.999826 0.011031 0.015043
-0.870590388775 0.412115991116 -0.123568676412 -0.999826 0.011031 0.015043
-0.872995316982 0.212138086557 -0.140534847975 -0.999794 0.011031 0.017048
-0.872034013271 0.348903685808 -0.171213060617 -0.999794 0.011031 0.017048
-0.866048276424 0.858842432499 -0.278938710690 -0.999801 0.015072 0.013063
-0.868649899960 0.692525625229 -0.284668654203 -0.999827 0.015012 0.011009
-0.866704642773 0.821085453033 -0.292222559452 -0.999863 0.014983 -0.006992
-0.866718530655 0.805913746357 -0.323602646589 -0.999863 0.014983 -0.006992
-0.852002143860 0.838563024998 -0.316152602434 0.994638 0.091830 -0.047574
-0.847731530666 0.186985820532 -0.041943695396 0.501084 -0.865014 0.025801
-0.857077062130 0.167002886534 0.069674059749 0.117990 -0.992236 0.039330
-0.866121232510 0.159782513976 -0.112958788872 0.140445 -0.989858 0.021348
-0.871784687042 0.481143772602 -0.293267220259 -0.999900 0.008954 0.010944
-0.873844504356 0.183577954769 -0.288773864508 -0.999972 0.006896 -0.002956
-0.872032761574 0.401742994785 -0.326242268085 -0.999916 0.006951 -0.010923
-0.871676862240 0.383940279484 -0.364640206099 -0.999807 0.004994 -0.018977
-0.872391760349 0.261425256729 -0.362106293440 -0.999807 0.004994 -0.018977
-0.873949050903 0.234082564712 -0.411370098591 -0.993227 0.003256 0.116148
