-0.649957478046 -1.753155231476 -0.665725409985 0.001289 0.913864 0.406019
-0.866317152977 -1.763894915581 -0.637985706329 0.001158 0.978290 0.207235
-0.975387096405 -1.755941271782 -0.578953266144 -0.193909 0.981019 0.001147
-0.972589194775 -1.774698615074 -0.577068805695 0.000978 0.999999 0.000978
-0.693856716156 -1.774698615074 -0.561834156513 0.000978 0.999999 0.000978
-0.797165334225 -1.769501447678 -0.503666818142 0.001158 0.978290 -0.207235
-0.941049754620 -1.735052466393 -0.471672743559 -0.193180 0.896179 -0.399431
-0.928820431232 -1.749580144882 -0.441520541906 0.001289 0.913864 -0.406019
-0.904262840748 -1.740173697472 -0.420393139124 0.001289 0.913864 -0.406019
-0.946938037872 -1.720701336861 -0.392057389021 0.001364 0.808912 -0.587928
-0.949312984943 -1.682455778122 -0.381698042154 -0.192884 0.655806 -0.729873
-0.776777863503 -1.663183689117 -0.332178622484 0.001379 0.668888 -0.743362
-0.663980245590 -1.658013343811 -0.328110098839 0.001334 0.500299 -0.865851
-0.788024306297 -1.586001992226 -0.292263686657 0.001230 0.308835 -0.951115
-0.704725503922 -1.594497323036 -0.295024007559 0.001230 0.308835 -0.951115
-0.780934929848 -1.534936308861 -0.279542714357 0.001073 0.104070 -0.994569
-0.930150866508 -1.466941118240 -0.278048425913 0.001073 -0.104070 -0.994569
-0.688977479935 -1.469677686691 -0.277760803699 0.001073 -0.104070 -0.994569
-0.665688455105 -1.432682037354 -0.282183468342 0.001230 -0.308835 -0.951115
-0.833034753799 -1.393688440323 -0.294853299856 0.001230 -0.308835 -0.951115
-0.821459412575 -1.370069265366 -0.304772317410 0.001334 -0.500299 -0.865851
-0.974970757961 -1.376003503799 -0.301346182823 0.001334 -0.500299 -0.865851
-0.694519281387 -1.298666119576 -0.355418503284 0.001379 -0.668888 -0.743362
-0.766574800014 -1.297697067261 -0.356291085482 0.001379 -0.668888 -0.743362
-0.707322120667 -1.289055347443 -0.364072084427 0.001379 -0.668888 -0.743362
-0.914382755756 -1.283412098885 -0.369411557913 0.001364 -0.808912 -0.587928
-0.865193724632 -1.279409646988 -0.374920368195 0.001364 -0.808912 -0.587928
-0.951256513596 -1.233249783516 -0.452369570732 0.001289 -0.913864 -0.406019
-0.923359036446 -1.228283047676 -0.463525235653 0.001289 -0.913864 -0.406019
-0.884655356407 -1.224604129791 -0.473344266415 0.001158 -0.978290 -0.207235
-0.837204217911 -1.212961792946 -0.557954728603 0.000978 -0.999999 0.000978
-0.886384725571 -1.212961792946 -0.574446201324 0.000978 -0.999999 0.000978
-0.879400610924 -1.220398426056 -0.622145116329 0.001158 -0.978290 0.207235
-0.986410260201 -1.244192361832 -0.670133650303 -0.999999 0.000978 0.000978
-0.652433037758 -1.225484371185 -0.645464599133 0.001289 -0.913864 0.406019
-0.657295346260 -1.244806647301 -0.688863158226 0.001289 -0.913864 0.406019
-0.967350900173 -1.281434059143 -0.743141651154 0.001364 -0.808912 0.587928
-0.849014520645 -1.304665446281 -0.765258908272 0.001379 -0.668888 0.743362
-0.966303229332 -1.335576176643 -0.790588796139 0.001334 -0.500299 0.865851
-0.976416170597 -1.257930636406 -0.672723054886 -0.193180 -0.896179 0.399431
-0.943205654621 -1.246486425400 -0.624106645584 -0.195092 -0.959535 0.203055
-0.977586507797 -1.231284976006 -0.540005683899 -0.193909 -0.981019 0.001147
-0.986410260201 -1.227002143860 -0.468642950058 -0.999999 0.000978 0.000978
-0.980268239975 -1.367829680443 -0.326611816883 -0.193366 -0.490161 -0.849913
-0.944240272045 -1.385113596916 -0.324845254421 -0.193366 -0.490161 -0.849913
-0.946970105171 -1.514289975166 -0.301873952150 -0.192678 0.103176 -0.975823
-0.986410260201 -1.316288471222 -0.346393406391 -0.999999 0.000978 0.000978
-0.685223102570 -1.344045758247 -0.795478701591 0.001334 -0.500299 0.865851
-0.786904394627 -1.395495653152 -0.821009576321 0.001230 -0.308835 0.951115
-0.692347884178 -1.418028473854 -0.828330934048 0.001230 -0.308835 0.951115
-0.685139775276 -1.481871843338 -0.838796496391 0.001073 -0.104070 0.994569
-0.774913191795 -1.483575820923 -0.838975608349 0.001073 -0.104070 0.994569
-0.776841402054 -1.505053043365 -0.838873803616 0.001073 0.104070 0.994569
-0.831639349461 -1.298234462738 -0.759468436241 0.001379 -0.668888 0.743362
-0.670116901398 -1.280113577843 -0.741324126720 0.001364 -0.808912 0.587928
-0.677004933357 -1.214722394943 -0.595441281796 0.001158 -0.978290 0.207235
-0.666352331638 -1.220037341118 -0.494829475880 0.001158 -0.978290 -0.207235
-0.648976802826 -1.268097400665 -0.390490293503 0.001364 -0.808912 -0.587928
-0.780752182007 -1.507006883621 -0.276607185602 0.001073 0.104070 -0.994569
-0.946792006493 -1.613859415054 -0.302617788315 0.001334 0.500299 -0.865851
-0.739663541317 -1.677730321884 -0.345276504755 0.001379 0.668888 -0.743362
-0.669313967228 -1.706292629242 -0.372225463390 0.001364 0.808912 -0.587928
-0.855388164520 -1.765031337738 -0.482636302710 0.001158 0.978290 -0.207235
-0.857754826546 -1.771089673042 -0.604136884212 0.001158 0.978290 0.207235
-0.957121312618 -1.731644868851 -0.659056842327 -0.193180 0.896179 0.399431
-0.710256457329 -1.715362071991 -0.730567157269 0.001364 0.808912 0.587928
-0.986410260201 -1.233355164528 -0.836163699627 -0.999999 0.000978 0.000978
-0.986410260201 -1.380923390388 -0.858823001385 -0.999999 0.000978 0.000978
-0.986410260201 -1.650457024574 -0.842799544334 -0.999999 0.000978 0.000978
-0.986410260201 -1.414210677147 -0.894211649895 -0.999999 0.000978 0.000978
-0.632566332817 -1.225750446320 -0.665918350220 0.999999 0.000978 0.000978
-0.632566332817 -1.127809405327 -0.642786979675 0.999999 0.000978 0.000978
-0.632566332817 -1.175691843033 -0.582008898258 0.999999 0.000978 0.000978
-0.632566332817 -1.198478460312 -0.532697141171 0.999999 0.000978 0.000978
-0.632566332817 -1.109892606735 -0.500181615353 0.999999 0.000978 0.000978
-0.632566332817 -1.377309918404 -0.267234861851 0.999999 0.000978 0.000978
-0.632566332817 -1.566563844681 -0.255988329649 0.999999 0.000978 0.000978
-0.632566332817 -1.638681054115 -0.284378260374 0.999999 0.000978 0.000978
-0.986410260201 -1.123720645905 -0.446207940578 -0.999999 0.000978 0.000978
-0.986410260201 -1.145730257034 -0.507995426655 -0.999999 0.000978 0.000978
-0.986410260201 -1.298403739929 -0.316754996777 -0.999999 0.000978 0.000978
-0.986410260201 -1.358567953110 -0.284906029701 -0.999999 0.000978 0.000978
-0.986410260201 -1.653534650803 -0.240638747811 -0.999999 0.000978 0.000978
-0.986410260201 -1.620767235756 -0.264969944954 -0.999999 0.000978 0.000978
-0.986410260201 -1.656611919403 -0.305374979973 -0.999999 0.000978 0.000978
-0.986410260201 -1.698802351952 -0.346058309078 -0.999999 0.000978 0.000978
-0.986410260201 -1.804351210594 -0.379570662975 -0.999999 0.000978 0.000978
-0.986410260201 -1.868798971176 -0.506159365177 -0.999999 0.000978 0.000978
-0.986410260201 -1.796281576157 -0.616103470325 -0.999999 0.000978 0.000978
-0.986410260201 -1.860142111778 -0.676606535912 -0.999999 0.000978 0.000978
-0.986410260201 -1.729372620583 -0.775476753712 -0.999999 0.000978 0.000978
-0.632566332817 -1.525432705879 -0.858587503433 0.999999 0.000978 0.000978
-0.632566332817 -1.603567957878 -0.883451104164 0.999999 0.000978 0.000978
-0.632566332817 -1.651198506355 -0.892740726471 0.999999 0.000978 0.000978
-0.986410260201 -1.603780508041 -0.932511210442 -0.999999 0.000978 0.000978
-0.632566332817 -1.208644151688 -0.821853876114 0.999999 0.000978 0.000978
-0.632566332817 -1.343929767609 -0.818365275860 0.999999 0.000978 0.000978
-0.632566332817 -1.215662240982 -0.808211624622 0.999999 0.000978 0.000978
-0.632566332817 -1.256336927414 -0.775306880474 0.999999 0.000978 0.000978
-0.632566332817 -1.284618973732 -0.767664253712 0.999999 0.000978 0.000978
-0.632566332817 -1.872078776360 -0.483423888683 0.999999 0.000978 0.000978
-0.632566332817 -1.778608798981 -0.450595796108 0.999999 0.000978 0.000978
-0.632566332817 -1.801148653030 -0.424724251032 0.999999 0.000978 0.000978
-0.632566332817 -1.800346374512 -0.343288660049 0.999999 0.000978 0.000978
-0.986410260201 -1.407601237297 -0.225455299020 -0.999999 0.000978 0.000978
-0.986410260201 -1.609476804733 -0.186866968870 -0.999999 0.000978 0.000978
-0.632566332817 -1.382746458054 -0.213432893157 0.999999 0.000978 0.000978
-0.632566332817 -1.488786578178 -0.164795011282 0.999999 0.000978 0.000978
-0.632566332817 -1.513693690300 -0.228201761842 0.999999 0.000978 0.000978
-0.866729021072 -1.279146313667 -0.885440886021 0.001334 0.500299 -0.865851
-0.861754357815 -1.246289849281 -0.861200332642 0.001379 0.668888 -0.743362
-0.969575345516 -1.245066881180 -0.860099077225 0.001379 0.668888 -0.743362
-0.823513448238 -1.180485606194 -0.791952431202 0.001364 0.808912 -0.587928
-0.893668413162 -1.149164795876 -0.745376706123 0.001289 0.913864 -0.406019
-0.879148244858 -1.149448037148 -0.746012985706 0.001289 0.913864 -0.406019
-0.839479982853 -1.126387596130 -0.694218277931 0.001289 0.913864 -0.406019
-0.866824388504 -1.725524306297 -0.239807337523 0.001379 -0.668888 0.743362
-0.670853972435 -1.772812485695 -0.282385796309 0.001379 -0.668888 0.743362
-0.696465730667 -1.719068646431 -0.235928475857 0.001334 -0.500299 0.865851
-0.976011097431 -1.681456804276 -0.214213281870 0.001334 -0.500299 0.865851
-0.762959063053 -1.658414006233 -0.200909525156 0.001334 -0.500299 0.865851
-0.701225817204 -1.671490073204 -0.208459004760 0.001334 -0.500299 0.865851
-0.894191503525 -1.605192065239 -0.182460382581 0.001230 -0.308835 0.951115
-0.858095467091 -1.639407038689 -0.193577483296 0.001230 -0.308835 0.951115
-0.648808896542 -1.578263759613 -0.173710882664 0.001230 -0.308835 0.951115
-0.730396986008 -1.595519781113 -0.179317682981 0.001230 -0.308835 0.951115
-0.777757108212 -1.545102357864 -0.169644072652 0.001073 -0.104070 0.994569
-0.682177603245 -1.563600301743 -0.171588301659 0.001073 -0.104070 0.994569
-0.660621523857 -1.556609034538 -0.170853480697 0.001073 -0.104070 0.994569
-0.962205171585 -1.458937644958 -0.167922496796 0.001073 0.104070 0.994569
-0.791090965271 -1.470425367355 -0.166715085506 0.001073 0.104070 0.994569
-0.845212161541 -1.419676423073 -0.172049045563 0.001073 0.104070 0.994569
-0.692057192326 -1.429044127464 -0.171064451337 0.001073 0.104070 0.994569
-0.705986976624 -1.408260941505 -0.174079850316 0.001230 0.308835 0.951115
-0.718433976173 -1.374079227448 -0.185186117887 0.001230 0.308835 0.951115
-0.735488712788 -1.313213229179 -0.210166230798 0.001334 0.500299 0.865851
-0.849434256554 -1.314514636993 -0.209414839745 0.001334 0.500299 0.865851
-0.710751116276 -1.262660503387 -0.239352896810 0.001334 0.500299 0.865851
-0.645940542221 -1.314172267914 -0.209612503648 0.001334 0.500299 0.865851
-0.827118396759 -1.248454928398 -0.252125948668 0.001379 0.668888 0.743362
-0.671143472195 -1.227045178413 -0.271403253078 0.001379 0.668888 0.743362
-0.682661950588 -1.247403144836 -0.253072887659 0.001379 0.668888 0.743362
-0.710963070393 -1.192735791206 -0.306462317705 0.001364 0.808912 0.587928
-0.743405699730 -1.194977641106 -0.303376704454 0.001364 0.808912 0.587928
-0.824932336807 -1.171457171440 -0.335749775171 0.001364 0.808912 0.587928
-0.868824422359 -1.133682727814 -0.404672086239 0.001289 0.913864 0.406019
-0.780880987644 -1.132097005844 -0.408233821392 0.001289 0.913864 0.406019
-0.645094037056 -1.145947813988 -0.377124309540 0.001289 0.913864 0.406019
-0.790751218796 -1.152031779289 -0.363459676504 0.001289 0.913864 0.406019
-0.877169251442 -1.116478443146 -0.451236546040 0.001158 0.978290 0.207235
-0.655573844910 -1.118741154671 -0.440590918064 0.001158 0.978290 0.207235
-0.954165697098 -1.110018372536 -0.481628835201 0.001158 0.978290 0.207235
-0.858826816082 -1.102602481842 -0.550949275494 0.000978 0.999999 0.000978
-0.659315228462 -1.102602481842 -0.529750704765 0.000978 0.999999 0.000978
-0.719060122967 -1.102602481842 -0.541203737259 0.000978 0.999999 0.000978
-0.737135708332 -1.114092707634 -0.652815341949 0.001158 0.978290 -0.207235
-0.822180569172 -1.103798151016 -0.604382574558 0.001158 0.978290 -0.207235
-0.838723182678 -1.117701292038 -0.669792056084 0.001158 0.978290 -0.207235
-0.838399529457 -1.116231679916 -0.662878096104 0.001158 0.978290 -0.207235
-0.963692426682 -1.828388214111 -0.762754321098 0.001364 -0.808912 -0.587928
-0.834919869900 -1.788628578186 -0.817479014397 0.001364 -0.808912 -0.587928
-0.711117684841 -1.819681763649 -0.774737894535 0.001364 -0.808912 -0.587928
-0.757712602615 -1.767918467522 -0.837296366692 0.001379 -0.668888 -0.743362
-0.849694967270 -1.760765314102 -0.843737185001 0.001379 -0.668888 -0.743362
-0.915604472160 -1.732987880707 -0.868748068810 0.001379 -0.668888 -0.743362
-0.897096335888 -1.724388599396 -0.876275718212 0.001334 -0.500299 -0.865851
-0.919347882271 -1.721465945244 -0.877963066101 0.001334 -0.500299 -0.865851
-0.790301561356 -1.655118823051 -0.916268587112 0.001334 -0.500299 -0.865851
-0.679171621799 -1.625424623489 -0.926241338253 0.001230 -0.308835 -0.951115
-0.951307296753 -1.651175737381 -0.917874276638 0.001230 -0.308835 -0.951115
-0.721399724483 -1.577085852623 -0.941947579384 0.001230 -0.308835 -0.951115
-0.669656932354 -1.560793519020 -0.943982422352 0.001073 -0.104070 -0.994569
-0.873106479645 -1.570100069046 -0.943004250526 0.001073 -0.104070 -0.994569
-0.886908531189 -1.521368622780 -0.948126137257 0.001073 -0.104070 -0.994569
-0.986073732376 -1.533600568771 -0.946840465069 0.001073 -0.104070 -0.994569
-0.732146978378 -1.476718306541 -0.949222028255 0.001073 0.104070 -0.994569
-0.815557181835 -1.413435101509 -0.942570686340 0.001073 0.104070 -0.994569
-0.890032231808 -1.429499149323 -0.944259107113 0.001073 0.104070 -0.994569
-0.708216309547 -1.388631224632 -0.934817790985 0.001230 0.308835 -0.951115
-0.877921581268 -1.366366982460 -0.927583694458 0.001230 0.308835 -0.951115
-0.823707163334 -1.327404618263 -0.913302838802 0.001334 0.500299 -0.865851
-0.712970554829 -1.279236674309 -0.885492980480 0.001334 0.500299 -0.865851
-0.634256482124 -1.162304401398 -0.766928136349 0.001364 0.808912 -0.587928
-0.701169490814 -1.166320919991 -0.772456407547 0.001364 0.808912 -0.587928
-0.845398783684 -1.844056844711 -0.732885360718 0.001289 -0.913864 -0.406019
-0.750466823578 -1.852826356888 -0.713188946247 0.001289 -0.913864 -0.406019
-0.724781095982 -1.867807149887 -0.679541349411 0.001289 -0.913864 -0.406019
-0.681320011616 -1.880590081215 -0.619776606560 0.001158 -0.978290 -0.207235
-0.648638248444 -1.885057806969 -0.584457993507 0.000978 -0.999999 0.000978
-0.730126798153 -1.885057806969 -0.580811560154 0.000978 -0.999999 0.000978
-0.884728133678 -1.885057806969 -0.542155563831 0.000978 -0.999999 0.000978
-0.816577851772 -1.883592963219 -0.509626865387 0.001158 -0.978290 0.207235
-0.931742310524 -1.883177638054 -0.507672846317 0.001158 -0.978290 0.207235
-0.649123370647 -1.862285375595 -0.423332244158 0.001289 -0.913864 0.406019
-0.909291803837 -1.853630304337 -0.403892546892 0.001289 -0.913864 0.406019
-0.835957705975 -1.853374242783 -0.403317391872 0.001289 -0.913864 0.406019
-0.751474976540 -1.818984627724 -0.339578330517 0.001364 -0.808912 0.587928
-0.830566227436 -1.787296295166 -0.295962899923 0.001364 -0.808912 0.587928
-0.894137859344 -1.749393582344 -0.261299371719 0.001379 -0.668888 0.743362
-0.982264995575 -1.726023316383 -0.240256682038 0.001379 -0.668888 0.743362
-0.911975502968 -1.871385693550 -0.452196121216 0.001158 -0.978290 0.207235
-0.936984539032 -1.881438374519 -0.615785479546 0.001158 -0.978290 -0.207235
-0.972815036774 -1.443154096603 -0.468929260969 -0.999999 0.000978 0.000978
-0.946814596653 -1.470401048660 -0.317672699690 0.683251 0.001380 -0.730182
-0.950990915298 -1.463971376419 -0.376196265221 0.999999 0.000978 0.000978
-0.966316998005 -1.466219902039 -0.337970852852 -0.994652 0.009741 0.102820
-0.957894325256 -1.477448463440 -0.474421977997 0.001369 -0.792878 -0.609379
-0.950990915298 -1.658086776733 -0.520858466625 0.999999 0.000978 0.000978
-0.950990915298 -1.632991909981 -0.539197146893 0.999999 0.000978 0.000978
-0.972815036774 -1.603280305862 -0.554203152657 -0.999999 0.000978 0.000978
-0.972815036774 -1.594126105309 -0.565445959568 -0.999999 0.000978 0.000978
-0.965397894382 -1.284568667412 -0.461665093899 -0.994656 0.093836 0.043054
-0.950990915298 -1.524652004242 -0.566753208637 0.999999 0.000978 0.000978
-0.972815036774 -1.593837022781 -0.535914659500 -0.999999 0.000978 0.000978
-0.940236330032 -1.442027568817 -0.527932703495 0.001246 0.943059 -0.332624
-0.972815036774 -1.619307875633 -0.519409179688 -0.999999 0.000978 0.000978
-0.966163575649 -1.704847455025 -0.483747124672 -0.994656 -0.093836 0.043054
-0.967926561832 -1.682566523552 -0.475469768047 -0.994656 -0.093836 0.043054
-0.965039849281 -1.602120041847 -0.483132392168 0.001133 0.175594 0.984462
-0.955123305321 -1.538670182228 -0.447319507599 0.001369 -0.795211 0.606331
-0.972815036774 -1.410081505775 -0.563524961472 -0.999999 0.000978 0.000978
-0.950990915298 -1.397776365280 -0.594158470631 0.999999 0.000978 0.000978
-0.931743562222 -1.440182924271 -0.632797539234 0.001325 -0.478202 0.878249
-0.972815036774 -1.421081542969 -0.591226935387 -0.999999 0.000978 0.000978
-0.972815036774 -1.480146288872 -0.583948552608 -0.999999 0.000978 0.000978
-0.950990915298 -1.494179606438 -0.599514126778 0.999999 0.000978 0.000978
-0.950990915298 -1.431948781013 -0.581206560135 0.999999 0.000978 0.000978
-0.950990915298 -1.414521455765 -0.591575980186 0.999999 0.000978 0.000978
-0.950990915298 -1.470036983490 -0.621698498726 0.999999 0.000978 0.000978
-0.950990915298 -1.574517846107 -0.625618875027 0.999999 0.000978 0.000978
-0.950990915298 -1.441211223602 -0.660973131657 0.999999 0.000978 0.000978
-0.969778120518 -1.609861254692 -0.659588813782 0.001320 -0.883337 0.468736
-0.950990915298 -1.612842559814 -0.673842668533 0.999999 0.000978 0.000978
-0.951474428177 -1.596722602844 -0.753260552883 0.001369 0.795211 -0.606331
-0.950990915298 -1.583026170731 -0.732393205166 0.999999 0.000978 0.000978
-0.940618813038 -1.632690072060 -0.770305991173 -0.253554 -0.484057 -0.837496
-0.943826198578 -1.461369395256 -0.600784182549 0.001325 0.478202 -0.878249
-0.966764330864 -1.526756167412 -0.390277475119 0.000999 -0.999736 0.022971
-0.916518568993 -1.469324827194 -0.519235730171 0.001334 0.500299 0.865851
-0.898754596710 -1.580116033554 -0.486964643002 -0.999999 0.000978 0.000978
-0.890525758266 -1.531875371933 -0.474402874708 0.999999 0.000978 0.000978
-0.898754596710 -1.383953213692 -0.462701857090 -0.999999 0.000978 0.000978
-0.898754596710 -1.579720258713 -0.415017366409 -0.999999 0.000978 0.000978
-0.890525758266 -1.593070864677 -0.488142549992 0.999999 0.000978 0.000978
-0.890525758266 -1.428348422050 -0.500917077065 0.999999 0.000978 0.000978
-0.890525758266 -1.601633548737 -0.559868812561 0.999999 0.000978 0.000978
-0.898754596710 -1.551382184029 -0.601501047611 -0.999999 0.000978 0.000978
-0.898754596710 -1.434356331825 -0.576308310032 -0.999999 0.000978 0.000978
-0.890525758266 -1.323244094849 -0.541106522083 0.999999 0.000978 0.000978
-0.890525758266 -1.501162648201 -0.579940319061 0.999999 0.000978 0.000978
-0.890525758266 -1.549084544182 -0.608241081238 0.999999 0.000978 0.000978
-0.898754596710 -1.621739983559 -0.621300101280 -0.999999 0.000978 0.000978
-0.890525758266 -1.638055562973 -0.636073768139 0.999999 0.000978 0.000978
-0.890525758266 -1.632956266403 -0.672235250473 0.999999 0.000978 0.000978
-0.898754596710 -1.504698634148 -0.689239144325 -0.999999 0.000978 0.000978
-0.890525758266 -1.519511938095 -0.705123960972 0.999999 0.000978 0.000978
-0.898754596710 -1.413955450058 -0.511995077133 -0.999999 0.000978 0.000978
-0.761472523212 1.553784608841 -0.809200227261 0.001334 -0.500299 0.865851
-0.992526173592 1.542517662048 -0.815675497055 0.001230 -0.308835 0.951115
-0.788278877735 1.505918383598 -0.827567338943 0.001230 -0.308835 0.951115
-0.756369590759 1.479565858841 -0.834609031677 0.001073 -0.104070 0.994569
-0.896938920021 1.452141642570 -0.837491452694 0.001073 -0.104070 0.994569
-0.731257498264 1.385143995285 -0.835573554039 0.001073 0.104070 0.994569
-0.756751239300 1.413438677788 -0.838547468185 0.001073 0.104070 0.994569
-0.890112757683 1.384605050087 -0.835516929626 0.001073 0.104070 0.994569
-0.683432161808 1.366636753082 -0.833098053932 0.001230 0.308835 0.951115
-0.966373205185 1.346222400665 -0.826465070248 0.001230 0.308835 0.951115
-0.743250727654 1.299814224243 -0.808083415031 0.001334 0.500299 0.865851
-0.878326952457 1.268222451210 -0.789843916893 0.001334 0.500299 0.865851
-0.895015478134 1.249967932701 -0.775492966175 0.001379 0.668888 0.743362
-0.972133457661 1.223241806030 -0.751428544521 0.001379 0.668888 0.743362
-0.817313849926 1.215674161911 -0.743559539318 0.001364 0.808912 0.587928
-0.929085910320 1.224191904068 -0.710750699043 -0.134846 0.801670 0.582359
-0.932363808155 1.164238095284 -0.656284451485 0.001289 0.913864 0.406019
-0.658498585224 1.165469169617 -0.659049570560 0.001289 0.913864 0.406019
-0.868114054203 1.153161168098 -0.616623818874 0.001158 0.978290 0.207235
-0.976618647575 1.146898150444 -0.566017210484 0.000978 0.999999 0.000978
-0.670141577721 1.146898150444 -0.530701935291 0.000978 0.999999 0.000978
-0.871266245842 1.147793650627 -0.523904561996 0.001158 0.978290 -0.207235
-0.991831779480 1.180032134056 -0.423517286777 0.001289 0.913864 -0.406019
-0.877838611603 1.175150990486 -0.434480518103 0.001289 0.913864 -0.406019
-0.852121770382 1.195102810860 -0.400030225515 0.001364 0.808912 -0.587928
-1.000253915787 1.302099823952 -0.321304708719 -0.999999 0.000978 0.000978
-0.918491840363 1.233386874199 -0.354712396860 0.001379 0.668888 -0.743362
-0.967507064342 1.263818979263 -0.327974051237 0.001334 0.500299 -0.865851
-0.988923728466 1.340548992157 -0.309694677591 -0.133500 0.306106 -0.942591
-0.991122901440 1.401169180870 -0.295928180218 -0.132622 0.103947 -0.985701
-0.761401832104 1.368210077286 -0.281666368246 0.001230 0.308835 -0.951115
-0.962506353855 1.374548196793 -0.280815750360 0.001073 0.104070 -0.994569
-0.938046753407 1.399725437164 -0.278169512749 0.001073 0.104070 -0.994569
-0.688046574593 1.458556532860 -0.278458416462 0.001073 -0.104070 -0.994569
-0.809703648090 1.480022788048 -0.280714631081 0.001073 -0.104070 -0.994569
-0.802724480629 1.510675907135 -0.289254158735 0.001230 -0.308835 -0.951115
-0.791099607944 1.520094990730 -0.292314589024 0.001230 -0.308835 -0.951115
-0.732886791229 1.553945541382 -0.306168377399 0.001334 -0.500299 -0.865851
-0.945014715195 1.554599523544 -0.306545972824 0.001334 -0.500299 -0.865851
-0.864703416824 1.585091233253 -0.324150264263 0.001334 -0.500299 -0.865851
-0.730048418045 1.617985486984 -0.350965827703 0.001379 -0.668888 -0.743362
-0.978104233742 1.597477316856 -0.332500159740 0.001379 -0.668888 -0.743362
-0.858798086643 1.655088424683 -0.392677456141 0.001364 -0.808912 -0.587928
-0.847368419170 1.683033704758 -0.440435349941 0.001289 -0.913864 -0.406019
-0.795331180096 1.693475365639 -0.463887780905 0.001289 -0.913864 -0.406019
-0.714506149292 1.698754668236 -0.481632798910 0.001158 -0.978290 -0.207235
-1.000253915787 1.697915077209 -0.566403448582 -0.999999 0.000978 0.000978
-0.726409137249 1.708635210991 -0.529674112797 0.000978 -0.999999 0.000978
-0.716131329536 1.708635210991 -0.553703129292 0.000978 -0.999999 0.000978
-0.949334621429 1.700398325920 -0.625909924507 0.001158 -0.978290 0.207235
-0.932371616364 1.681160688400 -0.679047048092 0.001289 -0.913864 0.406019
-0.683465719223 1.676058292389 -0.690507054329 0.001289 -0.913864 0.406019
-0.995464503765 1.660617351532 -0.714988410473 0.001364 -0.808912 0.587928
-0.904460906982 1.617372870445 -0.764861464500 0.001379 -0.668888 0.743362
-0.700745284557 1.558658242226 -0.806386411190 0.001334 -0.500299 0.865851
-0.680285274982 1.601803660393 -0.778880059719 0.001379 -0.668888 0.743362
-0.792724609375 1.650417089462 -0.729027867317 0.001364 -0.808912 0.587928
-0.991853415966 1.565651416779 -0.781894862652 -0.132198 -0.495378 0.858559
-0.928924500942 1.640598893166 -0.697971880436 -0.134846 -0.801670 0.582359
-0.964151263237 1.574097752571 -0.342569589615 -0.132198 -0.495378 -0.858559
-0.930231571198 1.490014433861 -0.309900999069 -0.133500 -0.306106 -0.942591
-0.705100297928 1.704466700554 -0.606769740582 0.001158 -0.978290 0.207235
-0.717590034008 1.707495570183 -0.522755622864 0.001158 -0.978290 -0.207235
-0.726647138596 1.648805618286 -0.384029805660 0.001364 -0.808912 -0.587928
-0.767317414284 1.344534158707 -0.289359182119 0.001230 0.308835 -0.951115
-0.666619956493 1.299848437309 -0.307172536850 0.001334 0.500299 -0.865851
-0.660014331341 1.245615005493 -0.343702077866 0.001379 0.668888 -0.743362
-0.706159055233 1.196650981903 -0.397899299860 0.001364 0.808912 -0.587928
-0.932693541050 1.235148429871 -0.388617277145 -0.134846 0.801670 -0.582359
-0.878639101982 1.159044742584 -0.470972001553 0.001158 0.978290 -0.207235
-0.749932885170 1.147182345390 -0.588495254517 0.001158 0.978290 0.207235
-0.905616879463 1.190983891487 -0.709576368332 0.001364 0.808912 0.587928
-0.997061073780 1.272831201553 -0.772861301899 -0.132198 0.495378 0.858559
-0.971318483353 1.320688486099 -0.796484410763 -0.132198 0.495378 0.858559
-0.967767417431 1.441573023796 -0.817525923252 -0.132622 -0.103947 0.985701
-0.956816375256 1.452508568764 -0.814892172813 -0.132622 -0.103947 0.985701
-1.000253915787 1.583661079407 -0.871604800224 -0.999999 0.000978 0.000978
-1.000253915787 1.274509191513 -0.841161429882 -0.999999 0.000978 0.000978
-1.000253915787 1.305662870407 -0.883691549301 -0.999999 0.000978 0.000978
-1.000253915787 1.685267925262 -0.791193723679 -0.999999 0.000978 0.000978
-1.000253915787 1.589696526527 -0.800839364529 -0.999999 0.000978 0.000978
-0.639941215515 1.763310194016 -0.708641588688 0.999999 0.000978 0.000978
-0.639941215515 1.780526995659 -0.533266186714 0.999999 0.000978 0.000978
-0.639941215515 1.750858902931 -0.448564499617 0.999999 0.000978 0.000978
-0.639941215515 1.731609821320 -0.400131851435 0.999999 0.000978 0.000978
-0.639941215515 1.715986490250 -0.367202818394 0.999999 0.000978 0.000978
-0.639941215515 1.700150012970 -0.352071911097 0.999999 0.000978 0.000978
-0.639941215515 1.660928726196 -0.296603083611 0.999999 0.000978 0.000978
-0.639941215515 1.651336789131 -0.276396155357 0.999999 0.000978 0.000978
-0.639941215515 1.546801686287 -0.253606110811 0.999999 0.000978 0.000978
-0.639941215515 1.347818255424 -0.274199932814 0.999999 0.000978 0.000978
-0.639941215515 1.224479317665 -0.257696509361 0.999999 0.000978 0.000978
-1.000253915787 1.641471862793 -0.334041655064 -0.999999 0.000978 0.000978
-1.000253915787 1.687838196754 -0.409180700779 -0.999999 0.000978 0.000978
-1.000253915787 1.783582806587 -0.472788155079 -0.999999 0.000978 0.000978
-1.000253915787 1.770111799240 -0.513418257236 -0.999999 0.000978 0.000978
-1.000253915787 1.797420024872 -0.591362833977 -0.999999 0.000978 0.000978
-1.000253915787 1.763219356537 -0.672115564346 -0.999999 0.000978 0.000978
-1.000253915787 1.675449490547 -0.710974395275 -0.999999 0.000978 0.000978
-1.000253915787 1.713167786598 -0.637316346169 -0.999999 0.000978 0.000978
-1.000253915787 1.611472487450 -0.278375297785 -0.999999 0.000978 0.000978
-1.000253915787 1.263439655304 -0.249017596245 -0.999999 0.000978 0.000978
-1.000253915787 1.281887292862 -0.258344441652 -0.999999 0.000978 0.000978
-1.000253915787 1.096409320831 -0.395423561335 -0.999999 0.000978 0.000978
-1.000253915787 1.058973193169 -0.449727892876 -0.999999 0.000978 0.000978
-1.000253915787 1.116772413254 -0.494352430105 -0.999999 0.000978 0.000978
-1.000253915787 1.108442664146 -0.558604240417 -0.999999 0.000978 0.000978
-1.000253915787 1.142543673515 -0.700165987015 -0.999999 0.000978 0.000978
-1.000253915787 1.276834130287 -0.795307219028 -0.999999 0.000978 0.000978
-1.000253915787 1.167494535446 -0.781069338322 -0.999999 0.000978 0.000978
-0.639941215515 1.266675472260 -0.809968471527 0.999999 0.000978 0.000978
-0.639941215515 1.482336044312 -0.856063187122 0.999999 0.000978 0.000978
-0.639941215515 1.145042538643 -0.822994470596 0.999999 0.000978 0.000978
-0.639941215515 1.371919274330 -0.893996715546 0.999999 0.000978 0.000978
-0.639941215515 1.424287199974 -0.922737777233 0.999999 0.000978 0.000978
-0.639941215515 1.470282077789 -0.943795502186 0.999999 0.000978 0.000978
-1.000253915787 1.446651339531 -0.924267768860 -0.999999 0.000978 0.000978
-1.000253915787 1.274553894997 -0.900386333466 -0.999999 0.000978 0.000978
-0.639941215515 1.639769673347 -0.797443985939 0.999999 0.000978 0.000978
-0.639941215515 1.714389443398 -0.754287004471 0.999999 0.000978 0.000978
-0.639941215515 1.102768659592 -0.745524704456 0.999999 0.000978 0.000978
-0.639941215515 1.076764702797 -0.564587354660 0.999999 0.000978 0.000978
-0.639941215515 1.052967071533 -0.487386494875 0.999999 0.000978 0.000978
-0.639941215515 1.079050898552 -0.534593045712 0.999999 0.000978 0.000978
-0.639941215515 1.224321961403 -0.311782836914 0.999999 0.000978 0.000978
-1.000253915787 1.593516826630 -0.232488840818 -0.999999 0.000978 0.000978
-1.000253915787 1.405399799347 -0.204497575760 -0.999999 0.000978 0.000978
-0.639941215515 1.383136510849 -0.238986283541 0.999999 0.000978 0.000978
-0.943811058998 1.605718255043 -0.906648218632 0.001334 0.500299 -0.865851
-0.819285988808 1.638826847076 -0.887533009052 0.001334 0.500299 -0.865851
-0.640246033669 1.700572967529 -0.838450729847 0.001379 0.668888 -0.743362
-0.670681715012 1.712345361710 -0.827850878239 0.001379 0.668888 -0.743362
-0.730732262135 1.705490350723 -0.834023177624 0.001379 0.668888 -0.743362
-0.982417523861 1.747932672501 -0.782563388348 0.001364 0.808912 -0.587928
-0.832083463669 1.779562234879 -0.729361712933 0.001289 0.913864 -0.406019
-0.974253356457 1.772230863571 -0.745828270912 0.001289 0.913864 -0.406019
-0.740866661072 1.779659509659 -0.729143321514 0.001289 0.913864 -0.406019
-0.676450610161 1.192218303680 -0.243277788162 0.001379 -0.668888 0.743362
-0.714054286480 1.210809826851 -0.231147095561 0.001334 -0.500299 0.865851
-0.683945536613 1.204448699951 -0.234819725156 0.001334 -0.500299 0.865851
-0.658643901348 1.206857681274 -0.233428895473 0.001334 -0.500299 0.865851
-0.966251671314 1.278488874435 -0.194780036807 0.001230 -0.308835 0.951115
-0.833375573158 1.334023237228 -0.176735848188 0.001230 -0.308835 0.951115
-0.802559375763 1.335693478584 -0.176193147898 0.001230 -0.308835 0.951115
-0.717714667320 1.348484396935 -0.172588095069 0.001073 -0.104070 0.994569
-0.788650691509 1.366232514381 -0.170722678304 0.001073 -0.104070 0.994569
-0.682010710239 1.405698060989 -0.166574612260 0.001073 -0.104070 0.994569
-0.671702146530 1.372986078262 -0.170012831688 0.001073 -0.104070 0.994569
-0.886194169521 1.469816446304 -0.168674781919 0.001073 0.104070 0.994569
-0.912601649761 1.477040290833 -0.169434040785 0.001073 0.104070 0.994569
-0.669135153294 1.461032748222 -0.167751580477 0.001073 0.104070 0.994569
-0.721427857876 1.469511866570 -0.168642774224 0.001073 0.104070 0.994569
-0.990444004536 1.535892963409 -0.181409120560 0.001230 0.308835 0.951115
-0.893400013447 1.540413618088 -0.182877942920 0.001230 0.308835 0.951115
-0.792604148388 1.549997925758 -0.185992091894 0.001230 0.308835 0.951115
-0.904800176620 1.591383695602 -0.200351372361 0.001334 0.500299 0.865851
-0.856179237366 1.633290529251 -0.224546253681 0.001334 0.500299 0.865851
-0.905280888081 1.644462108612 -0.230996146798 0.001334 0.500299 0.865851
-0.765641868114 1.679255723953 -0.257630735636 0.001379 0.668888 0.743362
-0.872491359711 1.714172124863 -0.289069563150 0.001379 0.668888 0.743362
-0.895613431931 1.703121542931 -0.279119580984 0.001379 0.668888 0.743362
-0.727246999741 1.745818972588 -0.329802989960 0.001364 0.808912 0.587928
-0.738215565681 1.737992525101 -0.319030731916 0.001364 0.808912 0.587928
-0.834827065468 1.763630986214 -0.354319244623 0.001364 0.808912 0.587928
-0.770733356476 1.800324440002 -0.432546198368 0.001289 0.913864 0.406019
-0.912392020226 1.775870203972 -0.377621382475 0.001289 0.913864 0.406019
-0.874426364899 1.778578042984 -0.383703231812 0.001289 0.913864 0.406019
-0.930912256241 1.802323818207 -0.438088566065 0.001158 0.978290 0.207235
-0.665621340275 1.814968109131 -0.497575610876 0.001158 0.978290 0.207235
-0.756298899651 1.815742373466 -0.501218378544 0.001158 0.978290 0.207235
-0.899917542934 1.818994402885 -0.568716883659 0.000978 0.999999 0.000978
-0.933677017689 1.818994402885 -0.598641514778 0.000978 0.999999 0.000978
-0.752940654755 1.818994402885 -0.521141886711 0.000978 0.999999 0.000978
-0.729532599449 1.818994402885 -0.526104092598 0.000978 0.999999 0.000978
-0.883901476860 1.818639755249 -0.600426256657 0.001158 0.978290 -0.207235
-0.958911359310 1.802368164062 -0.676978409290 0.001158 0.978290 -0.207235
-0.927454292774 1.098779439926 -0.770421862602 0.001364 -0.808912 -0.587928
-0.974217355251 1.110828995705 -0.787006795406 0.001364 -0.808912 -0.587928
-0.726316034794 1.106576323509 -0.781153500080 0.001364 -0.808912 -0.587928
-0.656332671642 1.150490283966 -0.834425866604 0.001379 -0.668888 -0.743362
-0.709202885628 1.189043879509 -0.869139671326 0.001379 -0.668888 -0.743362
-0.857807576656 1.184866786003 -0.865378558636 0.001379 -0.668888 -0.743362
-0.665544033051 1.217088460922 -0.887753546238 0.001334 -0.500299 -0.865851
-0.644930660725 1.247788310051 -0.905478000641 0.001334 -0.500299 -0.865851
-0.994598269463 1.226827740669 -0.893376469612 0.001334 -0.500299 -0.865851
-0.683437347412 1.266024827957 -0.916006863117 0.001334 -0.500299 -0.865851
-0.745734453201 1.317811608315 -0.933272361755 0.001230 -0.308835 -0.951115
-0.650188922882 1.308249115944 -0.930165350437 0.001230 -0.308835 -0.951115
-0.713806867599 1.336323976517 -0.939287364483 0.001230 -0.308835 -0.951115
-0.850290894508 1.366890907288 -0.944622218609 0.001073 -0.104070 -0.994569
-0.654717504978 1.419643998146 -0.950166821480 0.001073 -0.104070 -0.994569
-0.845384478569 1.409310221672 -0.949080705643 0.001073 -0.104070 -0.994569
-0.652928829193 1.446343421936 -0.949068009853 0.001073 0.104070 -0.994569
-0.807069182396 1.436651349068 -0.950086712837 0.001073 0.104070 -0.994569
-0.728148937225 1.499228835106 -0.943509519100 0.001073 0.104070 -0.994569
-0.872011661530 1.486053466797 -0.944894313812 0.001073 0.104070 -0.994569
-0.758236408234 1.518430352211 -0.939540505409 0.001230 0.308835 -0.951115
-0.947829484940 1.557831764221 -0.926738202572 0.001230 0.308835 -0.951115
-0.766148865223 1.609751462936 -0.904319643974 0.001334 0.500299 -0.865851
-0.800067126751 1.589471459389 -0.916028261185 0.001334 0.500299 -0.865851
-0.702525556087 1.738902449608 -0.794992566109 0.001364 0.808912 -0.587928
-0.688877642155 1.075054764748 -0.727303624153 0.001289 -0.913864 -0.406019
-0.651022970676 1.064403414726 -0.703380525112 0.001289 -0.913864 -0.406019
-0.946695268154 1.068598985672 -0.712803781033 0.001289 -0.913864 -0.406019
-0.927986323833 1.061689019203 -0.697283864021 0.001289 -0.913864 -0.406019
-0.737760126591 1.043397545815 -0.631024956703 0.001158 -0.978290 -0.207235
-0.708758413792 1.047609329224 -0.650839865208 0.001158 -0.978290 -0.207235
-0.710345268250 1.036538958549 -0.559385240078 0.000978 -0.999999 0.000978
-0.950217843056 1.036538958549 -0.568042933941 0.000978 -0.999999 0.000978
-0.998937308788 1.036538958549 -0.583972513676 0.000978 -0.999999 0.000978
-0.937598407269 1.037115097046 -0.513807475567 0.001158 -0.978290 0.207235
-0.785870432854 1.057234883308 -0.427995800972 0.001289 -0.913864 0.406019
-0.930128574371 1.064694285393 -0.411241739988 0.001289 -0.913864 0.406019
-0.762824773788 1.099971175194 -0.343213468790 0.001364 -0.808912 0.587928
-0.825766444206 1.095181226730 -0.349806219339 0.001364 -0.808912 0.587928
-0.859343767166 1.129704236984 -0.302289187908 0.001364 -0.808912 0.587928
-0.953145205975 1.143676996231 -0.286984413862 0.001379 -0.668888 0.743362
-0.957486152649 1.045012116432 -0.476654589176 0.001158 -0.978290 0.207235
-0.838726937771 1.044490575790 -0.479108661413 0.001158 -0.978290 0.207235
-0.730477213860 1.039963841438 -0.614870429039 0.001158 -0.978290 -0.207235
-0.788128018379 1.041755199432 -0.623298346996 0.001158 -0.978290 -0.207235
-0.978231072426 1.435478687286 -0.459246635437 -0.999999 0.000978 0.000978
-0.966894567013 1.574069261551 -0.475412666798 0.001217 -0.288352 0.957524
-0.956007897854 1.557177662849 -0.514603555202 0.999999 0.000978 0.000978
-0.956007897854 1.433917164803 -0.543797194958 0.999999 0.000978 0.000978
-0.973479449749 1.619215726852 -0.486823588610 -0.994423 0.096235 0.043140
-0.973426938057 1.290318489075 -0.551318705082 0.001305 -0.437266 -0.899331
-0.978231072426 1.306503295898 -0.550280809402 -0.999999 0.000978 0.000978
-0.967166662216 1.516261458397 -0.538330554962 0.001050 -0.996891 0.078785
-0.975307166576 1.275200128555 -0.473535776138 0.001217 0.288352 0.957524
-0.938945412636 1.193618535995 -0.471689909697 0.429938 0.858345 -0.279995
-0.953339636326 1.446305155754 -0.489695072174 0.001275 -0.924466 0.381263
-0.952450990677 1.409640669823 -0.490691184998 0.001275 0.924466 0.381263
-0.978231072426 1.354974269867 -0.500530421734 -0.999999 0.000978 0.000978
-0.971383690834 1.434033513069 -0.466382503510 0.001275 -0.381263 -0.924466
-0.956007897854 1.444952130318 -0.599058926105 0.999999 0.000978 0.000978
-0.956007897854 1.449782967567 -0.577910006046 0.999999 0.000978 0.000978
-0.951366722584 1.583728909492 -0.756081461906 -0.428198 0.604809 -0.671455
-0.969210267067 1.376743793488 -0.689039230347 0.001381 0.719425 -0.694569
-0.977760374546 1.331462502480 -0.690472483635 -0.994570 -0.052229 -0.090011
-0.943729937077 1.307728886604 -0.775698542595 0.430591 0.529577 0.730849
-0.945012032986 1.276166200638 -0.762546420097 -0.247492 -0.647892 -0.720405
-0.956007897854 1.445517182350 -0.600795984268 0.999999 0.000978 0.000978
-0.927954912186 1.365110397339 -0.552845716476 -0.999999 0.000978 0.000978
-0.927954912186 1.442596077919 -0.486504852772 -0.999999 0.000978 0.000978
-0.889344155788 1.409412026405 -0.558345556259 0.999999 0.000978 0.000978
-0.899281680584 1.382256865501 -0.560447216034 0.000978 -0.999999 0.000978
-0.889344155788 1.377987861633 -0.549383521080 -0.999999 0.000978 0.000978
-0.889344155788 1.250074148178 -0.515397012234 -0.999999 0.000978 0.000978
-0.889344155788 1.320775389671 -0.456122279167 -0.999999 0.000978 0.000978
-0.880964815617 1.292022109032 -0.430029332638 0.999999 0.000978 0.000978
-0.880964815617 1.358942866325 -0.398201346397 0.999999 0.000978 0.000978
-0.880964815617 1.381760120392 -0.386475801468 0.999999 0.000978 0.000978
-0.880964815617 1.451263666153 -0.525651514530 0.999999 0.000978 0.000978
-0.880964815617 1.520334720612 -0.539917171001 0.999999 0.000978 0.000978
-0.889344155788 1.405097961426 -0.588039040565 0.999999 0.000978 0.000978
-0.880964815617 1.378054738045 -0.567760884762 0.999999 0.000978 0.000978
-0.880964815617 1.303114414215 -0.591369807720 0.999999 0.000978 0.000978
-0.889344155788 1.543306112289 -0.615955352783 -0.999999 0.000978 0.000978
-0.880964815617 1.392921090126 -0.618537485600 0.999999 0.000978 0.000978
-0.889344155788 1.569766044617 -0.625451564789 -0.999999 0.000978 0.000978
-0.889344155788 1.545604109764 -0.681549191475 -0.999999 0.000978 0.000978
-0.889344155788 1.501964807510 -0.719977915287 -0.999999 0.000978 0.000978
-0.889344155788 1.484629631042 -0.534855902195 -0.999999 0.000978 0.000978
-0.896364867687 1.382256865501 -0.553817689419 0.000978 -0.999999 0.000978
0.455460846424 -1.562957048416 -0.222427189350 -0.865851 -0.500299 0.001334
0.459587156773 -1.570104122162 -0.070389293134 -0.865851 -0.500299 0.001334
0.438424170017 -1.533448696136 -0.130176618695 -0.865851 -0.500299 0.001334
0.523591995239 -1.497355580330 -0.051132369787 0.000978 0.000978 0.999999
0.541087746620 -1.554464936256 -0.051132369787 0.000978 0.000978 0.999999
0.543949067593 -1.575863122940 -0.153019323945 0.000978 -0.999999 0.000978
0.467120647430 -1.575863122940 -0.074350595474 0.000978 -0.999999 0.000978
0.559269130230 -1.572969913483 -0.227921515703 0.865851 -0.500299 0.001334
0.598373770714 -1.505238771439 -0.158168107271 0.865851 -0.500299 0.001334
0.568857610226 -1.556362152100 -0.300014138222 0.865851 -0.500299 0.001334
0.545227587223 -1.560489773750 -0.359642475843 0.000978 0.000978 -0.999999
0.533363044262 -1.559204697609 -0.480936437845 0.000978 -0.999999 0.000978
0.494975000620 -1.559204697609 -0.549803733826 0.000978 -0.999999 0.000978
0.462807059288 -1.542364120483 -0.604781329632 -0.865851 -0.500299 0.001334
0.435631752014 -1.495295166969 -0.595504403114 -0.865851 -0.500299 0.001334
0.424545437098 -1.478314280510 -0.202987700701 -0.865851 0.500299 0.001334
0.423985153437 -1.479284763336 -0.240776926279 -0.865851 0.500299 0.001334
0.451732844114 -1.431224346161 -0.278282284737 -0.865851 0.500299 0.001334
0.457382053137 -1.421439647675 -0.053305655718 -0.865851 0.500299 0.001334
0.443109720945 -1.453359127045 -0.051132369787 0.000978 0.000978 0.999999
0.571362495422 -1.466367244720 -0.051132369787 0.000978 0.000978 0.999999
0.587165713310 -1.463072776794 -0.140869185328 0.865851 0.500299 0.001334
0.595001220703 -1.476644158363 -0.176000416279 0.865851 0.500299 0.001334
0.575837790966 -1.443452119827 -0.217595890164 0.865851 0.500299 0.001334
0.567863047123 -1.429639458656 -0.180172309279 0.865851 0.500299 0.001334
0.549033522606 -1.557381629944 -0.634536921978 0.865851 -0.500299 0.001334
0.573116123676 -1.515669226646 -0.378148496151 0.865851 -0.500299 0.001334
0.557152330875 -1.543319463730 -0.629681766033 0.865851 -0.500299 0.001334
0.514886379242 -1.547337532043 -0.677017867565 0.000978 0.000978 -0.999999
0.440139442682 -1.484621524811 -0.652674138546 -0.865851 0.500299 0.001334
0.472426593304 -1.428698778152 -0.423030585051 -0.865851 0.500299 0.001334
0.458655029535 -1.452551722527 -0.549670398235 -0.865851 0.500299 0.001334
0.538178741932 -1.411861181259 -0.230849117041 0.000978 0.999999 0.000978
0.525253176689 -1.411861181259 -0.298098564148 0.000978 0.999999 0.000978
0.473400026560 -1.411861181259 -0.285261452198 0.000978 0.999999 0.000978
0.525400996208 -1.411861181259 -0.147512957454 0.000978 0.999999 0.000978
0.518763899803 -1.428519725800 -0.361845880747 0.000978 0.999999 0.000978
0.482834935188 -1.428519725800 -0.654509305954 0.000978 0.999999 0.000978
0.561657011509 -1.452207326889 -0.639951467514 0.865851 0.500299 0.001334
0.556738436222 -1.443688154221 -0.560584306717 0.865851 0.500299 0.001334
0.563782453537 -1.455888748169 -0.376313388348 0.865851 0.500299 0.001334
0.415103584528 1.382705569267 -0.291694402695 -0.999999 0.000978 0.000978
0.415103584528 1.464053273201 -0.093728899956 -0.999999 0.000978 0.000978
0.490465998650 1.417154908180 -0.043201297522 0.000978 0.000978 0.999999
0.482965111732 1.341243386269 -0.293081611395 -0.500299 -0.865851 0.001334
0.423968791962 1.375305056572 -0.325297534466 -0.500299 -0.865851 0.001334
0.508839368820 1.339855194092 -0.195105224848 0.500299 -0.865851 0.001334
0.553884029388 1.365861654282 -0.195150941610 0.500299 -0.865851 0.001334
0.526292026043 1.349931478500 -0.105183467269 0.500299 -0.865851 0.001334
0.579105496407 1.403204441071 -0.135714009404 0.999999 0.000978 0.000978
0.579105496407 1.474987983704 -0.138239219785 0.999999 0.000978 0.000978
0.553666412830 1.384971618652 -0.431103616953 0.500299 -0.865851 0.001334
0.521873235703 1.366615891457 -0.511905550957 0.500299 -0.865851 0.001334
0.547644734383 1.381494998932 -0.607901275158 0.500299 -0.865851 0.001334
0.490497946739 1.356130003929 -0.429190337658 -0.500299 -0.865851 0.001334
0.433911025524 1.388800382614 -0.397067457438 -0.500299 -0.865851 0.001334
0.431762039661 1.445924401283 -0.640127182007 -0.999999 0.000978 0.000978
0.431762039661 1.449575781822 -0.591076254845 -0.999999 0.000978 0.000978
0.478045552969 1.511449694633 -0.349076092243 -0.500299 0.865851 0.001334
0.429140597582 1.483214378357 -0.156446725130 -0.500299 0.865851 0.001334
0.549082517624 1.492443799973 -0.077822372317 0.500299 0.865851 0.001334
0.531678378582 1.502492070198 -0.168302789330 0.500299 0.865851 0.001334
0.538845896721 1.498353958130 -0.314403057098 0.500299 0.865851 0.001334
0.562447071075 1.417787671089 -0.534540355206 0.999999 0.000978 0.000978
0.562447071075 1.426489591599 -0.552960157394 0.999999 0.000978 0.000978
0.562447071075 1.445460557938 -0.646740555763 0.999999 0.000978 0.000978
0.479456782341 1.436447620392 -0.669086813927 0.000978 0.000978 -0.999999
0.491737037897 1.370187401772 -0.669086813927 0.000978 0.000978 -0.999999
0.475874632597 1.490960717201 -0.510296165943 -0.500299 0.865851 0.001334
0.462282001972 1.483112931252 -0.485884130001 -0.500299 0.865851 0.001334
0.498814254999 1.502230525017 -0.389343947172 0.500299 0.865851 0.001334
0.528114855289 1.485313892365 -0.605507135391 0.500299 0.865851 0.001334
0.508742034435 1.496498703957 -0.638303697109 0.500299 0.865851 0.001334
-0.502533972263 1.336214780807 -0.222199350595 -0.500299 -0.865851 0.001334
-0.539768815041 1.357712268829 -0.286431074142 -0.500299 -0.865851 0.001334
-0.445208728313 1.363042116165 -0.059239778668 0.500299 -0.865851 0.001334
-0.437605291605 1.367431879044 -0.223046034575 0.500299 -0.865851 0.001334
-0.415103495121 1.415127992630 -0.290901511908 0.999999 0.000978 0.000978
-0.490305781364 1.356240868568 -0.394470572472 0.500299 -0.865851 0.001334
-0.510615646839 1.360116362572 -0.544992029667 -0.500299 -0.865851 0.001334
-0.542048335075 1.378264069557 -0.532250583172 -0.500299 -0.865851 0.001334
-0.562446892262 1.395678877831 -0.511875689030 -0.999999 0.000978 0.000978
-0.579105496407 1.438307046890 -0.268501758575 -0.999999 0.000978 0.000978
-0.579105496407 1.386425495148 -0.141552925110 -0.999999 0.000978 0.000978
-0.522740304470 1.473725199699 -0.043201297522 0.000978 0.000978 0.999999
-0.436408162117 1.432280540466 -0.043201297522 0.000978 0.000978 0.999999
-0.534648597240 1.354756116867 -0.169932797551 -0.500299 -0.865851 0.001334
-0.568833112717 1.374492526054 -0.204994782805 -0.500299 -0.865851 0.001334
-0.415103495121 1.456948637962 -0.156982153654 0.999999 0.000978 0.000978
-0.423532754183 1.479976654053 -0.070311166346 0.500299 0.865851 0.001334
-0.425456523895 1.481087327003 -0.106843888760 0.500299 0.865851 0.001334
-0.465242087841 1.504057526588 -0.345286488533 0.500299 0.865851 0.001334
-0.512970447540 1.513293147087 -0.238625288010 -0.500299 0.865851 0.001334
-0.572360634804 1.479004144669 -0.323868483305 -0.500299 0.865851 0.001334
-0.431761950254 1.405081748962 -0.351903021336 0.999999 0.000978 0.000978
-0.431761950254 1.462461709976 -0.649621129036 0.999999 0.000978 0.000978
-0.431761950254 1.408756136894 -0.524255394936 0.999999 0.000978 0.000978
-0.456530272961 1.379661202431 -0.669086813927 0.000978 0.000978 -0.999999
-0.483631253242 1.360094428062 -0.655212819576 0.500299 -0.865851 0.001334
-0.516804337502 1.475925564766 -0.669086813927 0.000978 0.000978 -0.999999
-0.494599819183 1.501771569252 -0.608013987541 0.500299 0.865851 0.001334
-0.529269576073 1.484647154808 -0.467398583889 -0.500299 0.865851 0.001334
-0.525871276855 1.486609220505 -0.604136765003 -0.500299 0.865851 0.001334
-0.562446892262 1.449125885963 -0.603858828545 -0.999999 0.000978 0.000978
-0.459605216980 1.481567502022 -0.418367326260 0.500299 0.865851 0.001334
-0.448413521051 1.477022409439 -0.043201297522 0.000978 0.000978 0.999999
-0.572426319122 -1.516863942146 -0.389241546392 -0.865851 -0.500299 0.001334
-0.548691391945 -1.557973980904 -0.476009964943 -0.865851 -0.500299 0.001334
-0.579563856125 -1.504501342773 -0.666241168976 -0.865851 -0.500299 0.001334
-0.470187187195 -1.432577371597 -0.666481852531 0.865851 0.500299 0.001334
-0.470492780209 -1.432048082352 -0.510790467262 0.865851 0.500299 0.001334
-0.589587330818 -1.482960700989 -0.359642475843 0.000978 0.000978 -0.999999
-0.575144648552 -1.475568652153 -0.580238699913 -0.865851 0.500299 0.001334
-0.555440366268 -1.441439986229 -0.634176313877 -0.865851 0.500299 0.001334
-0.520732462406 -1.428519725800 -0.617593765259 0.000978 0.999999 0.000978
-0.477586418390 -1.428519725800 -0.568899691105 0.000978 0.999999 0.000978
