0.818293631077 -1.158143997192 -0.460502803326 0.965957 0.258631 -0.006015
0.941688776016 -1.616685748100 -0.382106035948 0.965957 0.258631 -0.006015
0.944001972675 -1.625899434090 -0.403179049492 0.965957 0.258631 -0.006015
0.777249872684 -1.264289021492 -0.657806873322 0.160515 -0.574553 0.802574
0.730374097824 -1.274618387222 -0.655870079994 0.160515 -0.574553 0.802574
0.792696177959 -1.229287385941 -0.634199023247 0.205810 -0.756699 0.620524
0.773638904095 -1.187022209167 -0.567217826843 0.239392 -0.884709 0.399978
0.710770130157 -1.182716012001 -0.505517482758 0.257517 -0.954013 0.153443
0.659577846527 -1.184883952141 -0.471828699112 -0.599055 -0.794367 0.100571
0.721117794514 -1.183115959167 -0.391587495804 0.241071 -0.904380 -0.352109
0.753492295742 -1.341698169708 -0.220428138971 0.100818 -0.401890 -0.910121
0.750562906265 -1.535023689270 -0.225497707725 -0.825001 0.009577 -0.565050
0.747345983982 -1.485760211945 -0.219176843762 -0.101271 0.352424 -0.930345
0.832240462303 -1.472523927689 -0.223386168480 -0.101271 0.352424 -0.930345
0.814312458038 -1.445865988731 -0.700020313263 -0.035628 0.155155 0.987247
0.822257518768 -1.292401075363 -0.681946039200 0.101271 -0.352424 0.930345
0.684993863106 -1.285945057869 -0.662764191628 -0.664081 -0.556483 0.499322
0.711834371090 -1.380983591080 -0.704274952412 -0.743143 -0.267785 0.613212
0.767107903957 -1.363432884216 -0.700161516666 0.034204 -0.102613 0.994133
0.772561192513 -1.635766506195 -0.595879316330 -0.887531 0.282872 0.363693
0.754685521126 -1.653598189354 -0.578776597977 -0.241071 0.904380 0.352109
0.669885396957 -1.337581872940 -0.700028777122 0.101271 -0.352424 0.930345
0.623685359955 -1.184087634087 -0.449661135674 0.256087 -0.961293 -0.101663
0.665852427483 -1.290739774704 -0.237721741199 0.158766 -0.618430 -0.769635
0.854203224182 -1.545239567757 -0.265451937914 -0.160515 0.574553 -0.802574
0.887284815311 -1.557545781136 -0.282944381237 -0.205810 0.756699 -0.620524
0.884051263332 -1.621617197990 -0.385715872049 -0.239392 0.884709 -0.399978
0.844653129578 -1.635732531548 -0.404513567686 -0.257517 0.954013 -0.153443
0.908403038979 -1.623216032982 -0.479697704315 -0.256087 0.961293 0.101663
0.893280267715 -1.612411499023 -0.544432103634 -0.241071 0.904380 0.352109
0.817633390427 -1.633000969887 -0.543031752110 -0.241071 0.904380 0.352109
0.817596495152 -1.616973876953 -0.580471694469 -0.207441 0.788277 0.579299
0.783776581287 -1.594766259193 -0.622819542885 -0.207441 0.788277 0.579299
0.831280231476 -1.523106455803 -0.671314775944 -0.100818 0.401890 0.910121
0.759060561657 -1.503941059113 -0.687781870365 -0.100818 0.401890 0.910121
0.727799296379 -1.276517391205 -0.257384598255 0.158766 -0.618430 -0.769635
0.801557362080 -1.222148537636 -0.285677850246 0.158766 -0.618430 -0.769635
0.734045922756 -1.233626246452 -0.293288558722 0.207441 -0.788277 -0.579299
0.717912077904 -1.192852377892 -0.368660062551 0.241071 -0.904380 -0.352109
0.850623130798 -1.388688445091 -0.210235387087 -0.034204 0.102613 -0.994133
0.790480375290 -1.437419176102 -0.213128626347 -0.034204 0.102613 -0.994133
0.969855666161 -1.537525177002 -0.683359205723 0.965957 0.258631 -0.006015
0.929816603661 -1.393813252449 -0.731984138489 0.839272 0.300518 0.453113
0.895857512951 -1.290372610092 -0.706713616848 0.101271 -0.352424 0.930345
0.875226378441 -1.183826088905 -0.668323397636 0.965957 0.258631 -0.006015
0.854778468609 -1.113612890244 -0.461236417294 0.972500 -0.226305 -0.055047
0.817501008511 -1.152234554291 -0.359516322613 0.241071 -0.904380 -0.352109
0.856201291084 -1.106979489326 -0.456739008427 0.965957 0.258631 -0.006015
0.904107391834 -1.472266316414 -0.223092675209 0.965957 0.258631 -0.006015
0.984200477600 -1.610726356506 -0.381474494934 -0.239392 0.884709 -0.399978
0.898863971233 -1.408094525337 -0.719629764557 -0.035628 0.155155 0.987247
0.738058447838 -1.623196482658 -0.279413521290 -0.949983 0.126221 -0.285659
0.749773621559 -1.690382003784 -0.523860931396 -0.965483 0.196745 0.170686
0.947327136993 -1.606971621513 -0.418610095978 0.994540 -0.040841 0.096032
0.882735133171 -1.389212608337 -0.384529620409 0.301755 -0.807313 0.507138
0.893162548542 -1.369959115982 -0.387039422989 0.957305 0.252200 -0.141285
0.893155813217 -1.430150270462 -0.445048749447 -0.396570 0.859491 -0.322502
0.904603660107 -1.388225555420 -0.473018527031 0.897830 0.036235 -0.438849
0.902555704117 -1.404866099358 -0.447932392359 0.962306 -0.198780 0.185616
0.685766458511 -1.445095419884 -0.168465673923 -0.740763 -0.123709 -0.660278
0.714605033398 -1.620241641998 -0.185308903456 -0.965957 -0.258631 0.006015
0.769055366516 -1.698480725288 -0.236924573779 0.205810 -0.756699 0.620524
0.996642589569 -1.697145223618 -0.345005065203 0.239392 -0.884709 0.399978
0.780847609043 -1.743779540062 -0.318720996380 0.239392 -0.884709 0.399978
0.952936887741 -1.716221094131 -0.370663970709 0.257517 -0.954013 0.153443
0.918525516987 -1.730776786804 -0.403503537178 0.257517 -0.954013 0.153443
0.933180928230 -1.730324506760 -0.425140768290 0.257517 -0.954013 0.153443
0.809814751148 -1.759406805038 -0.399680465460 0.257517 -0.954013 0.153443
0.960985124111 -1.723943352699 -0.474842458963 0.256087 -0.961293 -0.101663
0.939863622189 -1.724247217178 -0.525417625904 0.256087 -0.961293 -0.101663
0.900428652763 -1.728707194328 -0.553437948227 0.241071 -0.904380 -0.352109
0.790668010712 -1.730009913445 -0.625120341778 0.241071 -0.904380 -0.352109
0.906665086746 -1.661987185478 -0.678521990776 0.207441 -0.788277 -0.579299
0.867034614086 -1.671213984489 -0.680122256279 0.207441 -0.788277 -0.579299
0.932482957840 -1.614513874054 -0.723000168800 0.158766 -0.618430 -0.769635
0.831878662109 -1.547056794167 -0.783642530441 0.100818 -0.401890 -0.910121
0.779878497124 -1.586035132408 -0.772203981876 0.100818 -0.401890 -0.910121
0.793008387089 -1.642186999321 -0.729741275311 0.158766 -0.618430 -0.769635
0.745248138905 -1.669947504997 -0.308079123497 -0.874639 0.406352 -0.264356
0.714304327965 -1.589858055115 -0.705787777901 -0.823067 0.222243 0.522655
0.632644593716 -1.297981381416 -0.717468202114 -0.607262 -0.576815 0.546367
0.591003358364 -1.160096883774 -0.537667572498 -0.537628 -0.836148 0.108685
0.582998096943 -1.135904192924 -0.441085964441 -0.965957 -0.258631 0.006015
0.717341780663 -1.609892487526 -0.163334444165 -0.599543 -0.579277 0.552255
0.843150496483 -1.628571867943 -0.184288769960 0.160515 -0.574553 0.802574
0.809154868126 -1.655090808868 -0.197498857975 0.205810 -0.756699 0.620524
1.022269368172 -1.672481298447 -0.341194450855 0.868498 -0.416818 0.268279
1.028697848320 -1.681675791740 -0.490795910358 0.965957 0.258631 -0.006015
1.001531720161 -1.627457261086 -0.678161084652 0.846453 -0.350740 -0.400623
0.964189708233 -1.448724031448 -0.778519988060 0.965957 0.258631 -0.006015
0.785094976425 -1.496886134148 -0.806699097157 0.035628 -0.155155 -0.987247
0.830721676350 -1.529948830605 -0.791321992874 0.100818 -0.401890 -0.910121
0.714122235775 -1.566345691681 -0.787675559521 -0.641331 -0.463834 -0.611190
0.735191047192 -1.708431243896 -0.598759353161 -0.965957 -0.258631 0.006015
0.590521395206 -1.168030381203 -0.588404417038 -0.965957 -0.258631 0.006015
0.699234604836 -1.516024231911 -0.804844796658 -0.686283 -0.297336 -0.663782
0.831481099129 -1.414263844490 -0.818129181862 0.035628 -0.155155 -0.987247
0.876186907291 -1.337054610252 -0.814169108868 -0.034204 0.102613 -0.994133
0.931284308434 -1.366442322731 -0.810458183289 0.687746 0.258898 -0.678216
0.917076885700 -1.305323839188 -0.751106321812 0.740763 0.123709 0.660278
0.940387964249 -1.395658254623 -0.754653513432 0.695711 0.297244 0.653936
0.968917071819 -1.471776843071 -0.743436932564 0.648873 0.461086 0.605280
0.975217998028 -1.521320343018 -0.710403680801 0.609322 0.605946 0.511425
1.022412538528 -1.660011172295 -0.556510865688 0.965957 0.258631 -0.006015
1.015064597130 -1.639151334763 -0.557211935520 0.549357 0.803145 0.230575
0.870106577873 -1.105524301529 -0.335817575455 0.874179 -0.421345 -0.241411
0.881079912186 -1.172733068466 -0.674642264843 0.853351 -0.317490 0.413511
0.906351327896 -1.261246323586 -0.735453426838 0.784924 -0.043843 0.618039
0.909235715866 -1.258420944214 -0.782132327557 0.640810 0.427762 -0.637481
0.816234946251 -1.264610290527 -0.791066706181 -0.101271 0.352424 -0.930345
0.731315135956 -1.379131436348 -0.813440024853 -0.034204 0.102613 -0.994133
0.775915205479 -1.252749323845 -0.782219111919 -0.101271 0.352424 -0.930345
0.705942571163 -1.233473300934 -0.760306894779 -0.160515 0.574553 -0.802574
0.703966796398 -1.247979164124 -0.770291924477 -0.160515 0.574553 -0.802574
0.879508674145 -1.129018068314 -0.648876965046 0.965957 0.258631 -0.006015
0.861999630928 -1.112810850143 -0.684018254280 0.565212 0.704443 -0.429296
0.741364836693 -1.152689814568 -0.702170312405 -0.205810 0.756699 -0.620524
0.812956333160 -1.135633111000 -0.705273807049 -0.205810 0.756699 -0.620524
0.698194265366 -1.233880639076 -0.759056627750 -0.160515 0.574553 -0.802574
0.790674805641 -1.101171612740 -0.655924975872 -0.205810 0.756699 -0.620524
0.826351583004 -1.057894706726 -0.588751316071 -0.239392 0.884709 -0.399978
0.660889565945 -1.115226030350 -0.616320729256 -0.239392 0.884709 -0.399978
0.610717058182 -1.137294530869 -0.635041654110 -0.239392 0.884709 -0.399978
0.834710359573 -1.038525700569 -0.532211899757 -0.257517 0.954013 -0.153443
0.674330532551 -1.074976325035 -0.490700334311 -0.257517 0.954013 -0.153443
0.682005405426 -1.070566534996 -0.452837496996 -0.256087 0.961293 0.101663
0.735041439533 -1.060822248459 -0.410952240229 -0.256087 0.961293 0.101663
0.643877744675 -1.331657290459 -0.128675743937 -0.777218 0.082498 0.623800
0.647918820381 -1.361290693283 -0.124248601496 -0.733212 -0.083088 0.674905
0.736508131027 -1.566016435623 -0.128161117435 0.101271 -0.352424 0.930345
0.815355181694 -1.577984571457 -0.142566248775 0.160515 -0.574553 0.802574
0.958553433418 -1.579118251801 -0.171869635582 0.160515 -0.574553 0.802574
0.962906360626 -1.426250338554 -0.133415743709 0.965957 0.258631 -0.006015
0.864335477352 -1.070458769798 -0.579169094563 0.965957 0.258631 -0.006015
0.860822021961 -1.084472537041 -0.637408852577 0.539637 0.794509 -0.278472
0.857547223568 -1.047509908676 -0.397361993790 0.527042 0.847483 0.063245
0.859947383404 -1.095899939537 -0.254060834646 0.563838 0.728222 0.389590
0.937564551830 -1.380895018578 -0.105372115970 0.733934 0.120586 0.668431
0.918360173702 -1.509962558746 -0.126724287868 0.101271 -0.352424 0.930345
0.707245588303 -1.508803963661 -0.104738332331 0.034204 -0.102613 0.994133
0.872097730637 -1.434888243675 -0.102906309068 0.034204 -0.102613 0.994133
0.667449891567 -1.357018828392 -0.106629155576 -0.035628 0.155155 0.987247
0.738419413567 -1.347904562950 -0.105587057769 -0.035628 0.155155 0.987247
0.844462394714 -1.301346182823 -0.109233655035 -0.035628 0.155155 0.987247
0.753593266010 -1.293319940567 -0.118895068765 -0.100818 0.401890 0.910121
0.699118912220 -1.315737843513 -0.115040488541 -0.100818 0.401890 0.910121
0.847604215145 -1.233360648155 -0.134935781360 -0.100818 0.401890 0.910121
0.657256126404 -1.222788929939 -0.170588716865 -0.158766 0.618430 0.769635
0.677474379539 -1.181986808777 -0.199109479785 -0.158766 0.618430 0.769635
0.810545027256 -1.132619738579 -0.212361454964 -0.207441 0.788277 0.579299
0.801199793816 -1.093886137009 -0.268472015858 -0.207441 0.788277 0.579299
0.744545936584 -1.117617964745 -0.256398081779 -0.207441 0.788277 0.579299
0.635507702827 -1.112031698227 -0.319559246302 -0.241071 0.904380 0.352109
0.802065968513 -1.055269122124 -0.352129340172 -0.241071 0.904380 0.352109
0.783355593681 1.481925487518 -0.604342043400 -0.999999 0.000978 0.000978
0.783355593681 1.481405615807 -0.579539835453 -0.999999 0.000978 0.000978
0.776891767979 1.429611206055 -0.543238162994 0.999999 0.000978 0.000978
0.783355593681 1.216356635094 -0.555577874184 -0.999999 0.000978 -0.000978
0.783355534077 1.181869983673 -0.512851476669 -0.999999 0.000978 0.000978
0.776891767979 1.275733828545 -0.539838612080 0.999999 0.000978 0.000978
0.776891767979 1.357560992241 -0.564761340618 0.999999 0.000978 0.000978
0.805206537247 1.382504701614 -0.413677483797 0.001300 0.427862 0.903843
0.793725192547 1.364038586617 -0.409862905741 0.001135 0.178186 0.983996
0.796574413776 1.337874174118 -0.413309663534 0.001248 -0.335625 0.941995
0.783355534077 1.488554477692 -0.420617282391 -0.999999 0.000978 0.000978
0.783355534077 1.460854649544 -0.354108273983 -0.999999 0.000978 0.000978
0.783355534077 1.226626157761 -0.507093369961 -0.999999 0.000978 0.000978
0.784068644047 1.406843900681 -0.358935773373 0.001300 0.427862 0.903843
0.783355534077 1.278511881828 -0.368325471878 -0.999999 0.000978 0.000978
0.783355534077 1.258200287819 -0.374414086342 -0.999999 0.000978 0.000978
0.787206292152 1.247836828232 -0.329923272133 0.001359 -0.569351 0.822094
0.793051302433 1.427917480469 -0.640149712563 0.999999 0.000978 0.000978
0.793051302433 1.436678171158 -0.586540043354 0.999999 0.000978 0.000978
0.793051302433 1.175213813782 -0.479253530502 0.999999 0.000978 0.000978
0.793051302433 1.463485360146 -0.379180848598 0.999999 0.000978 0.000978
0.793051302433 1.383726000786 -0.297156512737 0.999999 0.000978 0.000978
0.793051302433 1.278615713120 -0.367464423180 0.999999 0.000978 0.000978
0.793051302433 1.527886509895 -0.455002695322 0.999999 0.000978 0.000978
0.787101149559 1.463102102280 -0.517444968224 0.001300 0.903843 -0.427862
0.810895740986 1.410235762596 -0.418944209814 0.894263 0.290152 0.340742
0.793051302433 1.353527784348 -0.489419609308 0.999999 0.000978 0.000978
0.793051302433 1.396722912788 -0.523605108261 0.999999 0.000978 0.000978
0.817290663719 1.346144556999 -0.495124697685 0.999999 0.000978 0.000978
0.802310407162 1.384242892265 -0.386420398951 0.893924 0.081517 0.440744
0.793051302433 1.310901999474 -0.537234961987 0.999999 0.000978 0.000978
0.793051302433 1.327133417130 -0.395933240652 0.999999 0.000978 0.000978
0.767433464527 1.190407276154 -0.456959336996 0.001381 0.700167 -0.713977
0.793438434601 1.191479444504 -0.455904394388 0.001381 0.700167 -0.713977
0.816152811050 1.136646628380 -0.479267597198 0.001081 -0.993536 -0.113516
0.804075062275 1.140269875526 -0.489216804504 0.001270 0.372047 -0.928213
0.780259430408 1.149484276772 -0.485245287418 0.001310 0.446689 -0.894688
0.824134290218 1.278593659401 -0.359209716320 0.999999 0.000978 0.000978
0.795956373215 1.248589515686 -0.393093287945 0.001379 0.743362 -0.668888
0.750072538853 1.284721016884 -0.350012719631 -0.999999 0.000978 0.000978
0.824134290218 1.289680123329 -0.345943242311 0.999999 0.000978 0.000978
0.792448639870 1.299601554871 -0.335896015167 0.001373 0.781002 -0.624527
0.828130722046 1.193549156189 -0.434365570545 0.001374 0.633537 -0.773712
0.831187784672 1.229707956314 -0.379362970591 0.999999 0.000978 0.000978
0.772801160812 1.254919171333 -0.349535048008 0.001038 -0.065416 0.997858
0.754111588001 1.315657019615 -0.310251593590 0.001316 0.888291 -0.459279
0.750814437866 1.287103533745 -0.287560135126 0.001248 -0.335625 -0.941995
0.822764933109 1.269787430763 -0.287716865540 0.001211 -0.279674 0.960094
0.811060369015 1.258887052536 -0.291492909193 0.001270 -0.372047 0.928213
0.742137372494 1.257184982300 -0.338227391243 -0.999999 0.000978 0.000978
0.796940147877 1.244460463524 -0.310616463423 0.001379 0.668888 0.743362
0.795902967453 1.157651543617 -0.392602533102 0.001379 0.743362 -0.668888
0.811811983585 1.183898091316 -0.363524347544 -0.001379 0.743362 -0.668888
0.780177831650 1.208184242249 -0.360237121582 0.001287 0.915238 -0.402911
0.862135052681 1.407849550247 -0.375401079655 0.001272 0.926978 0.375114
0.874252021313 1.241511225700 -0.393487155437 0.001307 0.440405 0.897798
0.873105645180 1.322702050209 -0.353817641735 0.001300 -0.903843 0.427862
0.877075314522 1.241566419601 -0.567380845547 0.001380 -0.730182 0.683251
0.867788612843 1.301686406136 -0.673410832882 -0.001319 0.885003 0.465583
0.857107460499 1.326473116875 -0.592336595058 0.001326 0.481358 -0.876523
0.868872463703 1.324850082397 -0.412611216307 0.983989 0.050673 -0.170872
0.870152413845 1.153604388237 -0.393700838089 0.842860 -0.428441 0.325615
0.871262967587 1.297036290169 -0.536170601845 0.983550 0.150482 0.099920
0.862509250641 1.442088723183 -0.694651067257 0.999999 -0.000978 -0.000978
0.862509250641 1.391648054123 -0.699406683445 0.999999 0.000978 -0.000978
0.869731187820 1.428029775620 -0.677455961704 0.751961 0.095278 -0.652286
0.882304966450 1.429321765900 -0.661181151867 0.845443 0.151973 -0.511987
0.868917226791 1.418206453323 -0.514872908592 0.983781 -0.143644 0.107431
0.882108807564 1.502961277962 -0.608165979385 0.842582 0.431414 -0.322393
0.871488094330 1.442648887634 -0.461879253387 0.983357 -0.181595 0.005711
0.885063171387 1.171166300774 -0.462369948626 0.963794 -0.266581 0.006031
0.876324772835 1.158771634102 -0.464982569218 0.745764 -0.661775 -0.076749
0.744550347328 1.366711378098 -0.242894724011 0.001120 -0.160219 -0.987081
0.712354302406 1.513833165169 -0.649325728416 0.001366 -0.594083 0.804402
0.733608901501 1.516009688377 -0.647686302662 0.001372 -0.783405 0.621510
0.841618657112 1.573217153549 -0.555708646774 0.001286 -0.916599 0.399807
0.763985395432 1.551019430161 -0.603612542152 0.001372 -0.783405 0.621510
0.686837494373 1.579211831093 -0.548714935780 -0.733836 -0.622407 0.272204
0.857441723347 1.587439417839 -0.480350494385 0.001069 -0.995047 -0.099398
0.793444871902 1.458927631378 -0.268206268549 0.001294 -0.415362 -0.909655
0.762075424194 1.284909009933 -0.256748110056 0.001266 0.365926 -0.930643
0.696985125542 1.294262528419 -0.702719330788 -0.001120 0.160219 0.987081
0.829845726490 1.399807810783 -0.706920742989 -0.001075 -0.106419 0.994321
0.675288975239 1.521802783012 -0.662481665611 -0.736970 -0.402133 0.543290
0.681586563587 1.247699499130 -0.691330850124 -0.738352 0.279075 0.613965
0.689303994179 1.479854226112 -0.278213858604 -0.737705 -0.430741 -0.519859
0.675066053867 1.444188237190 -0.244510978460 0.001294 -0.415362 -0.909655
0.858679234982 1.229483723640 -0.285230666399 0.001366 0.594083 -0.804402
0.771736025810 1.167783856392 -0.347796589136 0.001372 0.783405 -0.621510
0.758252441883 1.145536184311 -0.393207371235 -0.001286 0.916599 -0.399807
0.721269369125 1.136796355247 -0.418063759804 -0.001116 0.987889 -0.155160
0.731777787209 1.134427428246 -0.433177530766 0.001116 0.987889 -0.155160
0.825588345528 1.129801273346 -0.483911424875 -0.001069 0.995047 0.099398
0.732952535152 1.153074860573 -0.581277251244 -0.001257 0.936483 0.350710
0.840578675270 1.187639474869 -0.633815228939 0.001362 0.815569 0.578659
0.856001555920 1.197398543358 -0.643986463547 0.001375 0.639507 0.768784
0.825604557991 1.238128900528 -0.677635788918 -0.001294 0.415362 0.909655
0.717104315758 1.267031073570 -0.690819799900 -0.001294 0.415362 0.909655
0.717140376568 1.504689455032 -0.298855036497 0.001375 -0.639507 -0.768784
0.825276672840 1.518707275391 -0.310485422611 0.001375 -0.639507 -0.768784
0.691185832024 1.544557690620 -0.343272805214 0.001362 -0.815569 -0.578659
0.789618909359 1.540241956711 -0.337182223797 0.001362 -0.815569 -0.578659
0.818132877350 1.364558458328 -0.242547094822 0.001075 0.106419 -0.994321
0.707817077637 1.306055903435 -0.248794212937 0.001075 0.106419 -0.994321
0.916498839855 1.108700752258 -0.524014234543 0.844930 0.532096 0.054467
0.881741344929 1.129432082176 -0.561433017254 0.001257 0.936483 0.350710
0.914571464062 1.354638576508 -0.734313488007 0.850251 -0.054450 0.523554
0.871285319328 1.518937587738 -0.664666533470 0.001366 -0.594083 0.804402
0.913752079010 1.604238986969 -0.511989355087 0.845571 -0.527238 0.083847
0.886462330818 1.423651576042 -0.236463576555 0.001120 -0.160219 -0.987081
0.917997181416 1.319002389908 -0.214129805565 0.999999 0.000978 0.000978
0.911008596420 1.593893885612 -0.408743113279 0.846268 -0.498774 -0.187228
0.913124740124 1.159049034119 -0.326915740967 0.847350 0.415124 -0.331166
0.635871887207 1.164851427078 -0.297193795443 -0.999999 0.000978 0.000978
0.636160552502 1.160708069801 -0.642750144005 -0.848231 0.432644 0.305487
0.862439036369 1.160721063614 -0.350694894791 0.999999 -0.000978 0.000978
0.864697754383 1.267675042152 -0.246912792325 0.001266 0.365926 -0.930643
0.865840852261 1.429476618767 -0.265286862850 -0.011386 -0.937459 0.347910
0.872617244720 1.453275084496 -0.681765198708 0.933823 0.205805 -0.292607
0.853537619114 1.410270571709 -0.687899172306 0.186732 -0.260334 0.947289
0.866392195225 1.422289252281 -0.691844463348 -0.010858 0.966358 0.256972
0.856774568558 1.293704986572 -0.698283910751 0.011186 0.950837 -0.309488
0.852949023247 1.133291244507 -0.442959517241 -0.302290 -0.942116 0.145045
0.881199777126 1.351745367050 -0.410935908556 0.987372 -0.003370 -0.158384
0.877232670784 1.343151807785 -0.505055367947 0.155732 -0.410046 -0.898671
0.620581507683 1.439098954201 -0.201251223683 -0.685381 -0.301568 -0.662804
0.616996407509 1.365635991096 -0.185909137130 -0.685911 0.076857 -0.723615
0.640435099602 1.077870607376 -0.292889624834 -0.001372 -0.783405 0.621510
0.888068556786 1.045555472374 -0.362132519484 -0.001286 -0.916599 0.399807
0.667478561401 1.047819375992 -0.356957226992 -0.001286 -0.916599 0.399807
0.884518325329 1.037077903748 -0.384106993675 -0.001116 -0.987889 0.155160
0.890126645565 1.035787820816 -0.392337083817 -0.001116 -0.987889 0.155160
0.741291403770 1.027135848999 -0.447535336018 0.001116 -0.987889 0.155160
0.845365583897 1.027983546257 -0.508640885353 0.001069 -0.995047 -0.099398
0.886697530746 1.024703860283 -0.476173639297 0.001069 -0.995047 -0.099398
0.774604976177 1.031808495522 -0.546506941319 0.001069 -0.995047 -0.099398
0.681697249413 1.027313232422 -0.502005398273 0.001069 -0.995047 -0.099398
0.882041692734 1.054036021233 -0.613617837429 0.001257 -0.936483 -0.350710
0.660642504692 1.055351614952 -0.617139279842 0.001257 -0.936483 -0.350710
0.777182996273 1.071490764618 -0.650853931904 0.001362 -0.815569 -0.578659
0.906231164932 1.099504709244 -0.690388381481 0.001362 -0.815569 -0.578659
0.729038596153 1.098334193230 -0.688736438751 0.001362 -0.815569 -0.578659
0.761624872684 1.116922140121 -0.713953495026 0.001375 -0.639507 -0.768784
0.931994378567 1.263968229294 -0.791558802128 0.676593 -0.305193 -0.670134
0.759703993797 1.191823244095 -0.772770762444 0.001294 -0.415362 -0.909655
0.853540778160 1.182046055794 -0.767985939980 0.001375 -0.639507 -0.768784
0.632588744164 1.113336682320 -0.704714238644 -0.671455 -0.604809 -0.428198
0.615923464298 1.056810379028 -0.569483220577 -0.671795 -0.694030 -0.258871
0.622901320457 1.046237945557 -0.401274532080 -0.669081 -0.734358 0.114233
0.626288294792 1.089728593826 -0.291986733675 -0.671291 -0.580892 0.460361
0.615651071072 1.076388359070 -0.412436246872 -0.999999 0.000978 0.000978
0.634771585464 1.485718369484 -0.718913495541 -0.684922 -0.265387 0.678566
0.632484257221 1.514848113060 -0.700075626373 -0.683435 -0.434006 0.586989
0.634129583836 1.558213710785 -0.658250987530 -0.680390 -0.573400 0.456379
0.623402774334 1.627940416336 -0.544977009296 -0.678323 -0.725821 0.114291
0.627984642982 1.627132177353 -0.522827684879 -0.678323 -0.725821 0.114291
0.615651011467 1.638233661652 -0.341380268335 -0.999999 0.000978 -0.000978
0.615651011467 1.632614612579 -0.334678828716 -0.999999 0.000978 -0.000978
0.615651011467 1.601868629456 -0.301618158817 -0.999999 0.000978 0.000978
0.615651011467 1.416216015816 -0.179639175534 -0.999999 0.000978 0.000978
0.615651011467 1.258434653282 -0.186503514647 -0.999999 0.000978 0.000978
0.789786756039 1.134499430656 -0.224745646119 -0.001366 -0.594083 0.804402
0.830298185349 1.095593690872 -0.270577818155 -0.001372 -0.783405 0.621510
0.919270455837 1.095493316650 -0.272567719221 0.671291 -0.580892 0.460361
0.933266103268 1.076563239098 -0.325677067041 0.670280 -0.679925 0.297367
0.936770379543 1.053335905075 -0.389626532793 0.669081 -0.734358 0.114233
0.728037655354 1.279883861542 -0.807865619659 0.001120 -0.160219 -0.987081
0.663644552231 1.249390125275 -0.799030482769 0.001294 -0.415362 -0.909655
0.615651071072 1.096401572227 -0.598522424698 -0.999999 0.000978 0.000978
0.615651071072 1.342080354691 -0.771473109722 -0.999999 0.000978 0.000978
0.785908281803 1.319869041443 -0.814367055893 0.001120 -0.160219 -0.987081
0.853113949299 1.367640495300 -0.817056715488 0.001075 0.106419 -0.994321
0.771232903004 1.376304984093 -0.816131591797 0.001075 0.106419 -0.994321
0.938239574432 1.373630642891 -0.794539630413 0.999999 0.000978 0.000978
0.938239574432 1.407513141632 -0.767963051796 0.999999 0.000978 0.000978
0.922252357006 1.320497035980 -0.750060021877 0.685658 0.117499 0.718379
0.925683498383 1.263825178146 -0.739490985870 0.685381 0.301568 0.662804
0.938239574432 1.120593309402 -0.663995265961 0.999999 0.000978 0.000978
0.938239574432 1.099330425262 -0.636814355850 0.999999 0.000978 0.000978
0.918433308601 1.120017051697 -0.356477975845 0.679104 0.672682 -0.293797
0.932575464249 1.161752581596 -0.272664487362 0.680390 0.573400 -0.456379
0.933658778667 1.512132883072 -0.236469507217 0.682909 -0.465848 -0.562691
0.931966781616 1.577525138855 -0.652188897133 0.680390 -0.573400 0.456379
0.911576151848 1.458853006363 -0.800702512264 0.001266 0.365926 -0.930643
0.648611903191 1.413066387177 -0.812205970287 0.001075 0.106419 -0.994321
0.727894008160 1.510484933853 -0.780488967896 0.001266 0.365926 -0.930643
0.825571358204 1.561512231827 -0.745011448860 0.001366 0.594083 -0.804402
0.918974280357 1.581119418144 -0.729366421700 0.675733 0.438810 -0.592309
0.923697650433 1.612049818039 -0.686722695827 0.671291 0.580892 -0.460361
0.886676907539 1.622424840927 -0.681987166405 0.001372 0.783405 -0.621510
0.657028257847 1.532498478889 -0.766513526440 0.001366 0.594083 -0.804402
0.717534244061 1.627595067024 -0.675478279591 0.001372 0.783405 -0.621510
0.760344326496 1.658464074135 -0.620682775974 0.001286 0.916599 -0.399807
0.854209423065 1.654646515846 -0.629410028458 0.001286 0.916599 -0.399807
0.698498904705 1.677963495255 -0.576106905937 0.001286 0.916599 -0.399807
0.688742280006 1.680121302605 -0.564953088760 0.001116 0.987889 -0.155160
0.790877699852 1.686327219009 -0.525361359119 0.001116 0.987889 -0.155160
0.860627293587 1.685664892197 -0.419689208269 0.001069 0.995047 0.099398
0.720288753510 1.687260866165 -0.435488343239 -0.001069 0.995047 0.099398
0.616600930691 1.671348333359 -0.450936853886 -0.669616 0.739036 0.073759
0.630848586559 1.678016781807 -0.396252125502 -0.671795 0.694030 0.258871
0.746890127659 1.240126729012 -0.160795107484 -0.001266 -0.365926 0.930643
0.686311662197 1.196638584137 -0.178694859147 -0.001366 -0.594083 0.804402
0.924347281456 1.130353808403 -0.236092090607 0.671291 -0.580892 0.460361
0.938239574432 1.228725433350 -0.205135703087 0.999999 0.000978 0.000978
0.938239574432 1.366657614708 -0.179021164775 0.999999 0.000978 0.000978
0.938239574432 1.606812834740 -0.624051988125 0.999999 0.000978 0.000978
0.925444841385 1.602316856384 -0.255572080612 0.671455 0.604809 0.428198
0.919640302658 1.474817633629 -0.160942718387 0.676593 0.305193 0.670134
0.937173962593 1.267156481743 -0.169115185738 0.676269 -0.268916 0.685816
0.937322080135 1.183879017830 -0.210117906332 0.675733 -0.438810 0.592309
0.758296966553 1.246905088425 -0.158141374588 -0.001266 -0.365926 0.930643
0.663444936275 1.319980859756 -0.140718653798 -0.001075 -0.106419 0.994321
0.909839749336 1.337988734245 -0.138795688748 -0.001075 -0.106419 0.994321
0.799606323242 1.399439334869 -0.140831351280 -0.001120 0.160219 0.987081
0.811455488205 1.402834296227 -0.141383379698 -0.001120 0.160219 0.987081
0.711249828339 1.493393421173 -0.167755484581 -0.001294 0.415362 0.909655
0.869059145451 1.521482348442 -0.180568337440 -0.001294 0.415362 0.909655
0.684056520462 1.573476195335 -0.219256311655 -0.001375 0.639507 0.768784
0.729763865471 1.536714434624 -0.188755229115 -0.001375 0.639507 0.768784
0.857442736626 1.587994813919 -0.231302350760 -0.001375 0.639507 0.768784
0.899062037468 1.603699684143 -0.245823040605 -0.001362 0.815569 0.578659
0.751413702965 1.651288270950 -0.312981665134 0.001362 0.815569 0.578659
0.868628561497 1.643199086189 -0.301565945148 0.001362 0.815569 0.578659
0.880927503109 1.652672529221 -0.315385013819 0.001257 0.936483 0.350710
0.917353689671 1.675764799118 -0.377193629742 -0.001257 0.936483 0.350710
-0.785978853703 1.390986204147 -0.660355687141 0.001091 0.125512 -0.992091
-0.781555771828 1.238153457642 -0.522909104824 0.001333 -0.497143 -0.867668
-0.770742714405 1.283376216888 -0.388835191727 -0.999999 0.000978 0.000978
-0.770742714405 1.306840062141 -0.522925615311 -0.999999 0.000978 0.000978
-0.774093806744 1.304543733597 -0.367440521717 0.001368 0.603278 -0.797530
-0.786914110184 1.248196005821 -0.480527013540 0.001193 -0.967197 0.254023
-0.778224647045 1.467996716499 -0.549849629402 0.001370 -0.790530 0.612421
-0.776978969574 1.389878511429 -0.601285099983 0.999999 0.000978 0.000978
-0.783501207829 1.517283797264 -0.565177798271 0.001335 0.864020 0.503455
-0.776978969574 1.529070138931 -0.543751358986 0.999999 0.000978 0.000978
-0.776978969574 1.545501589775 -0.507005333900 0.999999 0.000978 0.000978
-0.770742714405 1.331080436707 -0.554765701294 -0.999999 0.000978 0.000978
-0.776978969574 1.256761550903 -0.301073133945 0.999999 0.000978 0.000978
-0.784673810005 1.500625252724 -0.424185514450 0.001273 -0.925729 -0.378186
-0.780654966831 1.555746555328 -0.427500545979 0.001381 -0.711237 0.702951
-0.776978969574 1.488762140274 -0.379297971725 0.999999 0.000978 0.000978
-0.776978969574 1.524782419205 -0.355327636003 0.999999 0.000978 0.000978
-0.776978969574 1.323869943619 -0.296339988708 0.999999 0.000978 0.000978
-0.781298339367 1.493820786476 -0.504337847233 0.001279 -0.921899 0.387428
-0.776978909969 1.332718014717 -0.636463522911 0.999999 0.000978 0.000978
-0.786333203316 1.403640270233 -0.646825313568 -0.999999 0.000978 0.000978
-0.786333203316 1.406527280807 -0.657873392105 -0.999999 0.000978 0.000978
-0.786333203316 1.509705305099 -0.547566831112 -0.999999 0.000978 0.000978
-0.786333203316 1.500711321831 -0.515321135521 -0.999999 0.000978 0.000978
-0.786333203316 1.504575967789 -0.509187340736 -0.999999 0.000978 0.000978
-0.786333203316 1.510103821754 -0.462139338255 -0.999999 0.000978 0.000978
-0.786333203316 1.266574501991 -0.309256851673 -0.999999 0.000978 0.000978
-0.786333203316 1.532748460770 -0.447844713926 -0.999999 0.000978 0.000978
-0.786333203316 1.242971658707 -0.382342278957 -0.999999 0.000978 0.000978
-0.796590805054 1.268217325211 -0.470231562853 -0.908474 -0.414651 -0.052335
-0.796158432961 1.292911410332 -0.396581351757 -0.909340 -0.328413 0.255433
-0.800614714622 1.318674802780 -0.541085481644 -0.909340 -0.255433 -0.328413
-0.789520502090 1.322954058647 -0.570219755173 -0.908666 -0.160687 -0.385365
-0.808159768581 1.314082503319 -0.442248404026 -0.999999 0.000978 0.000978
-0.808159768581 1.400809168816 -0.512310922146 -0.999999 0.000978 0.000978
-0.809718847275 1.357621550560 -0.480769068003 -0.999999 0.000978 0.000978
-0.808159768581 1.414547443390 -0.445013403893 -0.999999 0.000978 0.000978
-0.786333203316 1.290645241737 -0.460537940264 -0.999999 0.000978 0.000978
-0.786333203316 1.385554552078 -0.353616923094 -0.999999 0.000978 0.000978
-0.786333203316 1.440129041672 -0.391248941422 -0.999999 0.000978 0.000978
-0.744868099689 1.576578378677 -0.452966660261 0.999999 0.000978 0.000978
-0.786274075508 1.494091272354 -0.383823931217 0.001373 -0.778585 -0.627537
-0.776179194450 1.601607203484 -0.478055715561 0.001127 0.985809 -0.167869
-0.751888453960 1.444228291512 -0.321979343891 0.001370 -0.790530 -0.612421
-0.816321492195 1.509439229965 -0.381014615297 -0.999999 0.000978 0.000978
-0.818271934986 1.489863157272 -0.357659280300 0.001374 -0.633537 -0.773712
-0.744868099689 1.546644806862 -0.353064566851 0.999999 0.000978 0.000978
-0.744868099689 1.493299841881 -0.351067483425 0.999999 0.000978 0.000978
-0.821476042271 1.472054719925 -0.277688235044 0.001361 0.575560 0.817758
-0.823126554489 1.465007543564 -0.276617646217 -0.999999 0.000978 0.000978
-0.823126554489 1.572330594063 -0.413985639811 -0.999999 0.000978 0.000978
-0.744868159294 1.472103476524 -0.280444771051 0.999999 -0.000978 -0.000978
-0.795867860317 1.558681488037 -0.366318404675 0.001373 -0.778585 -0.627537
-0.773162841797 1.543739557266 -0.347820341587 0.001373 -0.778585 -0.627537
-0.750777721405 1.603996038437 -0.458768904209 0.001042 0.997558 -0.069839
-0.744868099689 1.462287783623 -0.311398923397 0.999999 0.000978 0.000978
-0.760709524155 1.484660863876 -0.331775099039 -0.001087 0.120688 0.992690
-0.748854815960 1.488948464394 -0.301392436028 0.001087 -0.120688 -0.992690
-0.813882887363 1.424600839615 -0.289141327143 0.001291 -0.912475 -0.409130
-0.746498346329 1.460122585297 -0.275297194719 0.001381 -0.724826 0.688930
-0.803065598011 1.414061427116 -0.256948560476 0.001170 -0.974705 -0.223492
-0.754479229450 1.414514899254 -0.258925110102 0.001170 -0.974705 -0.223492
-0.775814950466 1.525519490242 -0.309019505978 0.001373 -0.778585 -0.627537
-0.775094389915 1.507003664970 -0.302341818810 0.001373 -0.778585 -0.627537
-0.854134917259 1.415937066078 -0.298214703798 0.001098 0.991141 -0.132811
-0.869761705399 1.522703886032 -0.583092451096 -0.001251 0.341642 0.939829
-0.850451052189 1.325029134750 -0.587380230427 0.001326 0.481358 -0.876523
-0.868058383465 1.221924901009 -0.570443868637 -0.001217 -0.288352 0.957524
-0.878770112991 1.202615261078 -0.376747161150 -0.978968 -0.178106 0.099494
-0.881527602673 1.360478878021 -0.283453345299 -0.979515 -0.029468 0.199203
-0.863261818886 1.433781862259 -0.386961042881 -0.959126 -0.231513 -0.162721
-0.881261169910 1.523207902908 -0.377522885799 -0.978774 0.184513 0.089202
-0.853344798088 1.434658050537 -0.232292413712 -0.999999 0.000978 0.000978
-0.876654982567 1.514290690422 -0.587920844555 -0.970006 0.195535 -0.144415
-0.871806621552 1.394533038139 -0.578760087490 -0.948841 -0.166013 0.268591
-0.879764854908 1.312577962875 -0.598028898239 -0.993796 0.064007 0.090958
-0.861441612244 1.290746331215 -0.497063189745 -0.986414 0.136507 0.091401
-0.864341974258 1.283962845802 -0.504444241524 -0.893379 0.387082 0.228128
-0.880191504955 1.257231116295 -0.559716582298 -0.993743 0.073152 0.084406
-0.880776762962 1.544593572617 -0.448033392429 -0.969616 0.244491 -0.008348
-0.719378888607 1.331886291504 -0.217716649175 0.001075 0.106419 -0.994321
-0.779833912849 1.342346191406 -0.216599732637 0.001075 0.106419 -0.994321
-0.844714224339 1.209023952484 -0.643315494061 0.001375 0.639507 0.768784
-0.815114796162 1.178021192551 -0.608588814735 0.001362 0.815569 0.578659
-0.764092803001 1.151881337166 -0.565895915031 -0.001257 0.936483 0.350710
-0.835977852345 1.129159450531 -0.470563828945 0.001069 0.995047 0.099398
-0.807508051395 1.130908727646 -0.431578785181 -0.001116 0.987889 -0.155160
-0.828955948353 1.306384086609 -0.222402691841 0.001266 0.365926 -0.930643
-0.677270948887 1.392832636833 -0.204775571823 0.767748 -0.101290 -0.632695
-0.669465482235 1.488788127899 -0.228203654289 0.001294 -0.415362 -0.909655
-0.697605431080 1.472258806229 -0.238540977240 0.001294 -0.415362 -0.909655
-0.827721595764 1.443321228027 -0.225340887904 0.001294 -0.415362 -0.909655
-0.758625566959 1.424364686012 -0.700953543186 0.001075 -0.106419 0.994321
-0.695891082287 1.376726031303 -0.706040620804 0.001075 -0.106419 0.994321
-0.771837115288 1.356778383255 -0.706613898277 0.001120 0.160219 0.987081
-0.836051762104 1.297150015831 -0.696027755737 0.001294 0.415362 0.909655
-0.756802558899 1.252158522606 -0.675504565239 0.001294 0.415362 0.909655
-0.684388458729 1.350164890289 -0.707819461823 0.767748 0.101290 0.632695
-0.644858419895 1.574208617210 -0.617058634758 -0.001372 -0.783405 0.621510
-0.654790222645 1.403927683830 -0.719541013241 0.001075 -0.106419 0.994321
-0.648510515690 1.567571282387 -0.293893784285 0.001362 -0.815569 -0.578659
-0.668677687645 1.625929355621 -0.453627288342 0.001069 -0.995047 -0.099398
-0.645288705826 1.165888309479 -0.301693558693 0.001372 0.783405 -0.621510
-0.844168245792 1.533216595650 -0.280193597078 0.001375 -0.639507 -0.768784
-0.823840200901 1.562910079956 -0.315148323774 0.001362 -0.815569 -0.578659
-0.834914743900 1.588184952736 -0.358385831118 0.001257 -0.936483 -0.350710
-0.702028572559 1.600053906441 -0.390153050423 0.001257 -0.936483 -0.350710
-0.832337498665 1.605277538300 -0.408065646887 0.001069 -0.995047 -0.099398
-0.789639413357 1.610835909843 -0.469358623028 0.001116 -0.987889 0.155160
-0.749775350094 1.577128648758 -0.585761666298 0.001286 -0.916599 0.399807
-0.698080062866 1.542825698853 -0.630695164204 0.001372 -0.783405 0.621510
-0.794366955757 1.466061353683 -0.684922158718 0.001266 -0.365926 0.930643
-0.759072005749 1.245595574379 -0.249231249094 0.001366 0.594083 -0.804402
-0.819155991077 1.203637719154 -0.280325859785 -0.001366 0.594083 -0.804402
-0.743881523609 1.191383123398 -0.295469462872 -0.001372 0.783405 -0.621510
-0.796211540699 1.185588359833 -0.302764505148 0.001372 0.783405 -0.621510
-0.759189665318 1.380983948708 -0.213785827160 0.001120 -0.160219 -0.987081
-0.737163603306 1.405415058136 -0.217758283019 0.001120 -0.160219 -0.987081
-0.886256396770 1.434778332710 -0.206006199121 0.001120 -0.160219 -0.987081
-0.906876564026 1.647412300110 -0.450315505266 -0.999999 0.000978 0.000978
-0.901632547379 1.474010467529 -0.703447699547 -0.870313 -0.181131 0.457982
-0.862671554089 1.623135447502 -0.494009703398 -0.001116 -0.987889 0.155160
-0.904700994492 1.195739507675 -0.665337562561 -0.869122 0.316183 0.380336
-0.898117542267 1.137805819511 -0.573976516724 0.001257 0.936483 0.350710
-0.901161491871 1.117703676224 -0.393348097801 -0.865397 0.495114 -0.077142
-0.879660665989 1.112943649292 -0.443074494600 -0.001116 0.987889 -0.155160
-0.853276848793 1.145481586456 -0.359143137932 -0.999999 -0.000978 0.000978
-0.853276431561 1.216699361801 -0.262989372015 -0.999999 -0.000978 0.000978
-0.853276371956 1.220582008362 -0.259862959385 -0.999999 -0.000978 0.000978
-0.889875352383 1.150149703026 -0.321507096291 -0.001372 0.783405 -0.621510
-0.873658001423 1.119886159897 -0.398781836033 0.001116 0.987889 -0.155160
-0.881404936314 1.176441669464 -0.288408041000 -0.001372 0.783405 -0.621510
-0.890185832977 1.612444519997 -0.377563625574 -0.001257 -0.936483 -0.350710
-0.853276610374 1.608730316162 -0.397967278957 -0.999999 0.000978 0.000978
-0.853274881840 1.613711357117 -0.513648390770 -0.999999 0.000978 -0.000978
-0.853272616863 1.558580636978 -0.635773658752 -0.999999 0.000978 -0.000978
-0.641603946686 1.133359670639 -0.564696073532 0.866954 0.466595 0.175157
-0.638379871845 1.522609829903 -0.241811245680 0.869122 -0.316183 -0.380336
-0.634707748890 1.371319413185 -0.174643114209 0.999999 0.000978 0.000978
-0.863145291805 1.163069128990 -0.351055651903 -0.942026 -0.316681 0.110905
-0.857384562492 1.439773797989 -0.431699454784 -0.146103 0.950342 0.274781
-0.870348095894 1.432026863098 -0.455243259668 -0.988876 -0.143232 -0.040105
-0.866698384285 1.434519052505 -0.454379588366 -0.073964 0.726588 -0.683080
-0.869895815849 1.358404517174 -0.429759800434 -0.168226 -0.360485 0.917470
-0.619054079056 1.094469904900 -0.349442154169 0.710965 0.643863 -0.282788
-0.625589847565 1.247598171234 -0.192046940327 0.716210 0.254547 -0.649807
-0.630321621895 1.261677265167 -0.191749930382 0.716210 0.254547 -0.649807
-0.673737168312 1.678900957108 -0.288349241018 0.001362 0.815569 0.578659
-0.780413866043 1.681187629700 -0.294142037630 0.001257 0.936483 0.350710
-0.811543583870 1.701165795326 -0.347614437342 -0.001257 0.936483 0.350710
-0.880992650986 1.718312859535 -0.439436823130 -0.001069 0.995047 0.099398
-0.698576986790 1.714799642563 -0.404657244682 -0.001069 0.995047 0.099398
-0.744564592838 1.721289277077 -0.468901902437 -0.001069 0.995047 0.099398
-0.850991964340 1.714647293091 -0.513048708439 0.001116 0.987889 -0.155160
-0.688184440136 1.719379425049 -0.482858777046 0.001116 0.987889 -0.155160
-0.713249564171 1.711231231689 -0.534842312336 0.001116 0.987889 -0.155160
-0.899595797062 1.679243683815 -0.625913143158 0.001286 0.916599 -0.399807
-0.723842799664 1.690683841705 -0.599760890007 0.001286 0.916599 -0.399807
-0.849326193333 1.631681323051 -0.696009218693 0.001372 0.783405 -0.621510
-0.647487342358 1.650220394135 -0.672670245171 0.001372 0.783405 -0.621510
-0.803869366646 1.608451247215 -0.723780333996 0.001366 0.594083 -0.804402
-0.916575312614 1.495826005936 -0.782482147217 -0.708007 0.258177 -0.657321
-0.794434010983 1.513446927071 -0.786020398140 0.001266 0.365926 -0.930643
-0.827625334263 1.541899561882 -0.773101270199 0.001366 0.594083 -0.804402
-0.616780877113 1.664409279823 -0.299775481224 0.703682 0.665730 0.248265
-0.622482895851 1.650267124176 -0.268909066916 0.702669 0.580322 0.411682
-0.625565052032 1.517348647118 -0.204480558634 0.715609 -0.289765 -0.635563
-0.615180730820 1.610665559769 -0.277338981628 0.999999 0.000978 0.000978
-0.618100166321 1.627933025360 -0.308741569519 0.712231 -0.573421 -0.404865
-0.632358431816 1.646627306938 -0.512189984322 0.708863 -0.697024 0.108031
-0.628700315952 1.470563411713 -0.733189284801 0.716210 -0.254547 0.649807
-0.618387699127 1.388234019279 -0.762485206127 0.716664 -0.073838 0.693499
-0.623722493649 1.108780145645 -0.595962226391 0.711372 0.657743 0.247639
-0.615180730820 1.062244772911 -0.336318850517 0.999999 0.000978 0.000978
-0.615180730820 1.095803260803 -0.301261365414 0.999999 0.000978 0.000978
-0.695183217525 1.581887364388 -0.176657140255 -0.001375 0.639507 0.768784
-0.782951891422 1.635167360306 -0.226630523801 -0.001362 0.815569 0.578659
-0.911372959614 1.662347316742 -0.650236070156 -0.703654 0.557267 -0.440823
-0.832937180996 1.401757717133 -0.815753638744 0.001075 0.106419 -0.994321
-0.753190696239 1.458511590958 -0.807527542114 0.001266 0.365926 -0.930643
-0.629165768623 1.537341475487 -0.769595682621 0.706773 0.422077 -0.567735
-0.630379438400 1.107597827911 -0.692454814911 0.702669 -0.580322 -0.411682
-0.632284283638 1.354533791542 -0.817001938820 0.709859 -0.114111 -0.695039
-0.639338076115 1.378015398979 -0.818289041519 0.001075 0.106419 -0.994321
-0.647578895092 1.368045806885 -0.819353640079 0.001075 0.106419 -0.994321
-0.891296744347 1.284152984619 -0.808030724525 0.001120 -0.160219 -0.987081
-0.909819722176 1.339239716530 -0.813990414143 -0.709859 -0.114111 -0.695039
-0.926408052444 1.318364858627 -0.773399233818 -0.999999 0.000978 0.000978
-0.926408052444 1.666298389435 -0.582147955894 -0.999999 0.000978 0.000978
-0.917731523514 1.660848855972 -0.476772695780 -0.708863 -0.697024 0.108031
-0.926408052444 1.651960253716 -0.355034142733 -0.999999 0.000978 0.000978
-0.915096342564 1.638252258301 -0.355214506388 -0.711372 -0.657743 -0.247639
-0.922369599342 1.473719716072 -0.177420765162 -0.715609 -0.289765 -0.635563
-0.914883792400 1.281709909439 -0.179921224713 -0.716210 0.254547 -0.649807
-0.926408052444 1.273747324944 -0.773237228394 -0.999999 0.000978 0.000978
-0.915396451950 1.246721029282 -0.786123394966 -0.707280 -0.293497 -0.643128
-0.784780204296 1.263696908951 -0.803250730038 0.001294 -0.415362 -0.909655
-0.853243350983 1.263792991638 -0.803294599056 0.001294 -0.415362 -0.909655
-0.743203878403 1.298540830612 -0.810370147228 0.001120 -0.160219 -0.987081
-0.643133640289 1.186121106148 -0.767864227295 0.001294 -0.415362 -0.909655
-0.659866213799 1.253212928772 -0.798468470573 0.001294 -0.415362 -0.909655
-0.752702414989 1.158983111382 -0.745872616768 0.001375 -0.639507 -0.768784
-0.920381963253 1.092165112495 -0.654948771000 -0.702669 -0.580322 -0.411682
-0.842156529427 1.101993680000 -0.691976368427 0.001362 -0.815569 -0.578659
-0.669614553452 1.142171502113 -0.731924057007 0.001375 -0.639507 -0.768784
-0.635581254959 1.094589352608 -0.681526958942 0.001362 -0.815569 -0.578659
-0.826367676258 1.041323184967 -0.583415031433 0.001257 -0.936483 -0.350710
-0.711350560188 1.034817576408 -0.566002309322 0.001257 -0.936483 -0.350710
-0.884394586086 1.019133329391 -0.469658553600 0.001069 -0.995047 -0.099398
-0.896209716797 1.017441391945 -0.452909171581 0.001069 -0.995047 -0.099398
-0.823575198650 1.021548867226 -0.423035055399 -0.001116 -0.987889 0.155160
-0.749204516411 1.024049162865 -0.407084226608 -0.001116 -0.987889 0.155160
-0.772111654282 1.028510451317 -0.378622591496 -0.001116 -0.987889 0.155160
-0.632630705833 1.145909190178 -0.187791556120 0.706773 -0.422077 0.567735
-0.626266539097 1.444142818451 -0.119548112154 0.709859 0.114111 0.695039
-0.707314133644 1.525080561638 -0.140289023519 -0.001294 0.415362 0.909655
-0.716036975384 1.566903352737 -0.164225071669 -0.001375 0.639507 0.768784
-0.892098248005 1.559749245644 -0.158289447427 -0.001375 0.639507 0.768784
-0.926408052444 1.067517518997 -0.435798555613 -0.999999 0.000978 0.000978
-0.919336915016 1.479431033134 -0.133188873529 -0.707280 0.293497 0.643128
-0.907212555408 1.494122505188 -0.126538485289 -0.707280 0.293497 0.643128
-0.739191174507 1.484387636185 -0.121726632118 -0.001294 0.415362 0.909655
-0.656359910965 1.429520010948 -0.108571350574 -0.001120 0.160219 0.987081
-0.873228013515 1.380495190620 -0.100599974394 -0.001120 0.160219 0.987081
-0.853860139847 1.428079128265 -0.108337089419 -0.001120 0.160219 0.987081
-0.670597314835 1.322135925293 -0.106475725770 -0.001075 -0.106419 0.994321
-0.671883165836 1.349478244781 -0.103555969894 -0.001075 -0.106419 0.994321
-0.874684214592 1.315837860107 -0.107148259878 -0.001075 -0.106419 0.994321
-0.643167197704 1.233121514320 -0.131522744894 -0.001266 -0.365926 0.930643
-0.844887256622 1.226744413376 -0.134019359946 -0.001266 -0.365926 0.930643
-0.673365712166 1.212945103645 -0.139421701431 -0.001266 -0.365926 0.930643
-0.644254267216 1.162250518799 -0.173096910119 -0.001366 -0.594083 0.804402
-0.771576583385 1.160405874252 -0.174463987350 -0.001366 -0.594083 0.804402
-0.643139898777 1.088872671127 -0.247383832932 -0.001372 -0.783405 0.621510
-0.823346495628 1.070192813873 -0.270899981260 -0.001372 -0.783405 0.621510
-0.643897712231 1.052428722382 -0.310612767935 -0.001286 -0.916599 0.399807
-0.673987925053 1.044369339943 -0.329037010670 -0.001286 -0.916599 0.399807
-0.818508982658 1.036213874817 -0.347680926323 -0.001286 -0.916599 0.399807
-0.863563060760 1.057038784027 -0.300074011087 -0.001286 -0.916599 0.399807
-0.793583631516 -1.425714492798 -0.608316898346 0.965957 0.258631 -0.006015
-0.835452318192 -1.268800497055 -0.586463332176 0.965957 0.258631 -0.006015
-0.776849210262 -1.519962906837 -0.551599144936 -0.008884 0.002961 -0.999956
-0.780518233776 -1.493210315704 -0.553960025311 0.151583 -0.592826 -0.790936
-0.772238492966 -1.476108193398 -0.374879181385 -0.965957 -0.258631 0.006015
-0.844728827477 -1.232007026672 -0.507653892040 0.965957 0.258631 -0.006015
-0.843546390533 -1.235369920731 -0.469283998013 0.965957 0.258631 -0.006015
-0.840988576412 -1.274752616882 -0.458389997482 0.256676 -0.956941 0.135578
-0.760573267937 -1.576695084572 -0.381213486195 -0.176274 0.682102 0.709693
-0.770294427872 -1.504496812820 -0.310378193855 0.965957 0.258631 -0.006015
-0.767568588257 -1.515209436417 -0.329933643341 0.965957 0.258631 -0.006015
-0.809900224209 -1.334415078163 -0.335295915604 0.965957 0.258631 -0.006015
-0.834245860577 -1.283616423607 -0.396022051573 -0.237274 0.894565 0.378753
-0.840920686722 -1.242241144180 -0.362328886986 0.965957 0.258631 -0.006015
-0.785722315311 -1.446345210075 -0.290218591690 0.965957 0.258631 -0.006015
-0.791670382023 -1.424373984337 -0.298822104931 0.965957 0.258631 -0.006015
-0.834827542305 -1.275450706482 -0.475099235773 -0.256676 0.956941 -0.135578
-0.759080529213 -1.550186276436 -0.449848800898 0.965957 0.258631 -0.006015
-0.763705968857 -1.562535643578 -0.373883187771 -0.246867 0.932453 0.263795
-0.772558569908 -1.536709904671 -0.540880560875 -0.965957 -0.258631 0.006015
-0.849037468433 -1.250357985497 -0.510909676552 -0.965957 -0.258631 0.006015
