0.454895615578 0.955240070820 -0.162109285593 -0.001026 -0.052343 0.998629
0.464526355267 0.937953710556 -0.162997782230 -0.001026 -0.052343 0.998629
0.585518836975 0.969792783260 -0.208822131157 -0.008867 0.999960 -0.000985
0.594560325146 0.967646777630 -0.229012221098 0.879960 0.475046 0.001323
0.602920234203 0.946907401085 -0.243230566382 0.931838 0.362873 0.001264
0.441924035549 0.647853255272 -0.174562618136 -0.038027 -0.629553 0.776026
0.148434877396 0.812136888504 -0.152377262712 -0.000978 0.000978 0.999999
0.131002530456 0.746670901775 -0.152341663837 -0.000978 0.000978 0.999999
0.312375545502 0.712504088879 -0.168945923448 -0.000978 0.000978 0.999999
0.253487139940 0.782824456692 -0.169046923518 -0.000978 0.000978 0.999999
0.181679829955 0.745278418064 -0.176520988345 0.999995 0.002938 0.000979
0.107635572553 0.673380196095 -0.154622405767 -0.745129 -0.041160 0.665649
0.179389178753 0.682496368885 -0.258502036333 0.000978 -0.000978 -0.999999
0.101518064737 0.658186197281 -0.185252517462 -0.997054 -0.076696 -0.001051
0.119879171252 0.581305503845 -0.220782488585 -0.905318 -0.424733 -0.001299
0.124318636954 0.572285830975 -0.254650086164 -0.891519 -0.452981 -0.001313
0.159775823355 0.965974211693 -0.173908144236 -0.008867 0.999960 -0.000985
0.139687404037 0.965740382671 -0.242287740111 -0.008867 0.999960 -0.000985
0.199541136622 0.949366033077 -0.258688330650 0.000978 -0.000978 -0.999999
0.135891601443 0.800061821938 -0.258626461029 0.000978 -0.000978 -0.999999
0.241769403219 0.866875886917 -0.258591592312 0.000978 -0.000978 -0.999999
0.114503264427 0.738024830818 -0.258596628904 0.000978 -0.000978 -0.999999
0.098402068019 0.726365685463 -0.207853987813 -0.999856 -0.016913 -0.000995
0.099655717611 0.800655245781 -0.208932623267 -0.999131 0.041673 -0.001016
0.103304825723 0.850753366947 -0.192584738135 -0.994811 0.101730 -0.001071
0.100819423795 0.819400787354 -0.252763837576 -0.998128 0.061152 -0.001036
0.104428321123 0.997397422791 -0.094550542533 -0.905852 -0.011798 -0.423430
0.047432541847 0.988807797432 0.013285176829 0.006931 -0.722173 0.691678
0.030448470265 1.037593245506 0.064482964575 0.006931 -0.722173 0.691678
0.016435014084 0.980457186699 0.004814937711 0.006931 -0.722173 0.691678
-0.041571550071 1.042781829834 0.070535495877 0.006931 -0.722173 0.691678
-0.045108079910 0.964304149151 -0.011555790901 0.006931 -0.722173 0.691678
-0.079149089754 0.984626591206 0.010004878044 0.006931 -0.722173 0.691678
-0.058630526066 1.212347269058 0.248122751713 0.006931 -0.722173 0.691678
0.012650752440 1.206945538521 0.241853505373 0.006931 -0.722173 0.691678
0.142025366426 1.276146650314 0.322345584631 -0.035376 -0.734398 0.677797
0.221512496471 1.243404984474 0.291118592024 -0.035376 -0.734398 0.677797
0.063382908702 1.232172250748 0.270621627569 -0.035376 -0.734398 0.677797
0.114237248898 1.245455861092 0.287676244974 -0.035376 -0.734398 0.677797
0.223915383220 1.211605906487 0.256843715906 -0.035376 -0.734398 0.677797
0.325249552727 1.181028604507 0.160598084331 0.096782 -0.942627 0.319512
0.134514153004 1.111968994141 0.013987191953 0.096782 -0.942627 0.319512
0.436080038548 1.212436199188 0.220069274306 0.096782 -0.942627 0.319512
0.362056493759 1.182277441025 0.153269216418 0.096782 -0.942627 0.319512
0.267061829567 1.165961861610 0.133571222425 0.096782 -0.942627 0.319512
0.297378987074 1.173225760460 0.145923942327 0.096782 -0.942627 0.319512
0.319603234529 1.194131731987 0.200932487845 0.096782 -0.942627 0.319512
0.509753942490 1.593122482300 0.329849153757 0.000978 0.000978 0.999999
0.152352541685 1.296946287155 0.330233275890 0.000978 0.000978 0.999999
0.517123341560 1.362203598022 0.330023854971 0.000978 0.000978 0.999999
0.308191031218 1.463842988014 0.330036669970 0.000978 0.000978 0.999999
0.559589147568 1.452116727829 0.329936057329 0.000978 0.000978 0.999999
0.266081064939 1.422094345093 0.330087214708 0.000978 0.000978 0.999999
0.359156191349 1.326799750328 0.330120056868 0.000978 0.000978 0.999999
0.441857188940 1.540587306023 0.329919248819 0.000978 0.000978 0.999999
0.506965398788 1.590596318245 0.329852312803 0.000978 0.000978 0.999999
0.505721688271 1.270495176315 0.330099493265 0.000978 0.000978 0.999999
0.494509220123 1.509486317635 0.329920262098 0.000978 0.000978 0.999999
0.138823091984 1.389496088028 0.329937219620 -0.032874 0.056204 0.997878
0.393632918596 1.558551192284 0.328891158104 -0.032874 0.056204 0.997878
0.455239206553 1.677057385445 0.327914923429 0.015012 -0.011009 0.999827
0.267636120319 1.570730566978 0.329402744770 0.015012 -0.011009 0.999827
0.119110792875 1.409859180450 0.329710841179 0.015012 -0.011009 0.999827
0.243830114603 1.517171859741 0.329137146473 0.015012 -0.011009 0.999827
0.368318825960 1.615278124809 0.328462332487 0.015012 -0.011009 0.999827
0.060271486640 1.442250370979 0.331144481897 0.017150 -0.015132 0.999738
0.096603997052 1.451180219650 0.330620199442 0.017150 -0.015132 0.999738
0.290704190731 1.656777262688 0.330136269331 0.017150 -0.015132 0.999738
0.218871355057 1.635060191154 0.331113278866 0.017150 -0.015132 0.999738
0.093700684607 1.550670623779 0.332132637501 0.017150 -0.015132 0.999738
0.183630704880 1.691070437431 0.332570940256 0.017150 -0.015132 0.999738
0.057666972280 1.646421790123 0.334853023291 0.029664 -0.019435 0.999371
0.084355764091 1.680039525032 0.334706962109 0.029664 -0.019435 0.999371
0.149105384946 1.739447832108 0.333934217691 0.029664 -0.019435 0.999371
-0.010658659041 1.701963782310 0.337901771069 0.029664 -0.019435 0.999371
0.026963403448 1.516269207001 0.333293020725 0.029664 -0.019435 0.999371
-0.087632991374 1.759090900421 0.337227672338 -0.029725 -0.019475 0.999368
-0.060576751828 1.466531276703 0.332368880510 -0.029725 -0.019475 0.999368
-0.084789022803 1.686493158340 0.335903823376 -0.029725 -0.019475 0.999368
-0.115468725562 1.731125593185 0.335834592581 -0.029725 -0.019475 0.999368
-0.020915368572 1.493152379990 0.334096789360 -0.029725 -0.019475 0.999368
-0.752905964851 1.027101397514 0.266674250364 0.984794 -0.052820 -0.165502
-0.771914422512 0.944675028324 0.176742970943 0.986410 -0.035765 -0.160364
-0.763119518757 0.931137621403 0.233840033412 0.986410 -0.035765 -0.160364
-0.770354270935 0.797833859921 0.218328848481 0.985386 -0.038301 -0.165972
-0.774818837643 0.660672128201 0.222438737750 0.999680 0.003014 -0.025118
-0.773530304432 0.484263241291 0.250120103359 0.999680 0.003014 -0.025118
-0.773470818996 0.545334815979 0.081956654787 0.999995 0.002938 0.000979
-0.773366510868 0.478937506676 0.126145929098 0.999995 0.002938 0.000979
-0.773014068604 0.422829896212 -0.163845315576 0.999995 0.002938 0.000979
-0.773087859154 0.414303183556 -0.050136566162 0.999995 0.002938 0.000979
-0.772978007793 0.436401605606 -0.244063422084 0.999995 0.002938 0.000979
-0.773293018341 0.441077351570 0.134124130011 0.999995 0.002938 0.000979
-0.774755895138 0.679022789001 -0.191303938627 0.999940 0.010880 0.000989
-0.774696052074 0.670903742313 -0.149285703897 0.999940 0.010880 0.000989
-0.775216221809 0.721061646938 -0.220948129892 0.999940 0.010880 0.000989
-0.774708449841 0.667342662811 -0.082478359342 0.999940 0.010880 0.000989
-0.775885760784 0.769742667675 0.063612394035 0.999941 0.010858 0.000987
-0.774163246155 0.613981842995 0.005047172308 0.999941 0.010858 0.000987
-0.777850210667 0.948343873024 0.098704986274 0.999941 0.010858 0.000987
-0.775959134102 0.783115267754 -0.155067205429 0.999941 0.010858 0.000987
-0.776775956154 0.860131442547 -0.231007516384 0.999941 0.010858 0.000987
-0.777883350849 0.953944623470 0.014344595373 0.999941 0.010858 0.000987
-0.777974367142 0.962072253227 0.020733058453 0.999941 0.010858 0.000987
-0.774483442307 0.641347885132 0.068141534925 0.999941 0.010858 0.000987
-0.774558246136 0.647489070892 0.091032087803 0.999941 0.010858 0.000987
-0.773894309998 0.582835435867 0.093770205975 0.999916 0.010923 0.006951
-0.775240659714 0.669235110283 0.162447690964 0.999916 0.010923 0.006951
-0.773660719395 0.542448222637 0.121305607259 0.999916 0.010923 0.006951
-0.774571657181 0.597442686558 0.173146337271 0.999916 0.010923 0.006951
-0.705409049988 0.955659091473 -0.120838426054 0.342444 -0.911740 0.226851
-0.720202386379 0.945159137249 -0.140905201435 0.342444 -0.911740 0.226851
-0.753455936909 0.971120238304 0.014133173972 0.342444 -0.911740 0.226851
-0.678640842438 1.008768439293 0.053212739527 0.342444 -0.911740 0.226851
-0.608716726303 1.037072062492 0.117054075003 -0.949911 0.312519 -0.001235
-0.594546616077 1.033818364143 0.187361523509 0.090153 -0.995927 0.001061
-0.550340414047 1.037694573402 0.166295900941 0.083835 -0.996466 0.005306
-0.533136785030 1.022689938545 0.071359835565 0.077122 -0.915987 0.393726
-0.483727425337 0.990091443062 -0.014156095684 0.077122 -0.915987 0.393726
-0.414084702730 0.988785743713 -0.030858205631 0.077122 -0.915987 0.393726
-0.413786798716 1.010476589203 0.019533906132 0.077122 -0.915987 0.393726
-0.345347404480 1.043322086334 0.097509436309 -0.060290 -0.917750 0.392556
-0.309935182333 1.036130666733 0.086273118854 -0.060290 -0.917750 0.392556
-0.343596458435 0.973513305187 -0.064853690565 -0.060290 -0.917750 0.392556
-0.182578712702 1.026196599007 0.081108585000 0.008782 -0.942187 0.334972
-0.299397796392 0.958878159523 -0.105577930808 0.008782 -0.942187 0.334972
-0.260245770216 0.943397641182 -0.122378140688 0.003920 -0.435148 0.900351
-0.307410091162 0.852235257626 -0.166386559606 0.003920 -0.435148 0.900351
-0.408627212048 0.853841602802 -0.165246292949 0.003920 -0.435148 0.900351
-0.546893537045 0.935530245304 -0.125165730715 0.003920 -0.435148 0.900351
-0.547823905945 0.963493525982 -0.086461693048 0.008782 -0.942187 0.334972
-0.542014837265 0.980392098427 -0.039019599557 0.008782 -0.942187 0.334972
-0.536697387695 0.996782839298 0.007004592568 0.008782 -0.942187 0.334972
-0.625351905823 0.961730957031 -0.025334192440 0.566321 -0.753482 0.333984
-0.724064528942 0.921823561192 -0.216293781996 0.130964 -0.941051 0.311883
-0.671053051949 0.926493406296 -0.224312007427 0.130964 -0.941051 0.311883
-0.623833537102 0.949787795544 -0.219444260001 0.943059 -0.332624 0.001246
-0.637727916241 0.900922894478 -0.253773331642 -0.990125 0.140185 -0.001104
-0.550108253956 0.893341600895 -0.259251952171 0.000978 -0.000978 -0.999999
-0.639617502689 0.837493598461 -0.259281963110 0.000978 -0.000978 -0.999999
-0.647167265415 0.802171349525 -0.259261250496 0.000978 -0.000978 -0.999999
-0.578596353531 0.796530425549 -0.259201496840 0.000978 -0.000978 -0.999999
-0.621409296989 0.751970469952 -0.259202301502 0.000978 -0.000978 -0.999999
-0.636270403862 0.595087707043 -0.221620261669 -0.953712 -0.300720 -0.001227
-0.242932885885 0.884064316750 -0.166015282273 -0.001026 -0.052343 0.998629
-0.301631093025 0.813106477261 -0.169518783689 -0.000978 0.000978 0.999999
-0.353923738003 0.797658026218 -0.169549331069 -0.000978 0.000978 0.999999
-0.360524892807 0.714080810547 -0.169491231441 -0.000978 0.000978 0.999999
-0.271590322256 0.636485219002 -0.177845284343 -0.000978 0.000978 0.999999
-0.211792558432 0.962606966496 -0.188447535038 -0.008867 0.999960 -0.000985
-0.288059830666 0.961909592152 -0.199659109116 -0.008867 0.999960 -0.000985
-0.430382102728 0.960611343384 -0.216196164489 -0.008867 0.999960 -0.000985
-0.486297637224 0.959051668644 -0.238532751799 -0.173385 0.952948 -0.248653
-0.613949775696 0.951339662075 -0.221666961908 -0.916740 -0.376990 0.132155
-0.500646114349 0.972497761250 -0.182649567723 -0.031764 -0.841068 0.539996
-0.477257937193 0.960513234138 -0.227966412902 0.171578 -0.972277 0.158869
-0.641772687435 0.958600282669 -0.086551986635 -0.892513 -0.222025 -0.392588
-0.506460905075 0.918285667896 -0.164338409901 -0.001026 -0.052343 0.998629
-0.321589648724 0.946467816830 -0.162822544575 -0.001026 -0.052343 0.998629
-0.195214718580 0.943589508533 -0.142514258623 0.925363 -0.379080 0.001276
-0.183977097273 0.867739558220 -0.152688264847 -0.000978 0.000978 0.999999
-0.151778846979 0.921496331692 -0.152703031898 -0.000978 0.000978 0.999999
-0.158870726824 1.011272907257 -0.154146343470 0.907304 0.003905 -0.420458
-0.326107084751 0.976511836052 -0.167944550514 0.000978 -0.000978 -0.999999
-0.476684421301 0.963671743870 -0.168056562543 0.000978 -0.000978 -0.999999
-0.257037490606 1.075075626373 -0.075342640281 -0.035386 -0.728948 0.683654
-0.377528995275 1.051886081696 -0.103677272797 0.944929 0.325178 -0.036981
-0.311273187399 1.081257104874 0.125071212649 0.087336 0.965762 -0.244288
-0.294300168753 1.109681844711 0.242872714996 0.087336 0.965762 -0.244288
-0.323383331299 1.079311370850 0.113149538636 0.087336 0.965762 -0.244288
-0.265341579914 1.105399131775 0.236230671406 0.087336 0.965762 -0.244288
-0.363711893559 1.100763916969 0.183329224586 0.087336 0.965762 -0.244288
-0.265151351690 1.051172971725 0.283788830042 -0.000978 0.000978 0.999999
-0.217608869076 1.040166258812 0.192757770419 -0.072063 -0.997400 0.001044
-0.246671825647 1.041826605797 0.126208975911 -0.065825 -0.997818 0.005224
-0.296798229218 1.045458316803 0.186926290393 -0.065825 -0.997818 0.005224
-0.371486842632 1.050245165825 0.209273159504 -0.058843 -0.998267 0.001032
-0.429737687111 1.048059463501 0.250369369984 0.076536 -0.997066 0.001048
-0.397544592619 1.050346612930 0.109258092940 0.083835 -0.996466 0.005306
-0.598547160625 1.068345069885 0.231918141246 -0.949911 0.312519 -0.001235
-0.526588976383 1.095354080200 0.127858161926 -0.105258 0.987528 -0.117084
-0.576679527760 1.089843869209 0.126799538732 -0.105258 0.987528 -0.117084
-0.436619460583 1.117708206177 0.235444158316 -0.105258 0.987528 -0.117084
-0.447335451841 1.114358663559 0.216801613569 -0.105258 0.987528 -0.117084
-0.395475685596 1.096044421196 0.014117881656 -0.105258 0.987528 -0.117084
-0.394905418158 1.089097142220 -0.036171980202 -0.005204 -0.998099 0.061405
-0.534384548664 1.219208717346 0.260398954153 0.264361 -0.755092 0.599958
-0.426085233688 1.144636988640 0.118875041604 0.264361 -0.755092 0.599958
-0.393855631351 1.105817675591 0.055811285973 0.264361 -0.755092 0.599958
-0.362980127335 1.098912596703 0.033547967672 0.264361 -0.755092 0.599958
-0.428633570671 1.094336152077 0.056625664234 0.264361 -0.755092 0.599958
-0.209089279175 1.092398881912 -0.042265981436 0.264361 -0.755092 0.599958
-0.677418947220 1.042242050171 0.123553916812 0.393901 -0.716933 0.575195
-0.697356224060 1.081479072571 0.186002179980 0.393901 -0.716933 0.575195
-0.700407385826 1.079578042030 0.185725703835 0.393901 -0.716933 0.575195
-0.696248710155 1.109233379364 0.220216214657 0.548258 -0.713894 0.435625
-0.635281503201 1.217840790749 0.313325285912 -0.372924 -0.003818 0.927854
-0.654683351517 1.343792200089 0.305883646011 -0.372924 -0.003818 0.927854
-0.606514453888 1.409766197205 0.325444132090 -0.372924 -0.003818 0.927854
-0.631452739239 1.474810481071 0.315601497889 -0.372924 -0.003818 0.927854
-0.487648546696 1.315405726433 0.329325497150 -0.002938 0.000979 0.999995
-0.490855485201 1.396211504936 0.329258471727 -0.002938 0.000979 0.999995
-0.554529428482 1.407008767128 0.329119622707 -0.002938 0.000979 0.999995
-0.417019695044 1.503922700882 0.329329550266 -0.002938 0.000979 0.999995
-0.516856133938 1.361611247063 0.329230964184 -0.002938 0.000979 0.999995
-0.560699224472 1.572160005569 0.328983455896 -0.002938 0.000979 0.999995
-0.469499170780 1.505125045776 0.329220861197 -0.002938 0.000979 0.999995
-0.351120889187 1.439210534096 0.329513251781 -0.002938 0.000979 0.999995
-0.297502309084 1.330745935440 0.329704493284 -0.002938 0.000979 0.999995
-0.501577854156 1.298817157745 0.329309284687 -0.002938 0.000979 0.999995
-0.494541078806 1.457353472710 0.329205185175 -0.002938 0.000979 0.999995
-0.075348049402 1.261050462723 0.301857620478 0.047050 -0.734263 0.677233
-0.356258094311 1.235698580742 0.294320851564 0.047050 -0.734263 0.677233
-0.069458872080 1.263842821121 0.304458767176 0.047050 -0.734263 0.677233
-0.220014825463 1.240152835846 0.289502412081 0.047050 -0.734263 0.677233
-0.144554883242 1.281185746193 0.328509092331 0.047050 -0.734263 0.677233
-0.455845534801 1.227387785912 0.290461868048 -0.079917 -0.944596 0.318359
-0.168327957392 1.113846659660 0.026070345193 -0.079917 -0.944596 0.318359
-0.177919387817 1.118816375732 0.038384288549 -0.079917 -0.944596 0.318359
-0.350411146879 1.157820820808 0.110958144069 -0.079917 -0.944596 0.318359
-0.279954165220 1.138345837593 0.070842765272 -0.079917 -0.944596 0.318359
-0.406707763672 1.189945220947 0.191964507103 -0.079917 -0.944596 0.318359
-0.196267336607 1.132173657417 0.073319360614 -0.079917 -0.944596 0.318359
-0.171431809664 1.177459120750 0.213309943676 -0.079917 -0.944596 0.318359
-0.122697502375 1.102295756340 0.040529713035 -0.462534 -0.780627 0.420338
-0.103486262262 1.120426058769 0.095532611012 -0.462534 -0.780627 0.420338
-0.206675246358 1.021815896034 -0.138941019773 0.322668 -0.772156 0.547412
-0.188360333443 0.954123497009 -0.249581456184 0.070753 -0.878175 0.473077
-0.366390585899 0.966395974159 -0.200581014156 0.070753 -0.878175 0.473077
-0.346055865288 0.951374948025 -0.257492542267 -0.088743 -0.971175 0.221233
-0.422054886818 0.957383155823 -0.261618375778 -0.088743 -0.971175 0.221233
-0.464406430721 0.916202843189 -0.305097877979 0.044045 -0.726032 0.686249
-0.327010035515 0.927098155022 -0.302396535873 0.044045 -0.726032 0.686249
-0.726239860058 0.887044548988 -0.319144368172 0.044045 -0.726032 0.686249
-0.516329646111 0.951882600784 -0.259269088507 0.000978 -0.000978 -0.999999
-0.514025449753 0.947672486305 -0.259264051914 0.000978 -0.000978 -0.999999
-0.633410692215 0.923433125019 -0.238311648369 -0.968509 0.248977 -0.001191
-0.629304587841 0.936572015285 -0.233678266406 -0.943059 0.332624 -0.001246
-0.205669179559 1.045122981071 -0.108906686306 -0.001379 -0.765161 0.643838
-0.273836314678 1.025755882263 -0.099442191422 0.025048 0.974486 -0.223046
-0.265515357256 1.049367308617 0.005241127219 0.025048 0.974486 -0.223046
-0.207817390561 1.060479760170 0.060467120260 0.025048 0.974486 -0.223046
-0.235688522458 1.015711545944 -0.139357015491 0.025048 0.974486 -0.223046
-0.181594461203 1.019466280937 -0.161259993911 -0.737037 0.658339 -0.152856
-0.186564803123 1.096288800240 0.234346345067 0.944109 0.329630 0.001244
-0.189417690039 1.104388713837 0.278928428888 0.944109 0.329630 0.001244
-0.104227691889 0.990845978260 -0.010393735021 0.709421 -0.456887 0.536634
-0.150528952479 0.959834992886 -0.042188551277 -0.554612 -0.766811 0.323121
-0.102687269449 1.000961065292 -0.058059230447 -0.951821 -0.226108 0.207153
-0.114843815565 0.965292274952 -0.152498304844 -0.951821 -0.226108 0.207153
-0.098115719855 0.952899396420 -0.089650630951 -0.951821 -0.226108 0.207153
-0.119064696133 0.890121221542 -0.221615701914 -0.976870 0.015319 0.213285
-0.085764184594 0.883292973042 -0.101469352841 -0.790221 -0.447630 0.418542
-0.081616573036 0.789176940918 -0.194499462843 0.006931 -0.722173 0.691678
-0.055217705667 0.807426393032 -0.175630971789 0.006931 -0.722173 0.691678
-0.086085356772 0.948581039906 -0.039437405765 -0.951821 -0.226108 0.207153
-0.558864235878 1.642496347427 0.326947242022 0.030690 0.056089 0.997954
-0.529847562313 1.638658523560 0.326286017895 0.030690 0.056089 0.997954
-0.367969095707 1.635474920273 0.328770101070 -0.015043 -0.011031 0.999826
-0.226759195328 1.447917103767 0.328816652298 -0.015043 -0.011031 0.999826
-0.226629152894 1.511819481850 0.329560816288 -0.015043 -0.011031 0.999826
-0.067325443029 1.333471417427 0.329999417067 -0.015043 -0.011031 0.999826
-0.212366536260 1.649491667747 0.331893473864 -0.019206 -0.015162 0.999701
-0.212307378650 1.517929792404 0.329919338226 -0.019206 -0.015162 0.999701
-0.323223292828 1.619126200676 0.329289853573 -0.019206 -0.015162 0.999701
-0.284602195024 1.656708240509 0.330602318048 -0.019206 -0.015162 0.999701
-0.187031328678 1.540120005608 0.330742210150 -0.019206 -0.015162 0.999701
-0.210414379835 0.668259263039 -0.174469456077 0.383961 0.008989 0.923305
-0.423797518015 0.745775461197 -0.169566452503 -0.000978 0.000978 0.999999
-0.441871494055 0.809621393681 -0.169629544020 -0.000978 0.000978 0.999999
-0.553547203541 0.733142077923 -0.172856017947 -0.384343 0.001277 0.923189
-0.776243567467 -0.250870734453 0.199272185564 0.999857 0.016879 0.000993
-0.776986598969 -0.204310834408 0.153745993972 0.999857 0.016879 0.000993
-0.774938881397 -0.329507023096 0.213601469994 0.999857 0.016879 0.000993
0.768676042557 -0.546035945415 0.131859377027 -0.999780 0.020974 -0.000999
0.770302236080 -0.471073508263 0.142443716526 -0.999780 0.020974 -0.000999
0.771566092968 -0.275226652622 0.041063766927 -0.999999 -0.000979 -0.000979
0.771711826324 -0.401608198881 0.068717241287 -0.999999 -0.000979 -0.000979
0.771498680115 -0.239044919610 0.064867168665 -0.999999 -0.000979 -0.000979
0.771410942078 -0.161569952965 0.046022266150 -0.999999 -0.000979 -0.000979
0.764935195446 -0.082383841276 0.049520730972 -0.625042 -0.052680 0.778811
0.765493094921 -0.699492871761 -0.066853299737 -0.999780 0.020974 -0.000999
0.766992866993 -0.626966118813 0.032592676580 -0.999780 0.020974 -0.000999
0.765156447887 -0.713624715805 -0.032407954335 -0.999780 0.020974 -0.000999
0.766405045986 -0.654663324356 0.012844618410 -0.999780 0.020974 -0.000999
0.762854993343 -0.817249894142 0.100278154016 -0.999780 0.020933 -0.000997
0.762179374695 -0.858229160309 -0.075072810054 -0.999780 0.020933 -0.000997
0.763051748276 -0.812159776688 -0.014918785542 -0.999780 0.020933 -0.000997
0.769380271435 -0.519607961178 -0.022999230772 -0.999780 0.020974 -0.000999
0.753968298435 0.650250494480 0.217947155237 -0.999507 -0.015252 -0.027453
0.763774693012 0.277729928493 0.229477807879 -0.998739 -0.050193 -0.001024
0.757659137249 0.408576667309 -0.269017487764 -0.998739 -0.050193 -0.001024
0.759897112846 0.359403192997 -0.003514781594 -0.998739 -0.050193 -0.001024
0.759238421917 0.371512174606 0.070662885904 -0.998739 -0.050193 -0.001024
0.758085787296 0.396939098835 -0.072553932667 -0.998739 -0.050193 -0.001024
0.760471761227 0.345168471336 0.168373465538 -0.998739 -0.050193 -0.001024
0.761196613312 0.337831914425 -0.299149990082 -0.998739 -0.050193 -0.001024
0.763315856457 0.292103946209 -0.101598203182 -0.998739 -0.050193 -0.001024
0.763480305672 0.288997709751 -0.114735692739 -0.998739 -0.050193 -0.001024
0.766966700554 0.216206520796 0.053254202008 -0.998739 -0.050193 -0.001024
0.764628648758 0.265107184649 -0.064932689071 -0.998739 -0.050193 -0.001024
0.765034735203 0.254994720221 0.059953026474 -0.998739 -0.050193 -0.001024
0.735431253910 0.944550156593 0.243771135807 -0.985243 -0.052718 -0.162840
0.733672976494 1.037007689476 0.217494428158 -0.983267 -0.070319 -0.168049
0.752057433128 0.760936737061 0.203730881214 -0.984525 -0.055416 -0.166249
0.730312466621 1.061320662498 0.199076443911 -0.535024 -0.723856 0.435639
0.619979977608 1.261236548424 0.307674467564 0.370729 0.003822 0.928733
0.634396433830 1.337688446045 0.301568835974 0.370729 0.003822 0.928733
0.589205682278 1.510834217072 0.318899095058 0.370729 0.003822 0.928733
0.752974271774 0.756913542747 0.109129339457 -0.999964 -0.006924 0.004945
0.753535091877 0.677829384804 0.098654247820 -0.999964 -0.006924 0.004945
0.752819657326 0.780602335930 0.114922232926 -0.999964 -0.006924 0.004945
0.752384424210 0.852818489075 0.139762163162 -0.999964 -0.006924 0.004945
0.157284632325 1.040898203850 0.156863391399 0.090153 -0.995927 0.001061
0.257386684418 1.049520730972 0.168766051531 0.083835 -0.996466 0.005306
0.306757241488 1.053678274155 0.164180278778 0.083835 -0.996466 0.005306
0.348365157843 1.057091355324 0.199942141771 0.076536 -0.997066 0.001048
0.377253323793 1.056924462318 0.165705129504 -0.058843 -0.998267 0.001032
0.403720498085 1.055200695992 0.152830019593 -0.065825 -0.997818 0.005224
0.545763075352 1.045542597771 0.109976336360 -0.065825 -0.997818 0.005224
0.542631506920 1.046053647995 0.218381077051 -0.072063 -0.997400 0.001044
0.544337987900 1.106936454773 0.284401059151 -0.000978 0.000978 0.999999
0.435792207718 1.105860948563 0.284314095974 -0.000978 0.000978 0.999999
0.368935942650 1.093339443207 0.284269571304 -0.000978 0.000978 0.999999
-0.124856799841 0.674975216389 -0.158703342080 0.746385 -0.029518 0.664859
-0.469660162926 -0.557053208351 -0.323780983686 -0.000978 0.000978 0.999999
-0.618142783642 -0.740693926811 -0.323761612177 -0.000978 0.000978 0.999999
-0.512829542160 -0.677612662315 -0.323724359274 -0.000978 0.000978 0.999999
-0.455016821623 -0.490342020988 -0.323819756508 -0.000978 0.000978 0.999999
-0.448166370392 -0.594890773296 -0.323734849691 -0.000978 0.000978 0.999999
-0.459854304790 -0.691262364388 -0.323671162128 -0.000978 0.000978 0.999999
-0.734316349030 -0.871133923531 -0.323756545782 -0.000978 0.000978 0.999999
-0.690919518471 -0.819879889488 -0.323760330677 -0.000978 0.000978 0.999999
-0.491686105728 -0.440702289343 -0.323887109756 -0.000978 0.000978 0.999999
-0.377381891012 -0.588999092579 -0.323682099581 -0.000978 0.000978 0.999999
-0.324612200260 -0.832213878632 -0.323454797268 -0.000978 0.000978 0.999999
-0.328492879868 -0.685630857944 -0.323569208384 -0.000978 0.000978 0.999999
-0.268563330173 -0.788636147976 -0.323442548513 -0.000978 0.000978 0.999999
-0.446719169617 -0.788958430290 -0.323586344719 -0.000978 0.000978 0.999999
-0.307585984468 -0.833718001842 -0.323439866304 -0.000978 0.000978 0.999999
-0.291788667440 -0.686615169048 -0.323538780212 -0.000978 0.000978 0.999999
-0.515548527241 -0.882299840450 -0.323571175337 -0.000978 0.000978 0.999999
-0.175657719374 -0.644942343235 -0.323476523161 -0.000978 0.000978 0.999999
-0.166139841080 -0.629976332188 -0.311620742083 -0.977910 0.165263 0.127986
-0.168854922056 -0.654736340046 -0.300498515368 -0.977910 0.165263 0.127986
-0.139191448689 -0.508129417896 -0.262922614813 -0.977910 0.165263 0.127986
-0.105957642198 -0.337854564190 -0.276234090328 -0.963096 0.213585 0.163792
0.037933044136 -0.013657525182 -0.254699110985 -0.000978 0.000978 0.999999
0.058620110154 -0.049667794257 -0.254655063152 -0.000978 0.000978 0.999999
0.064168095589 -0.227520525455 -0.254515528679 -0.000978 0.000978 0.999999
0.031534962356 0.173202335835 -0.254846155643 -0.000978 0.000978 0.999999
-0.049007572234 0.164055064321 -0.254904329777 -0.000978 0.000978 0.999999
-0.020059101284 0.274406105280 -0.254964709282 -0.000978 0.000978 0.999999
-0.097092024982 0.214489638805 -0.260021507740 -0.840497 -0.006789 0.541774
-0.142643660307 -0.104346357286 -0.279121279716 -0.000978 0.000978 0.999999
-0.191147908568 -0.363482475281 -0.295922428370 -0.945148 -0.326641 -0.001242
-0.483288288116 -0.339520573616 -0.300727099180 -0.000978 0.000978 0.999999
-0.454458802938 -0.276006996632 -0.300752013922 -0.000978 0.000978 0.999999
-0.577914476395 -0.261557728052 -0.311219811440 -0.455088 0.022688 0.890157
-0.162989526987 0.115259602666 -0.309762030840 0.919277 0.393609 0.001282
-0.252273589373 0.164670661092 -0.324153065681 -0.000978 0.000978 0.999999
-0.332401573658 0.165345996618 -0.324218392372 -0.000978 0.000978 0.999999
-0.653097212315 0.023568285629 -0.323845028877 -0.995026 0.099610 -0.001071
-0.659606277943 -0.222567439079 -0.316824793816 -0.998739 -0.050193 -0.001024
-0.404529511929 -0.043781008571 -0.303092807531 -0.003980 0.470929 0.882162
-0.456588000059 -0.109720960259 -0.300879985094 -0.000978 0.000978 0.999999
-0.508211314678 -0.187781393528 -0.300862461329 -0.000978 0.000978 0.999999
-0.363344103098 -0.166300371289 -0.300761640072 -0.000978 0.000978 0.999999
-0.296412289143 -0.195611044765 -0.300685256720 -0.000978 0.000978 0.999999
-0.214713826776 -0.199186772108 -0.301997661591 -0.999821 -0.018902 -0.000995
-0.216765016317 -0.049816735089 -0.296492218971 -0.999960 -0.008867 -0.000985
-0.302901208401 0.075898259878 -0.293799549341 -0.001030 -0.054614 0.998507
-0.302079260349 0.049966327846 -0.295241415501 -0.001030 -0.054614 0.998507
-0.313127577305 0.003544550389 -0.291036009789 0.003962 -0.463510 0.886083
-0.275080949068 0.070402473211 -0.256290525198 0.003962 -0.463510 0.886083
-0.301731765270 0.125822648406 -0.199680864811 0.008687 -0.949389 0.313981
-0.218135148287 0.141240254045 -0.155155703425 0.008687 -0.949389 0.313981
-0.255664914846 0.164575859904 -0.083401821554 0.008687 -0.949389 0.313981
-0.234457254410 0.179733633995 -0.038005769253 0.008687 -0.949389 0.313981
-0.147468954325 0.123660594225 -0.095868706703 -0.622883 -0.725363 0.293027
-0.226945683360 0.092662073672 -0.300126463175 0.769703 -0.035178 0.637432
-0.236578568816 0.110867716372 -0.295670837164 -0.006886 0.783664 0.621147
-0.285307288170 0.108029603958 -0.292680799961 -0.006886 0.783664 0.621147
-0.528000354767 0.118120536208 -0.308391511440 -0.006886 0.783664 0.621147
-0.610345423222 -0.144479259849 -0.279469013214 -0.000978 0.000978 0.999999
-0.587607800961 0.120438642800 -0.302778482437 -0.008867 0.999960 -0.000985
-0.646080970764 0.187862336636 -0.139764681458 -0.636526 0.771254 -0.001375
-0.650428056717 0.184291481972 -0.122518815100 -0.636526 0.771254 -0.001375
-0.644455969334 0.167241513729 -0.018193513155 -0.773609 -0.434849 0.460908
-0.410787612200 0.103510983288 -0.292296200991 -0.001030 -0.054614 0.998507
-0.518434107304 0.057319749147 -0.294897288084 -0.001030 -0.054614 0.998507
-0.423959493637 0.084986090660 -0.293330371380 -0.001030 -0.054614 0.998507
-0.433840125799 0.076281853020 -0.252600848675 0.003962 -0.463510 0.886083
-0.574195027351 0.088629566133 -0.245607182384 0.003962 -0.463510 0.886083
-0.549000144005 -0.008724019863 -0.296516448259 0.003962 -0.463510 0.886083
-0.551322460175 0.122637979686 -0.202701300383 0.008687 -0.949389 0.313981
-0.448181599379 0.121209450066 -0.209774866700 0.008687 -0.949389 0.313981
-0.508715927601 0.130355566740 -0.180433571339 0.008687 -0.949389 0.313981
-0.508737206459 0.206083506346 0.024699237198 0.090714 -0.924742 0.369626
-0.491985589266 0.185342580080 -0.031383134425 0.090714 -0.924742 0.369626
-0.413123488426 0.219078391790 0.033581599593 0.090714 -0.924742 0.369626
-0.399647206068 0.205417558551 -0.003647148609 -0.076419 -0.926407 0.368686
-0.320434719324 0.175073802471 -0.063635841012 -0.076419 -0.926407 0.368686
-0.296405434608 0.202290475368 0.009551200084 -0.076419 -0.926407 0.368686
-0.291139215231 0.220993459225 0.147115498781 -0.081382 -0.996669 0.005285
-0.260004222393 0.218516483903 0.156215101480 -0.081382 -0.996669 0.005285
-0.349324733019 0.225596070290 0.124348610640 -0.081382 -0.996669 0.005285
-0.344679206610 0.225568607450 0.261377036572 -0.072063 -0.997400 0.001044
-0.239367410541 0.216933891177 0.241114988923 -0.087863 -0.996132 0.001059
-0.179260089993 0.215143084526 0.212357461452 0.959249 0.282560 0.001213
-0.188209235668 0.245806083083 0.065886646509 0.959249 0.282560 0.001213
-0.163675785065 0.144189924002 -0.260623812675 0.940335 0.003766 -0.340228
-0.143601596355 0.179199814796 -0.158247321844 0.727249 0.552445 -0.407325
-0.343610793352 0.166181430221 -0.298795312643 0.000978 -0.000978 -0.999999
-0.391048938036 0.208926543593 -0.298866122961 0.000978 -0.000978 -0.999999
-0.587035894394 0.147120192647 -0.298977673054 0.000978 -0.000978 -0.999999
-0.602640509605 0.149717256427 -0.298992276192 0.000978 -0.000978 -0.999999
-0.562502086163 0.221919715405 -0.299014627934 0.000978 -0.000978 -0.999999
-0.601187884808 0.237524330616 -0.226175770164 -0.720787 0.688881 -0.076865
-0.462571024895 0.310230642557 0.247129842639 -0.124916 0.986243 -0.108261
-0.498714238405 0.291458159685 0.117436796427 -0.124916 0.986243 -0.108261
-0.587128043175 0.246134370565 -0.194363966584 -0.124916 0.986243 -0.108261
-0.539384126663 0.263484448195 -0.091033272445 -0.124916 0.986243 -0.108261
-0.496681392193 0.303450465202 0.224568724632 -0.124916 0.986243 -0.108261
-0.572161138058 0.271073460579 0.016043080017 -0.124916 0.986243 -0.108261
-0.455147385597 0.284181267023 0.000767614460 -0.124916 0.986243 -0.108261
-0.476824939251 0.285382717848 0.036733165383 -0.124916 0.986243 -0.108261
-0.423941820860 0.293095618486 0.046160466969 -0.124916 0.986243 -0.108261
-0.535721302032 0.252867102623 -0.192181527615 -0.124916 0.986243 -0.108261
-0.478000640869 0.253670722246 -0.251406431198 -0.124916 0.986243 -0.108261
-0.435327589512 0.268020361662 -0.169619217515 -0.124916 0.986243 -0.108261
-0.320300638676 0.285784751177 0.033041007817 0.106959 0.988494 -0.106959
-0.360492765903 0.283179402351 -0.030679602176 0.106959 0.988494 -0.106959
-0.285373061895 0.288131475449 0.089172631502 0.106959 0.988494 -0.106959
-0.314860403538 0.306284099817 0.226290091872 0.106959 0.988494 -0.106959
-0.347005724907 0.293631166220 0.078470803797 0.106959 0.988494 -0.106959
-0.266957610846 0.300180345774 0.217844650149 0.106959 0.988494 -0.106959
-0.244851261377 0.277063846588 0.027921322733 0.106959 0.988494 -0.106959
-0.280169129372 0.266172617674 -0.106898993254 0.106959 0.988494 -0.106959
-0.213511288166 0.254238218069 -0.150182887912 0.106959 0.988494 -0.106959
-0.302161812782 0.271994799376 -0.075347453356 0.106959 0.988494 -0.106959
-0.217971757054 0.296259194613 0.230474665761 0.106959 0.988494 -0.106959
-0.202468395233 0.267958641052 -0.001966178417 0.709352 0.700649 -0.076883
-0.227573484182 0.235319778323 -0.298753947020 0.000978 -0.000978 -0.999999
-0.398492991924 0.262385934591 0.280242025852 -0.000978 0.000978 0.999999
-0.407535463572 0.234705567360 0.280255734921 -0.000978 0.000978 0.999999
-0.546120941639 0.279747664928 0.280109494925 -0.000978 0.000978 0.999999
-0.476822495461 0.227371156216 0.280205309391 -0.000978 0.000978 0.999999
-0.606961488724 0.265665739775 0.260786563158 -0.964151 0.265352 -0.001201
-0.609079957008 0.257221579552 0.059621091932 -0.964151 0.265352 -0.001201
-0.592735230923 0.210694581270 0.171066448092 0.106419 -0.994321 0.001075
-0.561564981937 0.213975295424 0.160495609045 0.097695 -0.995202 0.005368
-0.502364456654 0.219526588917 0.093896880746 0.097695 -0.995202 0.005368
-0.438357979059 0.225731879473 0.064798265696 0.097695 -0.995202 0.005368
-0.485772103071 0.221208408475 0.101810261607 0.097695 -0.995202 0.005368
-0.441588580608 0.225880786777 0.212329655886 0.090153 -0.995927 0.001061
-0.477663934231 0.284904867411 0.350781410933 -0.000978 0.000978 0.999999
-0.619722843170 0.143021300435 -0.107085853815 0.636425 -0.713373 0.293365
-0.284656047821 -0.034845810384 -0.307188689709 -0.003980 0.470929 0.882162
-0.250896453857 -0.094777099788 -0.300724983215 -0.000978 0.000978 0.999999
-0.236976981163 -0.123573035002 -0.300691872835 -0.000978 0.000978 0.999999
-0.253122687340 -0.207005351782 -0.300641596317 -0.000978 0.000978 0.999999
-0.573452174664 0.008041619323 -0.306571841240 -0.664246 -0.009707 0.747451
-0.211928680539 0.100310377777 -0.284933894873 -0.821210 0.001362 0.570625
-0.231126308441 -0.470372945070 -0.323653876781 -0.000978 0.000978 0.999999
-0.138992518187 -0.423745006323 -0.323614746332 -0.000978 0.000978 0.999999
-0.193227514625 -0.410670220852 -0.323668569326 -0.000978 0.000978 0.999999
-0.198511123657 -0.391876935959 -0.323687106371 -0.000978 0.000978 0.999999
-0.119346566498 -0.109208807349 -0.298852652311 -0.840497 -0.006789 0.541774
-0.128474265337 -0.097138568759 -0.312859833241 -0.840497 -0.006789 0.541774
-0.126247584820 -0.004566587973 -0.308177024126 -0.840497 -0.006789 0.541774
-0.174002856016 -0.368172794580 -0.291376680136 0.110730 -0.968570 0.222733
-0.174823299050 -0.373582959175 -0.318315178156 0.683251 -0.730182 0.001380
-0.094689905643 0.109811097383 -0.257680416107 -0.840497 -0.006789 0.541774
-0.102507054806 -0.189747780561 -0.273783326149 -0.840497 -0.006789 0.541774
-0.052431374788 -0.144705295563 -0.254672706127 -0.000978 0.000978 0.999999
-0.049844168127 -0.011398691684 -0.254771828651 -0.000978 0.000978 0.999999
-0.124573916197 -0.505137264729 -0.211549982429 -0.006853 0.812787 0.582520
-0.181424185634 -0.793964266777 -0.269283741713 -0.931793 0.092776 0.350935
-0.187861591578 -0.872553944588 -0.265718728304 -0.931793 0.092776 0.350935
0.736896216869 -0.671976923943 0.018695883453 0.459388 0.846564 0.268872
0.647549450397 -0.156264349818 -0.279756754637 0.821210 0.001362 0.570625
-0.252131342888 -0.583856105804 -0.017050864175 -0.003032 0.999505 -0.031329
-0.388567864895 -0.596773326397 -0.058694005013 -0.104138 0.994243 0.025212
-0.385044336319 -0.596881866455 -0.002679049969 -0.065610 0.997052 -0.039796
0.311614215374 -2.190824031830 -0.048414111137 0.136039 -0.886398 0.442483
0.229059264064 -2.215245723724 -0.072733052075 0.135232 -0.915953 0.377813
0.156732752919 -2.192656040192 -0.022983487695 0.116644 -0.624563 0.772214
-0.274769723415 -2.196591377258 -0.048056319356 -0.120410 -0.888203 0.443393
-0.033282533288 -2.222334623337 -0.036215245724 -0.114011 -0.852919 0.509442
-0.236257091165 -2.183766603470 -0.028772015125 -0.107811 -0.701507 0.704461
-0.026694815606 1.109538435936 0.611200451851 -0.062745 0.293236 0.953979
0.118041366339 1.108433246613 0.606842696667 0.036805 0.316014 0.948041
-0.282587319613 2.198193073273 -0.337029278278 0.130653 0.001098 0.991428
-0.331813275814 2.146019220352 -0.342754483223 0.608965 0.006873 0.793167
-0.232539102435 2.149859428406 -0.347061604261 -0.008420 0.965941 0.258627
-0.250620782375 2.156496763229 -0.372529625893 -0.008420 0.965941 0.258627
-0.160150885582 2.152782917023 -0.355498582125 -0.008420 0.965941 0.258627
0.164180442691 2.156502723694 -0.358194530010 -0.008420 0.965941 0.258627
0.029152274132 2.143306732178 -0.313479363918 -0.008420 0.965941 0.258627
0.295616358519 2.152933120728 -0.394551724195 -0.006873 0.793167 -0.608965
0.024903273210 2.125548362732 -0.407425820827 0.000978 -0.000978 -0.999999
0.216216877103 2.097335338593 -0.407249689102 0.000978 -0.000978 -0.999999
0.274607270956 1.960247874260 -0.407098412514 0.000978 -0.000978 -0.999999
0.232579737902 2.018156766891 -0.407176345587 0.000978 -0.000978 -0.999999
0.273824304342 1.947024106979 -0.407089024782 0.000978 -0.000978 -0.999999
0.091217860579 1.907694101334 -0.407206803560 0.000978 -0.000978 -0.999999
0.140965804458 1.959192276001 -0.407205671072 0.000978 -0.000978 -0.999999
0.057921111584 2.044883489609 -0.407337903976 0.000978 -0.000978 -0.999999
-0.006704860367 1.927409887314 -0.407300949097 0.000978 -0.000978 -0.999999
0.079660549760 2.021009922028 -0.407302170992 0.000978 -0.000978 -0.999999
0.003054164350 1.867215156555 -0.334469377995 0.008867 -0.999960 0.000985
0.050366014242 1.867589592934 -0.403479576111 0.008867 -0.999960 0.000985
0.261371374130 1.869554162025 -0.326736450195 0.008867 -0.999960 0.000985
0.254069417715 1.869468092918 -0.353095889091 0.008867 -0.999960 0.000985
0.386129081249 1.870652079582 -0.364523857832 0.008867 -0.999960 0.000985
0.524585127831 2.075022935867 -0.401255965233 0.993347 0.009835 0.114743
0.428013265133 2.124431610107 -0.356597006321 0.346055 0.906753 0.240925
0.412204712629 2.064846277237 -0.321074813604 -0.000978 0.000978 0.999999
0.394651532173 2.002440452576 -0.321041643620 -0.000978 0.000978 0.999999
0.403908431530 1.878830432892 -0.320940315723 -0.000978 0.000978 0.999999
0.361994624138 1.882177233696 -0.309964805841 0.383066 0.003843 0.923713
0.355441212654 1.934465885162 -0.307473808527 0.383066 0.003843 0.923713
0.381558865309 1.932378768921 -0.408644050360 -0.048051 -0.001022 -0.998844
0.494785636663 2.029582023621 -0.411156475544 -0.018940 -0.000997 -0.999820
0.428255677223 1.995298147202 -0.409828007221 -0.018940 -0.000997 -0.999820
0.426045536995 1.882215380669 -0.385858923197 0.580942 -0.393329 -0.712600
0.296080619097 1.974769830704 -0.304012805223 -0.000978 0.000978 0.999999
0.189518779516 2.015472888947 -0.304129868746 -0.000978 0.000978 0.999999
0.261255770922 1.920405983925 -0.303999692202 -0.000978 0.000978 0.999999
0.212911710143 1.873279333115 -0.304003000259 -0.000978 0.000978 0.999999
0.104082129896 1.956880688667 -0.304154455662 -0.000978 0.000978 0.999999
0.127976655960 1.880135774612 -0.304076910019 -0.000978 0.000978 0.999999
0.051068801433 1.979325890541 -0.304214388132 -0.000978 0.000978 0.999999
0.110554836690 1.967464685440 -0.304157286882 -0.000978 0.000978 0.999999
0.162381008267 2.089953422546 -0.304208338261 -0.000978 0.000978 0.999999
-0.015411455184 2.132464885712 -0.304384380579 -0.000978 0.000978 0.999999
0.222489088774 2.063472032547 -0.304139643908 -0.000978 0.000978 0.999999
-0.198297306895 1.895551800728 -0.304352402687 -0.000978 0.000978 0.999999
-0.256287455559 1.881227016449 -0.304388433695 -0.000978 0.000978 0.999999
-0.272361963987 1.908217072487 -0.304421901703 -0.000978 0.000978 0.999999
-0.289766848087 1.896995544434 -0.304427444935 -0.000978 0.000978 0.999999
-0.128966450691 1.988889098167 -0.304367214441 -0.000978 0.000978 0.999999
-0.359776049852 1.910875201225 -0.304494589567 -0.000978 0.000978 0.999999
-0.373589843512 2.055527210236 -0.304615586996 -0.000978 0.000978 0.999999
-0.261170417070 2.038447618484 -0.304511725903 -0.000978 0.000978 0.999999
-0.318367302418 2.104045152664 -0.304607778788 -0.000978 0.000978 0.999999
-0.112421631813 2.094624996185 -0.304434090853 -0.000978 0.000978 0.999999
0.259698688984 2.151936769485 -0.337801069021 -0.008420 0.965941 0.258627
0.219559237361 2.176439285278 -0.358077764511 0.991588 0.009927 -0.129050
0.144929170609 2.160405874252 -0.373470753431 -0.008420 0.965941 0.258627
-0.112692594528 2.003695726395 -0.407444566488 0.000978 -0.000978 -0.999999
-0.236627921462 2.129668712616 -0.407640427351 0.000978 -0.000978 -0.999999
-0.141966164112 2.001519441605 -0.407466590405 0.000978 -0.000978 -0.999999
-0.023211549968 2.025123834610 -0.407388508320 0.000978 -0.000978 -0.999999
-0.111488968134 2.047369480133 -0.407476782799 0.000978 -0.000978 -0.999999
-0.122666835785 2.033958911896 -0.407475620508 0.000978 -0.000978 -0.999999
-0.238567262888 1.865332365036 -0.407441318035 0.000978 -0.000978 -0.999999
-0.143159255385 1.913991689682 -0.407401114702 0.000978 -0.000978 -0.999999
-0.153703540564 1.926663517952 -0.407419264317 0.000978 -0.000978 -0.999999
-0.298981845379 1.939357876778 -0.407546371222 0.000978 -0.000978 -0.999999
-0.209683090448 1.891428589821 -0.407437771559 0.000978 -0.000978 -0.999999
-0.307600229979 1.864405751228 -0.339015096426 0.008867 -0.999960 0.000985
-0.372822016478 1.863822460175 -0.331436127424 0.008867 -0.999960 0.000985
-0.131449282169 1.865999817848 -0.335134685040 0.008867 -0.999960 0.000985
-0.419577687979 1.863382816315 -0.353975087404 0.008867 -0.999960 0.000985
-0.431739211082 1.863246202469 -0.389070063829 0.008867 -0.999960 0.000985
-0.478981137276 1.862864494324 -0.330286622047 0.008867 -0.999960 0.000985
-0.462740123272 2.045966386795 -0.321767985821 -0.000978 0.000978 0.999999
-0.483646422625 1.960990071297 -0.321720391512 -0.000978 0.000978 0.999999
-0.544180870056 2.055391073227 -0.321841001511 -0.000978 0.000978 0.999999
-0.331431388855 2.156488180161 -0.372114628553 -0.924588 -0.008977 0.380863
-0.342374712229 2.137457609177 -0.376817882061 0.008867 -0.999960 0.000985
-0.338966131210 2.197358846664 -0.345605224371 -0.608965 -0.006873 -0.793167
-0.393395543098 1.973407864571 -0.407781362534 0.048051 -0.001022 -0.998844
-0.518397212029 2.084399223328 -0.411574363708 0.020933 -0.000997 -0.999780
-0.478018850088 2.074569225311 -0.410716712475 0.020933 -0.000997 -0.999780
-0.538387775421 1.992841839790 -0.397497981787 -0.572072 -0.403913 -0.713854
-0.558831334114 1.884201049805 -0.332521408796 -0.460459 -0.383449 -0.800590
-0.562844395638 1.925983428955 -0.348092049360 -0.993375 -0.009814 0.114494
-0.263372302055 2.157385587692 -0.382636755705 -0.006873 0.793167 -0.608965
-0.353535205126 0.221850126982 0.420829474926 0.008867 -0.999960 0.000985
-0.515696465969 0.215003415942 0.416072070599 0.260274 -0.965534 0.001199
-0.393232464790 0.222510889173 0.453890472651 -0.046892 -0.977512 0.205602
-0.379723757505 0.280341714621 0.332765609026 0.000978 -0.000978 -0.999999
-0.472113996744 0.300167948008 0.332675814629 0.000978 -0.000978 -0.999999
-0.497636616230 0.332894772291 0.407113045454 -0.152643 0.988281 -0.001114
-0.272141307592 0.215624928474 0.351804524660 0.008867 -0.999960 0.000985
-0.251917868853 0.248836919665 0.415940731764 0.999960 0.008867 0.000985
-0.279533743858 0.304478675127 0.332828283310 0.000978 -0.000978 -0.999999
-0.334756463766 0.338548094034 0.443584650755 0.135260 0.990809 -0.001100
-0.357692480087 0.339881747961 0.376465737820 -0.008867 0.999960 -0.000985
-0.411054044962 0.336372047663 0.461719244719 -0.008149 0.978996 0.203715
-0.270945996046 0.315910935402 0.401312172413 0.871255 0.490829 0.001330
-0.293968141079 0.331732749939 0.421170026064 0.503455 0.864020 -0.001335
0.527174174786 -0.490279227495 0.253356575966 0.003824 -0.375998 0.926612
0.364465743303 -0.494160622358 0.252249032259 0.003824 -0.375998 0.926612
0.515186190605 -0.484045505524 0.247858986259 -0.008973 0.926750 0.375571
0.388471871614 -0.563089668751 0.368987739086 0.008973 -0.926750 -0.375571
0.511113882065 -0.527602314949 0.313251018524 -0.795706 0.220944 -0.563947
0.452190726995 -0.484091967344 0.253529012203 -0.003757 0.339427 0.940625
0.413802206516 -0.435777217150 0.166409179568 -0.008680 0.951098 0.308766
0.342044353485 -0.416954576969 0.079295344651 0.126824 0.747516 0.652025
0.397069931030 -0.458029806614 0.120043113828 0.008973 -0.926750 -0.375571
0.461610108614 -0.650637209415 0.120403937995 0.859513 0.198809 -0.470864
0.393338322639 -0.645192980766 0.097567357123 0.008973 -0.926750 -0.375571
0.351395815611 -0.597608983517 0.114538565278 -0.861852 0.182457 -0.473203
0.348481953144 -0.611166834831 0.160643115640 0.003824 -0.375998 0.926612
0.401372015476 -0.656120181084 0.142278820276 0.003824 -0.375998 0.926612
0.348456710577 -0.647169053555 0.146056666970 0.003824 -0.375998 0.926612
0.315647482872 -0.482757419348 0.212762951851 -0.003824 0.375998 -0.926612
0.412089139223 -0.452745944262 0.201882675290 -0.357689 0.726811 0.586349
0.275820136070 -0.530099570751 0.341809511185 -0.606254 -0.303931 0.734902
0.297581791878 -0.522123098373 0.346956282854 -0.008973 0.926750 0.375571
0.364477008581 -0.556808650494 0.354792684317 0.070537 -0.623315 -0.778783
0.230910226703 -0.491756737232 0.270471662283 -0.008973 0.926750 0.375571
0.223242387176 -0.463070839643 0.199496820569 -0.008973 0.926750 0.375571
0.369572579861 -0.636507034302 0.087280057371 -0.003824 0.375998 -0.926612
0.415998548269 -0.535251915455 0.128171503544 -0.003824 0.375998 -0.926612
0.449385434389 -0.455412000418 0.185692816973 0.718076 0.668660 -0.193031
-0.426069408655 1.139640688896 0.429865121841 -0.008237 0.975457 0.220037
-0.277259588242 1.100414514542 0.445936203003 -0.000978 0.000978 0.999999
-0.311525583267 1.051052093506 0.440063297749 0.009757 -0.994175 0.107332
-0.408610671759 1.091631293297 0.445836633444 -0.000978 0.000978 0.999999
-0.480469644070 1.111439585686 0.445763498545 -0.000978 0.000978 0.999999
-0.500421524048 1.047088742256 0.324568688869 0.000978 -0.000978 -0.999999
-0.466857194901 1.068693518639 0.324579417706 0.000978 -0.000978 -0.999999
-0.474225163460 1.089470267296 0.324557691813 0.000978 -0.000978 -0.999999
-0.524896502495 1.113452672958 0.373327016830 -0.840077 0.542465 -0.001353
-0.279689013958 1.131958007812 0.331216067076 0.388992 0.792510 -0.469695
-0.270311981440 1.131036877632 0.337390452623 0.388992 0.792510 -0.469695
-0.246906682849 1.089597105980 0.438003778458 0.955770 0.008611 0.293988
-0.341101437807 1.044815301895 0.376069873571 0.008867 -0.999960 0.000985
-0.520671486855 1.037365198135 0.342091113329 0.008867 -0.999960 0.000985
-0.497869163752 1.045406222343 0.439016312361 0.156365 -0.687701 0.708955
-0.260805070400 1.042202830315 0.421579778194 0.289521 -0.955293 0.059945
-0.276361852884 1.045153379440 0.334325104952 -0.109864 -0.905331 -0.410250
0.360080420971 1.051220417023 0.339175164700 0.009223 -0.897269 -0.441388
0.442981570959 1.077708125114 0.325308293104 0.000978 -0.000978 -0.999999
0.261386811733 1.092421650887 0.325150281191 0.000978 -0.000978 -0.999999
0.434668272734 1.148625612259 0.357578992844 0.111381 0.993777 -0.001081
0.270409375429 1.145617961884 0.384706288576 -0.130369 0.991465 -0.001096
