0.846511423588 -1.042801141739 0.020800737664 0.912845 -0.052124 0.404966
0.850806355476 -1.206989765167 -0.010473767295 0.877822 -0.082602 0.471812
0.866693556309 -1.391699194908 -0.110586792231 0.865711 -0.294678 0.404609
0.863040685654 -0.973699629307 -0.018589384854 0.944109 -0.001244 0.329630
0.871612071991 -0.929058134556 -0.060941830277 0.984774 0.040789 0.168985
0.875811874866 -0.867983996868 -0.110976420343 0.993612 0.027631 0.109419
0.854536890984 -0.765572667122 -0.151472151279 -0.001059 0.996132 0.087863
0.875099956989 -0.817035019398 -0.151074260473 0.996925 0.075702 0.020258
0.878072142601 -0.853886485100 -0.163145363331 0.997136 0.073428 0.018091
0.878104031086 -0.869978964329 -0.138094469905 0.995428 0.071812 0.062974
0.872621059418 -1.067228913307 -0.044411431998 0.939511 0.019070 0.341987
0.883202433586 -1.357442855835 -0.137548044324 0.998806 -0.042613 0.023905
0.877839505672 -0.845908403397 -0.174414664507 0.995613 0.084337 0.040525
0.886264026165 -1.027315616608 -0.112371206284 0.999411 0.017354 0.029605
0.875093698502 -1.040514588356 -0.121069774032 0.001257 -0.350710 -0.936483
0.836007475853 -0.752797722816 -0.492760688066 0.931838 -0.001264 -0.362873
0.824135899544 -0.695367753506 -0.521698772907 0.907304 -0.003905 -0.420458
0.813561558723 -0.735277950764 -0.543746292591 0.907807 -0.009143 -0.419289
0.851472437382 -0.736997663975 -0.350748807192 -0.001146 0.981965 0.189060
0.883632481098 -0.907820940018 -0.172802403569 0.998606 0.048941 0.019785
0.878641307354 -0.834913730621 -0.248271957040 0.997248 0.061187 -0.041865
0.835388183594 -0.784095525742 -0.494354307652 0.931838 0.001264 -0.362873
0.790472328663 -0.861324310303 0.195371836424 0.945940 -0.116074 0.302861
0.784620165825 -0.838215887547 0.216909423470 0.878577 -0.202294 0.432644
0.729733943939 -1.367576956749 0.121018469334 0.401032 -0.240023 0.884060
0.751513898373 -1.115818262100 0.171886399388 0.673985 -0.210134 0.708229
0.766082227230 -1.406117916107 0.082627527416 0.736390 -0.209290 0.643372
-0.715874552727 -1.108971118927 0.195705816150 -0.410149 -0.234158 0.881447
-0.712206900120 -0.950007140636 0.244182154536 -0.384105 -0.275651 0.881181
-0.715021133423 -0.847953855991 0.291154235601 0.987462 -0.156035 0.023918
-0.804085075855 -0.838825821877 0.155439808965 -0.969838 -0.065815 0.234698
-0.845043778419 -0.714723289013 -0.450691074133 -0.001215 0.958392 0.285453
-0.812367081642 -0.736111998558 -0.546227097511 -0.907807 -0.009143 -0.419289
-0.794227302074 -0.786027610302 -0.547742068768 -0.003122 -0.997844 -0.065552
-0.849719107151 -0.763356745243 -0.449582487345 -0.966288 -0.003592 -0.257437
-0.849746763706 -0.797951579094 -0.415875852108 -0.003350 -0.988224 -0.152979
-0.882991194725 -1.368300080299 -0.154020354152 -0.999257 -0.031902 0.021611
-0.872124552727 -1.403217911720 -0.129105657339 -0.857174 -0.286747 0.427820
-0.883335828781 -1.335275650024 -0.117938913405 -0.998809 -0.036529 0.032354
-0.886036217213 -1.074401617050 -0.088237926364 -0.999443 0.001011 0.033348
-0.884147405624 -0.928087294102 -0.152631968260 -0.998750 0.046768 0.017668
-0.872864842415 -0.794911146164 -0.283400118351 -0.978341 0.206029 0.020014
-0.876519382000 -1.272059202194 -0.071594111621 -0.825751 -0.169346 0.538012
-0.856119513512 -1.260376453400 -0.032514795661 -0.877910 -0.118482 0.463936
-0.797263860703 -1.468961954117 0.003934314474 0.098566 -0.852813 0.512830
-0.804720103741 -1.437564492226 0.015809461474 -0.880661 -0.224249 0.417311
-0.821538984776 -1.275478243828 0.037215132266 -0.894906 -0.090184 0.437047
-0.870915949345 -1.100268602371 -0.040275048465 -0.908232 -0.022409 0.417866
-0.872359216213 -0.805405557156 -0.106105163693 -0.998239 0.005183 0.059086
-0.855231285095 -0.964693248272 0.005703695118 -0.965358 -0.033119 0.258819
-0.805222868919 -1.217565298080 0.078648418188 -0.883372 -0.106005 0.456527
-0.802391111851 -1.276273846626 0.070409253240 -0.850585 -0.116974 0.512662
-0.742758214474 -1.148980140686 0.169445097446 -0.575851 -0.207306 0.790835
-0.736427009106 -1.096820712090 0.189213261008 -0.613240 -0.226259 0.756798
-0.743861317635 -0.924089491367 0.237773165107 -0.608970 -0.247050 0.753738
-0.831345200539 -0.783432662487 0.084838777781 -0.907586 -0.049602 0.416926
-0.863894879818 -0.824885129929 -0.026313869283 -0.991959 -0.007690 0.126329
-0.830491721630 -0.941017568111 0.068238914013 -0.905609 -0.049788 0.421182
-0.808148145676 -0.975806713104 0.130063563585 -0.945474 -0.085474 0.314281
-0.781850039959 -1.223112583160 0.110390335321 -0.771066 -0.139241 0.621345
-0.739697873592 -0.864706873894 0.270581781864 -0.689947 -0.329551 0.644492
-0.752385675907 -1.438145995140 0.084211230278 -0.547575 -0.254287 0.797182
-0.708697676659 -1.329694390297 0.133102118969 0.001197 -0.259673 0.965696
0.782100498676 1.397666215897 0.237596631050 0.787552 0.061460 0.613176
0.743727862835 1.647814750671 0.234146162868 0.757210 0.222343 0.614164
0.784582853317 1.517373800278 0.216614603996 0.834890 0.142830 0.531562
0.794018685818 1.499410510063 0.207461878657 0.813021 0.150670 0.562402
0.831724107265 1.400920748711 0.156198889017 0.918483 0.102662 0.381903
0.794319152832 1.589228987694 0.175867423415 0.900636 0.168061 0.400762
0.811651945114 1.574386954308 0.132753252983 0.956627 0.190792 0.220144
0.825219810009 1.527206778526 0.112119391561 0.971129 0.159515 0.177381
0.852408051491 1.291411638260 0.104717791080 0.982790 0.070455 0.170764
0.865639209747 1.273059606552 0.013747951947 0.993140 0.052743 0.104364
0.796064853668 1.677538633347 0.021762747318 0.905292 0.408707 0.115777
0.793283820152 1.686919689178 0.007991968654 0.900203 0.430295 0.066935
0.838079214096 1.549382328987 -0.014598258771 0.958014 0.211856 0.193202
0.860160589218 1.481048464775 -0.065593935549 0.964510 0.181417 0.191858
0.800488352776 1.691879272461 -0.048439305276 0.858773 0.483337 0.169981
0.775884568691 1.735410928726 -0.055359981954 0.702312 0.657721 0.272325
0.564659535885 1.818244457245 -0.024073004723 0.201811 0.977633 0.059214
0.835521340370 1.613381147385 -0.076736986637 0.924207 0.264263 0.275691
0.880887210369 1.401021957397 -0.103320971131 0.939252 0.066809 0.336664
0.859539806843 1.608917474747 -0.145738705993 0.892510 0.253942 0.372745
0.852675199509 1.597391486168 -0.117925450206 0.913008 0.262726 0.312077
0.883474588394 1.121590375900 -0.189629942179 0.991821 -0.103862 0.074187
0.867096483707 1.004754543304 -0.339700847864 0.980333 -0.188387 -0.058796
0.876474678516 1.258799076080 -0.158632978797 0.001227 0.302950 -0.953006
0.873116612434 1.240825295448 -0.164857730269 -0.001294 0.415362 -0.909655
0.858334362507 0.980404436588 -0.415359854698 0.925517 -0.019362 0.378210
0.881760418415 1.095044612885 -0.250367909670 0.998413 -0.047343 -0.030510
0.839500606060 0.953860342503 -0.489584267139 0.947678 -0.003726 -0.319205
0.832065403461 0.889965355396 -0.465584397316 0.206267 -0.674631 0.708750
0.827591717243 0.702777504921 -0.521611928940 0.922811 0.001280 -0.385251
0.827788710594 0.527793824673 -0.508536815643 0.000979 0.002938 0.999995
0.819111108780 -0.231605529785 -0.504516243935 -0.000981 0.004907 0.999987
0.831030726433 -0.250292092562 -0.504436790943 0.004936 0.004936 0.999976
0.831480622292 -0.472512722015 -0.502961993217 0.000985 0.008867 0.999960
0.814188241959 -0.356878578663 -0.547488868237 0.915765 -0.003875 -0.401697
0.834594249725 0.887463748455 -0.503505408764 0.944882 -0.001245 -0.327410
0.878154635429 1.391767144203 -0.138437762856 0.001040 -0.067624 -0.997710
0.813637018204 1.647330760956 -0.028852701187 0.925929 0.348438 0.145761
0.584071993828 1.530266284943 0.591675817966 -0.046462 0.958129 0.282541
0.491333037615 1.531960725784 0.649754405022 0.255855 0.959780 0.115589
0.488259881735 1.256838798523 0.721772670746 -0.999371 -0.035439 -0.001013
0.502218782902 0.891742885113 0.764257550240 -0.998991 -0.040374 0.019669
0.504230618477 0.845753312111 0.769570529461 -0.998620 -0.042873 0.030325
0.507403433323 0.772668659687 0.771434605122 -0.998620 -0.042873 0.030325
0.520709037781 0.468416780233 0.764488399029 -0.998584 -0.045057 0.028291
0.523035109043 0.419713735580 0.771962523460 -0.998749 -0.042699 0.026036
0.525072276592 0.379243850708 0.782673358917 -0.998466 -0.043137 0.034720
0.536646962166 0.146016195416 0.764645457268 -0.997475 -0.064937 0.028743
0.581769764423 -0.234761491418 0.667919158936 -0.978450 -0.204682 0.027212
0.717154741287 -0.830330669880 0.301377981901 0.373903 -0.473397 0.797553
0.735140860081 -0.812131643295 0.302217781544 0.651081 -0.323105 0.686801
0.743575930595 -0.787864804268 0.305653870106 0.670134 -0.305193 0.676593
0.769912838936 -0.731413543224 0.280199617147 0.900110 -0.098776 0.424318
0.720883131027 -0.664025485516 0.370492637157 0.164644 0.590603 -0.789988
0.650738596916 -0.334551960230 0.587176203728 0.111045 0.520615 -0.846540
0.598294854164 -0.080246560276 0.706909120083 0.113155 0.261427 -0.958567
0.585167407990 0.149162039161 0.751151502132 0.112591 0.112591 -0.987242
0.566159009933 0.209017902613 0.755796015263 0.112969 0.062760 -0.991614
0.558351159096 0.539280831814 0.764963328838 0.126329 0.007690 -0.991959
0.568188965321 0.680224955082 0.761239230633 0.127368 -0.056226 -0.990261
0.555645942688 0.932686924934 0.751454055309 0.554101 0.102718 0.826088
0.565077006817 1.067906498909 0.718647599220 0.098319 -0.161437 -0.981973
0.569886505604 1.056969761848 0.724585950375 0.545511 0.130864 0.827824
0.581206083298 1.220823645592 0.681315422058 0.093633 -0.370461 -0.924117
0.572971582413 1.190747857094 0.690944731236 0.132213 -0.284458 -0.949528
0.571429312229 1.295175313950 0.673713386059 0.577495 0.190467 0.793865
0.711356818676 1.621959090233 0.316489666700 0.886967 0.264744 0.378419
0.701770782471 1.620696544647 0.340182811022 0.889409 0.273549 0.366227
0.707842111588 1.569103479385 0.362692594528 0.885124 0.242479 0.397190
0.682439625263 1.531316399574 0.435428291559 0.868637 0.219776 0.444036
0.656569719315 1.540235519409 0.482753157616 0.860641 0.182201 0.475500
0.627727091312 1.447179794312 0.562969923019 0.833854 0.165577 0.526566
0.731236457825 1.447138190269 0.367669731379 0.914230 0.171507 0.367109
0.767689704895 1.376337647438 0.289765059948 0.947118 0.104647 0.303343
0.562469065189 1.457934141159 0.637453138828 0.623668 0.216184 0.751201
0.489453315735 1.283552765846 0.718866169453 0.294123 0.196547 0.935340
0.548077940941 0.933593153954 0.754780292511 0.390359 0.106211 0.914516
0.560400843620 0.768207967281 0.765838742256 0.558559 0.060805 0.827233
0.507434725761 0.859127938747 0.774477720261 0.187279 0.068870 0.979890
0.534303903580 0.388057410717 0.783065497875 0.092469 -0.025021 0.995401
0.584459125996 0.134540349245 0.754808962345 0.626334 -0.055642 0.777567
0.590029120445 -0.052831035107 0.726404130459 0.423034 -0.191756 0.885591
0.589743673801 -0.173988699913 0.693473994732 0.292151 -0.306832 0.905815
0.644322693348 -0.359690904617 0.586041390896 0.607438 -0.299712 0.735657
0.608055293560 -0.359285950661 0.608048200607 0.380691 -0.383824 0.841281
0.682201862335 -0.557893991470 0.468677371740 0.650431 -0.305041 0.695622
-0.695217669010 1.470507860184 0.437539637089 -0.886199 0.142194 0.440945
-0.699471294880 1.475527167320 0.427088081837 -0.892115 0.175522 0.416320
-0.717628955841 1.522933125496 0.366246193647 -0.904994 0.179278 0.385806
-0.731895089149 1.469437122345 0.356622159481 -0.914671 0.168753 0.367286
-0.746952474117 1.493904948235 0.305974304676 -0.927568 0.168775 0.333366
-0.752715706825 1.563390135765 0.252682715654 -0.938198 0.166211 0.303575
-0.755493283272 1.553873181343 0.249304965138 -0.935223 0.164389 0.313583
-0.784376800060 1.499548435211 0.222390517592 -0.834890 0.142830 0.531562
-0.753726959229 1.599957108498 0.238855659962 -0.767011 0.198285 0.610227
-0.730293750763 1.630876779556 0.264423519373 -0.896444 0.274119 0.348205
-0.721247136593 1.598525404930 0.310639262199 -0.886967 0.264744 0.378419
-0.673355937004 1.472456455231 0.478910326958 -0.872534 0.146632 0.466029
-0.771562099457 1.443427205086 0.254490643740 -0.949893 0.106715 0.293795
-0.815259337425 1.431046247482 0.187806591392 -0.911611 0.106516 0.397014
-0.827259719372 1.474429249763 0.145568832755 -0.977562 0.117704 0.174697
-0.823401331902 1.548929810524 0.104912079871 -0.971521 0.157026 0.177453
-0.831779181957 1.554488539696 0.045815747231 -0.979179 0.190026 0.071411
-0.871501266956 1.588354229927 -0.159430265427 -0.892510 0.253942 0.372745
-0.882628679276 1.206313371658 -0.180560231209 -0.001297 0.416342 -0.909207
-0.804105818272 0.998134195805 -0.575512349606 -0.897269 -0.009223 -0.441388
-0.824568152428 0.992403626442 -0.530531764030 -0.925489 -0.008985 -0.378668
-0.818115592003 0.922575592995 -0.544742226601 -0.925856 -0.008964 -0.377770
-0.827100157738 0.750881135464 -0.523241758347 -0.922811 0.001280 -0.385251
-0.816990852356 0.583533942699 -0.547594487667 -0.921899 0.001279 -0.387428
-0.827848196030 0.414433896542 -0.522201240063 -0.920203 0.001283 -0.391439
-0.833691477776 0.312212228775 -0.508467972279 -0.920203 -0.001283 -0.391439
-0.825803637505 -0.119083568454 -0.523842155933 -0.916180 -0.003866 -0.400748
-0.816937506199 -0.171694934368 -0.543640613556 -0.915765 -0.003875 -0.401697
-0.823335528374 -0.654806971550 -0.501511514187 -0.000985 0.006896 0.999976
-0.812780261040 -0.477718830109 -0.502872645855 -0.004945 0.008902 0.999948
-0.829481601715 -0.271521627903 -0.504319071770 -0.004936 0.004936 0.999976
-0.832826912403 0.265731215477 -0.507278501987 0.000983 0.006883 0.999976
-0.846871078014 0.958153843880 -0.468551933765 -0.947931 -0.003717 -0.318455
-0.884665071964 1.130155801773 -0.212571993470 -0.999201 -0.035942 -0.017458
-0.881906747818 1.204721927643 -0.113349393010 -0.995083 -0.033936 0.093050
-0.886497676373 1.232158541679 -0.162436142564 -0.999690 -0.009079 0.023202
-0.885595262051 1.271833181381 -0.127070710063 -0.999831 0.007006 0.017014
-0.877237200737 1.209063529968 -0.068974182010 -0.995155 0.031749 0.093056
-0.883076190948 1.284232735634 -0.103845164180 -0.979410 -0.012810 0.201472
-0.883409619331 1.332292318344 -0.102914661169 -0.967446 0.018117 0.252430
-0.848039627075 1.505753040314 -0.020372230560 -0.970749 0.190068 0.146697
-0.834930658340 1.621686816216 -0.081370964646 -0.924207 0.264263 0.275691
-0.872161746025 1.419029355049 -0.078796207905 -0.940650 0.094464 0.325968
-0.865682423115 1.508648037910 -0.095381714404 -0.920487 0.158318 0.357267
-0.840961813927 1.453646063805 0.089241310954 -0.981100 0.108740 0.160055
-0.854139983654 1.346524357796 0.073881193995 -0.985031 0.065038 0.159639
-0.839659750462 1.286848306656 0.108059294522 -0.167819 -0.902207 0.397315
-0.783610403538 1.332334518433 0.237451210618 -0.146045 -0.937689 0.315293
-0.573824644089 1.813013076782 -0.001908139791 0.000978 0.000978 0.999999
-0.803423702717 1.655208230019 0.038674861193 -0.933678 0.343561 0.101047
-0.812736570835 1.632816076279 0.032773301005 -0.964970 0.249147 0.082206
-0.810382783413 1.609692335129 0.090910874307 -0.967110 0.238933 0.087230
-0.637075245380 1.362027883530 0.572896063328 -0.830141 0.149455 0.537150
-0.645462214947 1.353822231293 0.550589740276 -0.154100 -0.975964 -0.154100
-0.603864550591 1.395982503891 0.611649155617 -0.806826 0.154180 0.570316
-0.556648969650 0.985546708107 0.730795621872 -0.107848 -0.117329 -0.987220
-0.570824682713 0.457624495029 0.766020596027 -0.109009 0.003238 -0.994035
-0.580362975597 0.094445578754 0.743847250938 -0.115489 0.177579 -0.977307
-0.612191796303 -0.216796621680 0.648732781410 -0.109438 0.473285 -0.874085
-0.648360610008 -0.316120237112 0.598290264606 -0.111045 0.520615 -0.846540
-0.743715643883 -0.733917415142 0.326134532690 -0.788025 -0.231589 0.570424
-0.564594626427 0.929343163967 0.746057748795 -0.554101 0.102718 0.826088
-0.547733187675 1.372478961945 0.671516001225 -0.558523 0.206577 0.803355
-0.512771785259 1.512751460075 0.653299689293 -0.383753 0.244476 0.890486
-0.500074028969 1.364665865898 0.697094976902 -0.307838 0.217047 0.926351
-0.541687548161 1.084315538406 0.737252295017 -0.414995 0.137387 0.899391
-0.542551159859 0.902222752571 0.760669946671 -0.365472 0.101897 0.925228
-0.554185390472 0.676798760891 0.774340629578 -0.330472 0.055727 0.942169
-0.557238578796 0.605347275734 0.776355922222 -0.328276 0.034488 0.943952
-0.577125966549 0.104196839035 0.757251322269 -0.356533 -0.081455 0.930725
-0.584523677826 -0.031594000757 0.733656048775 -0.382080 -0.191761 0.904015
-0.583767831326 -0.091248109937 0.721142113209 -0.423034 -0.191756 0.885591
-0.689773559570 -0.608674287796 0.439270585775 -0.668504 -0.298008 0.681391
-0.713522195816 -0.724633574486 0.363813728094 -0.670134 -0.305193 0.676593
-0.749823987484 -0.753551900387 0.310040742159 -0.833854 -0.165577 0.526566
-0.619877755642 -0.389713048935 0.588829874992 -0.380691 -0.383824 0.841281
-0.546142518520 0.311352044344 0.779995262623 -0.089635 -0.047584 0.994837
-0.538397252560 0.364613801241 0.782126486301 -0.090116 -0.024972 0.995618
-0.544218480587 0.455567598343 0.783119440079 -0.092648 0.001065 0.995698
-0.517989695072 0.576269388199 0.785832524300 -0.127984 0.018919 0.991596
-0.507123351097 0.823865473270 0.777080237865 -0.187279 0.068870 0.979890
-0.491926252842 1.196691870689 0.736000239849 -0.277741 0.161225 0.947030
-0.494495123625 1.093413591385 0.751344978809 0.999217 -0.039563 0.001014
-0.512030720711 0.676148772240 0.776980340481 0.998297 -0.043312 0.039087
-0.537741720676 0.126057535410 0.753807902336 0.997611 -0.062816 0.028747
-0.548023700714 -0.004453100264 0.738862872124 0.995518 -0.088321 0.033802
-0.484235376120 1.385747551918 0.693193614483 0.999356 -0.035510 -0.005073
-0.539750456810 1.526250958443 0.617044389248 -0.129689 0.979461 0.154392
-0.650608539581 1.594487071037 0.436200916767 -0.065670 0.920727 0.384641
-0.649792373180 1.487284779549 0.515785276890 -0.851285 0.186358 0.490495
-0.625970184803 1.518770098686 0.543887734413 -0.833854 0.165577 0.526566
-0.612889111042 1.439278602600 0.587017178535 -0.800612 0.170375 0.574450
-0.575498461723 1.458714365959 0.626565873623 -0.637023 0.216494 0.739819
0.863191008568 0.273619145155 0.069498725235 -0.061353 0.614955 0.786172
0.877012431622 0.220470935106 0.054080370814 0.990429 0.001104 0.138020
0.877806365490 0.246812492609 0.016486845911 0.997301 0.046261 -0.057019
0.873123466969 1.069756746292 0.088838763535 0.983314 0.026702 0.179945
0.872434020042 1.025527119637 0.086333729327 0.992205 -0.034677 0.119691
0.872301995754 0.146158784628 -0.028336307034 0.578126 -0.004100 0.815937
0.866107940674 0.171421557665 -0.023745540529 0.583045 -0.001365 0.812439
0.853220462799 0.182444348931 -0.014476850629 0.581753 0.001362 0.813364
0.859811186790 0.237511321902 -0.011586092412 0.497483 -0.402880 0.768244
0.876342117786 0.342175096273 -0.032807178795 0.998124 -0.003109 0.061152
0.877405583858 0.304124683142 -0.055603772402 0.999852 -0.002985 0.016913
0.877743780613 0.184155076742 -0.090633988380 0.999852 -0.002985 0.016913
0.865722417831 0.104589372873 0.077551312745 0.994357 -0.011954 0.105413
0.864152789116 -0.045020230114 0.073888540268 0.992982 -0.014264 0.117402
0.846138238907 0.015055045485 0.129650831223 0.909045 -0.033177 0.415374
0.834845423698 0.152989238501 0.167592883110 0.981229 -0.017460 0.192055
0.828802824020 -0.038449503481 0.180880457163 0.979053 -0.017588 0.202846
0.826367795467 0.060723371804 0.200627744198 0.978010 -0.017611 0.207812
0.824518561363 0.362079024315 0.223177641630 -0.001061 0.996116 -0.088049
0.831198275089 0.321998357773 0.197356745601 0.977010 -0.012933 0.212802
0.845581471920 0.196137547493 0.046312943101 0.274561 -0.001210 -0.961569
0.869630992413 0.279671013355 0.055375143886 0.994956 -0.007529 0.100033
0.824650645256 0.360767096281 0.208601176739 -0.001061 0.995927 -0.090153
0.782478570938 0.371624529362 0.312124192715 -0.003257 0.993475 -0.114005
0.696214377880 0.343888431787 0.570699274540 0.904847 0.001302 0.425734
0.655495584011 0.390416443348 0.653737068176 0.869274 0.009376 0.494241
0.597169876099 0.315542727709 0.751899600029 0.795806 -0.009654 0.605475
0.598046183586 0.317973613739 0.750751495361 0.795806 0.009654 0.605475
0.635585784912 -0.203144595027 0.619920969009 0.003944 0.445632 -0.895208
0.698571681976 -0.495723962784 0.446507036686 -0.009606 0.588716 -0.808283
0.675327241421 -0.348102599382 0.557601332664 0.843043 -0.126675 0.522716
0.644623339176 -0.191832154989 0.639484226704 0.840533 -0.102363 0.532001
0.640120208263 -0.112574055791 0.659419059753 0.835173 -0.081376 0.543933
0.631941318512 -0.078637987375 0.677106916904 0.832749 -0.063623 0.549982
0.601270496845 0.204144522548 0.744436264038 0.800158 -0.029325 0.599071
0.590701818466 0.172813609242 0.752017974854 -0.003245 -0.109244 0.994010
0.684802830219 -0.458119362593 0.509083569050 0.642304 -0.304249 0.703476
0.682259500027 -0.418862015009 0.528388679028 0.666831 -0.290835 0.686113
0.615172684193 -0.125372424722 0.689224779606 -0.003838 -0.379975 0.924989
0.596288084984 -0.134172141552 0.685624301434 0.003838 -0.379975 0.924989
0.737911045551 -0.629479229450 0.371326714754 0.887384 -0.117469 0.445815
0.790872991085 0.100032024086 0.228536605835 0.001048 -0.076536 0.997066
0.814650952816 -0.502279281616 0.180796712637 0.001052 -0.081042 0.996710
0.827152252197 -0.765157759190 0.020426608622 0.001034 -0.998260 0.058965
0.854553699493 -0.542337179184 -0.435492217541 0.966129 -0.003600 -0.258034
0.849768102169 -0.357827961445 -0.456282407045 0.967776 -0.003580 -0.251789
0.843792617321 -0.181328386068 -0.478092283010 0.938428 -0.001256 -0.345472
0.838381290436 -0.318282127380 -0.491263598204 0.935020 -0.003786 -0.354576
0.852245509624 0.213606566191 -0.399474829435 0.985368 -0.001129 -0.170436
0.850966513157 0.371859967709 -0.385044038296 -0.001059 0.996132 0.087863
0.865462064743 0.318197548389 -0.312482744455 0.991465 -0.001096 -0.130369
0.872958958149 0.254922151566 -0.241586238146 0.995927 -0.001061 -0.090153
0.873645782471 0.255940794945 -0.233836621046 0.996132 -0.001059 -0.087863
0.869487226009 0.353029400110 -0.109458409250 -0.001013 0.999371 0.035439
0.878046929836 0.274462163448 -0.147866711020 0.999511 -0.001009 -0.031266
0.875192761421 -0.024988859892 -0.211132317781 0.999505 -0.003032 -0.031329
0.877019464970 0.056991443038 -0.163409605622 0.999505 -0.003032 -0.031329
0.876708924770 0.012464098632 -0.075110986829 0.999876 -0.004984 0.014953
0.868706941605 -0.124079778790 0.020382968709 0.994742 -0.016307 0.101105
0.847885489464 -0.158204585314 0.110996447504 0.909963 -0.035867 0.413136
0.830663681030 -0.246184378862 0.151028677821 0.982721 -0.019678 0.184043
0.822581231594 -0.339636296034 0.182332664728 0.979424 -0.022286 0.200577
0.847029387951 -0.591549992561 0.071617677808 0.911102 -0.046689 0.409529
0.847959220409 -0.657276272774 0.061759606004 0.943211 -0.039782 0.329803
0.862622916698 -0.584556221962 0.010531367734 0.989661 -0.025955 0.141058
0.864054441452 -0.747412383556 -0.020943256095 0.990645 -0.018986 0.135139
0.867447555065 -0.514094948769 -0.014670722187 0.992660 -0.014323 0.120089
0.836000084877 -0.545847773552 0.100771561265 0.910773 -0.041217 0.410845
0.838693380356 -0.451968967915 0.103967294097 0.909317 -0.041272 0.414052
0.865852892399 -0.221680328250 0.032214090228 0.992457 -0.012090 0.121996
0.872305393219 -0.192409113050 -0.024991411716 0.996757 -0.011677 0.079613
0.873925566673 -0.484816193581 -0.091090798378 0.999831 -0.007006 0.017014
0.873966515064 -0.496805787086 -0.178412765265 0.999426 -0.005073 -0.033483
0.875443458557 -0.393094092607 -0.147117689252 0.999864 -0.006978 0.014953
0.875704765320 -0.302555352449 -0.126644343138 0.999864 -0.006978 0.014953
0.872929096222 -0.039620671421 -0.014737680554 0.997462 -0.009480 0.070570
0.876083254814 -0.141393855214 -0.087238274515 0.999864 -0.006978 0.014953
0.875542461872 -0.200732022524 -0.175438374281 0.999429 -0.005063 -0.033416
0.874555051327 -0.340188205242 -0.185579583049 0.999429 -0.005063 -0.033416
0.867787957191 -0.492957592010 -0.271040588617 0.995021 -0.003213 -0.099609
0.870730161667 -0.658275246620 -0.235714495182 0.995000 -0.003220 -0.099822
0.869302511215 -0.747452378273 -0.248380199075 0.996116 0.001061 -0.088049
0.861610174179 -0.695487976074 -0.319465637207 0.992018 -0.003288 -0.126057
0.862996637821 -0.596547186375 -0.311296552420 0.989726 -0.001108 -0.142973
0.862719178200 -0.424469053745 -0.317352741957 0.989676 -0.003332 -0.143286
0.870715141296 -0.338033705950 -0.248021245003 0.995428 -0.005358 -0.095364
0.870748996735 -0.314751744270 -0.248582124710 0.995457 -0.003208 -0.095162
0.875266075134 -0.187869250774 -0.185850232840 0.999494 -0.005063 -0.031392
0.867480814457 -0.212160274386 -0.286771446466 0.995675 -0.003202 -0.092844
0.869399368763 -0.024442598224 -0.274163156748 0.995694 -0.003195 -0.092647
0.872438311577 0.062135621905 -0.244013592601 0.995906 -0.003189 -0.090344
0.858673036098 -0.073602274060 -0.357366949320 0.990714 -0.005522 -0.135850
0.864776730537 -0.316156327724 -0.306303292513 0.990382 -0.003320 -0.138321
0.858463466167 -0.437140941620 -0.346831321716 0.990330 -0.005545 -0.138624
0.850919842720 -0.120623208582 -0.401343911886 0.984778 -0.003408 -0.173784
0.855121672153 -0.194390535355 -0.375703901052 0.984846 -0.003400 -0.173396
0.855472743511 -0.029632143676 -0.377351731062 0.984846 -0.003400 -0.173396
0.862752079964 0.144783109426 -0.332135379314 0.991097 -0.003300 -0.133100
0.850496947765 -0.043929725885 -0.405841708183 0.987305 -0.005629 0.158734
0.851127564907 -0.415462613106 -0.392637521029 0.984306 -0.005690 -0.176379
0.853064358234 -0.664536893368 -0.374948561192 0.984306 -0.005690 -0.176379
0.856572866440 -0.038993015885 -0.423438817263 0.933178 -0.008887 0.359305
0.853819549084 -0.487492084503 -0.426797777414 0.929579 -0.008926 0.368516
0.853470265865 -0.675707399845 -0.430615842342 0.922925 -0.009010 0.384874
0.855470597744 0.280615597963 -0.414336323738 0.936983 -0.006305 0.349319
0.843269705772 0.123892113566 0.027929909527 0.990340 0.016785 0.137640
0.635446608067 1.315135478973 0.586511611938 0.827933 0.121197 0.547575
0.612648844719 1.271399974823 0.631835997105 0.827502 0.133753 0.545299
0.762712836266 1.295523405075 0.329644560814 0.947352 0.087791 0.307922
0.758333861828 1.304363369942 0.339810997248 0.938693 0.094535 0.331539
0.740993857384 1.357329964638 0.371317178011 0.933073 0.103975 0.344332
0.728052079678 1.360899567604 0.391744434834 -0.001057 0.996331 -0.085581
0.810419797897 0.797270238400 0.265490472317 0.963291 0.028296 0.266966
0.798508584499 0.845403552055 0.283457159996 0.003146 -0.074451 0.997220
0.785695731640 0.866603672504 0.285036265850 -0.005255 -0.072516 0.997353
0.811716079712 0.672502458096 0.270534008741 -0.001049 -0.074451 0.997224
0.815729498863 0.602599322796 0.260895311832 0.969441 0.020473 0.244468
0.800796031952 0.529475986958 0.259810805321 -0.001047 -0.072214 0.997389
0.588199257851 0.931281566620 0.724918365479 0.716374 0.079920 0.693124
0.584571540356 1.081642746925 0.707488954067 0.735107 0.101648 0.670288
0.597646892071 1.057322502136 0.695554375648 0.789776 0.091631 0.606513
0.862617850304 0.356459558010 -0.112995728850 -0.007102 -0.999414 -0.033483
0.858673512936 0.359214454889 -0.166238814592 -0.007257 -0.998347 -0.057019
0.844278275967 0.491850137711 -0.477671980858 0.943559 0.003749 -0.331183
0.856234490871 0.672975063324 -0.411708801985 0.953706 -0.003682 0.300718
0.858585774899 0.706276655197 -0.356480449438 0.986960 0.003376 -0.160930
0.861782789230 0.559769034386 -0.339045375586 0.992052 0.003281 -0.125784
0.868001401424 0.634391546249 -0.287016272545 0.992903 0.005450 -0.118800
0.872036874294 0.611771166325 -0.243246257305 0.996489 0.003177 -0.083659
0.876356840134 0.737671732903 -0.161016821861 0.999356 0.005073 -0.035510
0.877479434013 0.610468089581 -0.077826082706 0.999730 0.003008 0.023063
0.877205491066 0.636400401592 -0.068924531341 0.999776 0.002996 0.020974
0.874125003815 0.679127991199 0.004586516414 0.998393 0.001030 0.056668
0.869703650475 0.562274813652 0.062855258584 0.995910 -0.001063 0.090344
0.865158796310 0.729195058346 0.110518932343 0.995256 0.001069 0.097281
0.853131234646 0.880313038826 0.150022506714 0.929597 0.006376 0.368523
0.836141407490 0.896201908588 0.185504972935 0.863789 0.009404 0.503765
0.831551611423 0.811714768410 0.195584520698 0.880921 0.011994 0.473112
0.818436026573 0.957667648792 0.212883159518 0.832587 0.015039 0.553691
0.789189577103 1.204075932503 0.270830661058 0.961144 0.061887 0.269019
0.813554406166 0.943121552467 0.228627264500 0.978706 0.039339 0.201463
0.824544966221 0.791951775551 0.209724694490 0.971025 0.042642 0.235142
0.826322495937 0.756569206715 0.208353012800 0.971719 0.017928 0.235460
0.822687327862 0.616918861866 0.233055904508 0.963205 0.013361 0.268434
0.841770529747 0.372757166624 0.165915384889 0.911622 -0.019675 0.410558
0.860180079937 0.528925240040 0.125485792756 0.961787 -0.010943 0.273580
0.865293323994 0.366817116737 0.099831685424 0.964818 -0.010895 0.262692
0.871704638004 0.361021816730 0.033808313310 0.995888 -0.003195 0.090535
0.874113917351 0.454230427742 0.003661744297 0.998124 -0.003109 0.061152
0.878138005733 0.461386322975 -0.092999063432 0.999735 0.001001 0.023017
0.878498196602 0.495972514153 -0.129805356264 0.999367 0.003038 -0.035439
0.877765595913 0.480337470770 -0.152126997709 0.999367 0.003038 -0.035439
0.874529898167 0.497723907232 -0.218408674002 0.996286 0.005305 -0.085942
0.874377787113 0.545575737953 -0.218271821737 0.996504 0.003170 -0.083482
0.869192779064 0.485324382782 -0.282318353653 0.991705 0.003295 -0.128493
0.843142867088 0.738509893417 0.173874154687 0.904368 -0.003915 0.426736
0.843083143234 1.098261713982 0.168972477317 0.924692 0.014186 0.380452
0.855452418327 0.995805799961 0.141911491752 0.930426 0.011487 0.366299
0.869833886623 0.950224518776 0.055136062205 0.995232 0.003214 0.097488
0.872058808804 1.106283545494 0.015594189987 0.997507 0.015867 0.068757
0.877418518066 0.896046638489 -0.104203909636 0.999815 0.002996 0.018978
0.876441121101 0.890564501286 -0.054947748780 0.999780 0.000999 0.020974
0.874766826630 0.966290652752 -0.173896908760 0.998940 0.001022 -0.046011
0.861457586288 1.224157691002 0.072708562016 0.982330 0.053452 0.179361
0.838964402676 1.293311595917 0.127591773868 0.001275 0.926619 -0.376001
0.871527373791 0.886626780033 -0.236916616559 0.996874 0.003158 -0.078950
0.875427484512 0.828461945057 -0.170666679740 0.999341 0.007116 -0.035582
0.866128444672 0.844086408615 -0.294822305441 0.992653 0.003269 -0.120949
0.858232736588 0.750782489777 -0.357304394245 0.986892 0.005639 -0.161286
0.852452456951 0.753054797649 -0.393088936806 0.988993 0.001112 -0.147960
0.858609259129 0.657218694687 -0.422040998936 0.973826 0.003533 -0.227265
0.850241482258 0.706140398979 -0.457189053297 0.973826 0.003533 -0.227265
0.877430737019 1.085382819176 -0.190511018038 -0.001364 0.816854 -0.576843
0.862787187099 0.943662762642 -0.319537609816 0.993778 -0.023111 -0.108952
0.832304835320 0.829756557941 -0.495797663927 -0.001207 0.273924 -0.961751
0.843277871609 1.135622143745 0.039947785437 0.994175 -0.009757 0.107332
0.820593953133 0.385094374418 0.246506571770 0.974582 0.003518 0.224001
0.795931339264 0.385896027088 0.296019434929 0.960982 -0.008526 0.276480
0.593503117561 0.574728012085 0.749312818050 0.823095 0.034818 0.566835
-0.874080181122 0.113693177700 0.010131888092 -0.078618 -0.094569 -0.992409
-0.862882137299 0.126356586814 0.068362429738 0.077397 -0.155984 0.984723
-0.861613571644 1.122095942497 0.051859460771 -0.107561 0.011951 -0.994127
-0.839567601681 -0.295373141766 0.117108419538 -0.909873 -0.038520 0.413095
-0.861544013023 0.350374698639 0.001294895075 0.000981 0.999987 0.004907
-0.864176154137 0.352197378874 -0.091697856784 -0.001012 0.999298 0.037461
-0.867545843124 0.357972115278 -0.206115975976 0.001045 0.997548 0.069985
-0.846268355846 0.363410443068 -0.283909708261 0.001042 0.997558 0.069839
-0.838903367519 -0.141185671091 -0.491770386696 -0.935020 -0.003786 -0.354576
-0.840174019337 -0.541648864746 -0.484214484692 -0.933535 -0.003800 -0.358467
-0.808102965355 -0.693535029888 -0.484081029892 -0.001371 -0.604596 -0.796531
-0.849995076656 -0.605430424213 -0.451576113701 -0.966129 -0.003600 -0.258034
-0.854872584343 -0.574842453003 -0.433815300465 -0.966288 -0.003592 -0.257437
-0.850677311420 -0.168020308018 -0.411041945219 -0.929579 -0.008926 0.368516
-0.847681343555 -0.659043967724 -0.404611438513 -0.983762 -0.005713 -0.179385
-0.849614858627 -0.450725167990 -0.400175541639 -0.984306 -0.005690 -0.176379
-0.855709493160 0.170712843537 -0.416378706694 -0.936674 -0.006320 0.350147
-0.852343797684 0.304843336344 -0.452133536339 -0.970072 -0.001184 -0.242814
-0.850768744946 -0.089212991297 -0.403509467840 -0.984778 -0.003408 -0.173784
-0.862544894218 -0.368595957756 -0.320601612329 -0.990330 -0.005545 -0.138624
-0.858933866024 -0.524072766304 -0.340848714113 -0.989676 -0.003332 -0.143286
-0.860673308372 -0.669552683830 -0.326259285212 -0.989726 -0.001108 -0.142973
-0.872029721737 -0.751268148422 -0.205377712846 -0.998822 -0.005133 -0.048247
-0.873664319515 -0.695451021194 -0.148354411125 -0.999972 -0.006896 -0.002956
-0.873257160187 -0.560674250126 -0.189606174827 -0.999426 -0.005073 -0.033483
-0.873555898666 -0.382370322943 -0.209982380271 -0.999426 -0.005073 -0.033483
-0.867139577866 -0.545540213585 -0.275702893734 -0.995000 -0.003220 -0.099822
-0.865754306316 -0.446944177151 -0.294364273548 -0.995428 -0.005358 -0.095364
-0.869749486446 -0.321535706520 -0.259221434593 -0.995457 -0.003208 -0.095162
-0.869615435600 -0.091034509242 -0.270365536213 -0.995666 -0.005336 -0.092843
-0.859360516071 -0.156393975019 -0.350176453590 -0.990714 -0.005522 -0.135850
-0.851171076298 -0.064964741468 -0.401856958866 -0.984846 -0.003400 -0.173396
-0.858022689819 0.014771966264 -0.364133715630 -0.985297 -0.003394 -0.170815
-0.866469264030 0.163678348064 -0.305811405182 -0.991097 -0.003300 -0.133100
-0.862311422825 -0.008556552231 -0.332770138979 -0.990764 -0.003306 -0.135555
-0.868948638439 -0.034491550177 -0.279823094606 -0.995694 -0.003195 -0.092647
-0.871823608875 0.126437142491 -0.253981232643 -0.995906 -0.003189 -0.090344
-0.877251207829 0.022368095815 -0.155982047319 -0.999505 -0.003032 -0.031329
-0.875265300274 -0.214346528053 -0.184014096856 -0.999494 -0.005063 -0.031392
-0.875261068344 -0.291833221912 -0.172790288925 -0.999429 -0.005063 -0.033416
-0.876909434795 -0.107033632696 -0.121090047061 -0.999864 -0.006978 0.014953
-0.875808894634 -0.218913048506 -0.095635436475 -0.999864 -0.006978 0.014953
-0.874425828457 -0.538843095303 -0.141974613070 -0.999864 -0.006978 0.014953
-0.874183535576 -0.496769309044 -0.110159523785 -0.999831 -0.007006 0.017014
-0.872491419315 -0.687378883362 -0.102040387690 -0.999815 -0.009007 0.017014
-0.860897302628 -0.516432523727 0.033160585910 -0.989858 -0.021348 0.140445
-0.867483615875 -0.285524845123 0.012614907697 -0.992457 -0.012090 0.121996
-0.872069001198 -0.300315260887 -0.035905111581 -0.996757 -0.011677 0.079613
-0.875338733196 -0.125330120325 -0.057849064469 -0.997490 -0.007358 0.070423
-0.877365529537 0.215639963746 -0.054908018559 -0.999852 -0.002985 0.016913
-0.878309845924 0.336328744888 -0.091621942818 -0.999816 -0.002990 0.018940
-0.877513170242 0.355274915695 -0.174631968141 -0.999511 -0.001009 -0.031266
-0.873625159264 0.322503775358 -0.236140310764 -0.996132 -0.001059 -0.087863
-0.874258875847 0.209141269326 -0.228521049023 -0.995927 -0.001061 -0.090153
-0.865101099014 0.200696945190 -0.316353052855 -0.991141 -0.001098 -0.132811
-0.860388636589 0.224806338549 -0.351944476366 -0.991465 -0.001096 -0.130369
-0.858221054077 0.224769860506 -0.365926533937 -0.985368 -0.001129 -0.170436
-0.845768928528 0.196400299668 0.013217344880 -0.994485 -0.005399 0.104739
-0.873059213161 0.133594304323 -0.027643613517 -0.557745 0.403090 0.725562
-0.871578097343 -0.024880867451 0.005931247957 -0.994675 -0.009720 0.102600
-0.843847155571 0.241291075945 0.035056792200 -0.272489 -0.910724 -0.310375
-0.852475464344 0.238688454032 0.044489517808 -0.375697 -0.579131 -0.723504
-0.843394577503 -0.762757182121 0.048064738512 0.003226 -0.994541 0.104292
-0.855828404427 -0.345630586147 0.072763957083 -0.950380 -0.034077 0.309220
-0.854538619518 -0.553965985775 0.055010788143 -0.943519 -0.031833 0.329786
-0.835599303246 -0.392723888159 0.116605021060 -0.909317 -0.041272 0.414052
-0.816329181194 -0.732765436172 0.161206841469 -0.978211 -0.032014 0.205128
-0.831259489059 -0.331065297127 0.139169782400 -0.982594 -0.022042 0.184454
-0.831250607967 -0.312309443951 0.141246199608 -0.982721 -0.019678 0.184043
-0.839950442314 0.253751873970 0.162286922336 -0.909581 -0.030452 0.414409
-0.852630972862 0.030156439170 0.116964407265 -0.909045 -0.033177 0.415374
-0.844270348549 -0.112000614405 0.123220250010 -0.908499 -0.035914 0.416340
-0.823568463326 -0.720954716206 0.128073945642 -0.982678 -0.029142 0.183014
-0.849611163139 0.110706835985 0.130231037736 -0.909045 -0.033177 0.415374
-0.831457257271 -0.040861584246 0.167721286416 -0.981229 -0.017460 0.192055
-0.828228473663 -0.134182453156 0.175109609962 -0.981186 -0.019787 0.192047
-0.821515321732 -0.348163187504 0.186820581555 -0.979424 -0.022286 0.200577
-0.801261782646 -0.165710031986 0.207883507013 0.001050 -0.078785 0.996891
-0.817587256432 0.033205568790 0.223416864872 0.001048 -0.076536 0.997066
-0.809957325459 0.348241329193 0.247112900019 -0.124559 -0.053709 0.990757
-0.713519275188 0.351668030024 0.532309114933 -0.927854 0.003818 0.372924
-0.656310260296 0.372295826674 0.652945637703 -0.869274 0.009376 0.494241
-0.608313798904 0.129353299737 0.717642962933 0.003251 0.111620 -0.993746
-0.636458814144 -0.107178449631 0.661146640778 0.001264 0.357624 -0.933865
-0.739356637001 -0.611054360867 0.373936235905 -0.879310 -0.136718 0.456205
-0.731732130051 -0.621762394905 0.385651171207 -0.887384 -0.117469 0.445815
-0.765862941742 -0.704842686653 0.295499742031 -0.898522 -0.110738 0.424730
-0.670943737030 -0.493673145771 0.486632764339 0.001352 -0.539322 0.842099
-0.573826014996 0.404079765081 0.764414787292 -0.001001 -0.023017 0.999735
-0.601194024086 0.252186149359 0.745808184147 -0.795806 -0.009654 0.605475
-0.598132371902 0.319059997797 0.750850498676 -0.795806 0.009654 0.605475
-0.734433293343 -0.677042603493 0.358320146799 0.001379 -0.762653 0.646807
-0.833777010441 0.196234613657 0.176917046309 -0.979187 -0.015208 0.202389
-0.832295298576 0.151427254081 0.180488303304 -0.979053 -0.017588 0.202846
-0.826853573322 0.117100864649 0.203649252653 -0.978010 -0.017611 0.207812
-0.822449564934 -0.235393136740 0.193575680256 -0.977864 -0.020004 0.208282
-0.877390980721 -0.064346931875 -0.135771900415 -0.999844 -0.004984 0.016947
-0.876811563969 -0.045794785023 -0.092602707446 -0.999876 -0.004984 0.014953
-0.873511731625 -0.394938528538 -0.066049739718 -0.996780 -0.009554 0.079615
-0.811699032784 0.781580805779 0.263555616140 -0.963291 0.028296 0.266966
-0.830987632275 1.067015767097 0.191763579845 -0.846941 0.012235 0.531547
-0.843644082546 1.031654596329 0.170996427536 -0.924692 0.014186 0.380452
-0.858719646931 1.104735851288 0.122989393771 -0.992711 0.030015 0.116724
-0.837554693222 1.082463383675 0.090983107686 -0.301424 -0.003691 -0.953483
-0.856587409973 1.170555949211 0.048538796604 -0.402815 -0.856560 0.322560
-0.842781186104 1.280764460564 0.098461665213 0.001307 0.897798 -0.440405
-0.857275068760 1.245538711548 0.092887721956 -0.984528 0.050459 0.167804
-0.748213589191 1.225315451622 0.361480474472 0.001381 -0.747332 0.664449
-0.762863397598 1.303741812706 0.327974170446 -0.947352 0.087791 0.307922
-0.771809518337 1.220641851425 0.322987735271 -0.962993 0.085232 0.255696
-0.776729285717 1.268434405327 0.293933540583 -0.944790 0.077313 0.318424
-0.800343155861 1.137053489685 0.245941892266 -0.972500 0.055047 0.226305
-0.796327888966 1.185303688049 0.250254631042 -0.963474 0.064064 0.260025
-0.791886031628 1.062351465225 0.297143787146 -0.965391 0.061196 0.253525
-0.731218874454 1.355623602867 0.358562290668 0.001122 0.986665 -0.162760
-0.653577744961 1.358976483345 0.520067870617 -0.001110 0.989041 0.147635
-0.734499990940 1.319195866585 0.399683117867 -0.917342 0.100099 0.385311
-0.748685121536 1.276934504509 0.375539332628 -0.933073 0.103975 0.344332
-0.620642721653 1.264825582504 0.621865332127 -0.827502 0.133753 0.545299
-0.611224114895 0.477411299944 0.692866802216 -0.001055 0.996523 -0.083307
-0.800083696842 0.838062226772 0.282923132181 -0.003146 -0.074451 0.997220
-0.778210401535 0.908966422081 0.288127750158 0.005255 -0.072516 0.997353
-0.824115514755 0.938548624516 0.205281451344 -0.832587 0.015039 0.553691
-0.839067041874 0.839360833168 0.181914567947 -0.863789 0.009404 0.503765
-0.860533416271 0.763503670692 0.129916533828 -0.949175 0.001234 0.314746
-0.864107906818 0.845417380333 0.114895746112 -0.992481 0.009892 0.121999
-0.868310868740 0.815753877163 0.078899666667 -0.995232 0.003214 0.097488
-0.871508955956 0.859088122845 0.044786598533 -0.996086 0.005315 0.088234
-0.874418556690 0.864603042603 0.002554042265 -0.998393 0.001030 0.056668
-0.876255869865 0.925128698349 -0.034634493291 -0.999780 0.000999 0.020974
-0.877802550793 0.850463628769 -0.104174569249 -0.999820 0.000997 0.018940
-0.856444597244 0.996170639992 -0.317950844765 -0.004092 0.822480 -0.568780
-0.837814807892 0.956128656864 -0.376542299986 -0.009570 0.827143 -0.561910
-0.818293571472 0.790734112263 -0.502721667290 0.009647 0.091111 -0.995794
-0.818608283997 0.390687823296 -0.495228707790 0.003356 -0.987830 -0.155502
-0.849018514156 0.656555533409 -0.463704705238 -0.972119 0.001178 -0.234487
-0.858233809471 0.905051469803 -0.421707272530 -0.973948 0.003525 -0.226745
-0.858880579472 0.496547490358 -0.421250492334 -0.953706 -0.003682 0.300718
-0.854820609093 0.506227493286 -0.383826136589 -0.986179 0.001127 -0.165678
-0.858853101730 0.488894611597 -0.359796911478 -0.986600 0.003375 -0.163121
-0.854093432426 0.682548880577 -0.385840713978 -0.986605 0.001125 -0.163122
-0.855802953243 0.744230091572 -0.373956739902 -0.986892 0.005639 -0.161286
-0.861288785934 0.623623609543 -0.342895746231 -0.986960 0.003376 -0.160930
-0.862983703613 0.901640355587 -0.321313291788 -0.992913 0.003270 -0.118801
-0.872000157833 0.777075648308 -0.237448602915 -0.996878 0.001053 -0.078950
-0.873977363110 0.640303611755 -0.220589369535 -0.996852 0.005274 -0.079115
-0.877192080021 0.375428736210 -0.183399513364 -0.999367 0.003038 -0.035439
-0.878269851208 0.540286004543 -0.138715088367 -0.999367 0.003038 -0.035439
-0.877281486988 0.559687495232 -0.164896726608 -0.999356 0.005073 -0.035510
-0.875947415829 0.745652794838 -0.179240688682 -0.999356 0.005073 -0.035510
-0.875787556171 0.809617578983 -0.171971410513 -0.999341 0.007116 -0.035582
-0.876189529896 0.954100549221 -0.150051012635 -0.998940 0.001022 -0.046011
-0.879283070564 1.082007288933 -0.180759936571 -0.993655 -0.095436 0.059507
-0.877365708351 0.553894162178 -0.056535296142 -0.999730 0.003008 0.023063
-0.878204882145 0.394913583994 -0.084822654724 -0.999686 0.001001 0.025017
-0.860528409481 0.358544856310 -0.157778516412 0.007257 -0.998347 -0.057019
-0.876662492752 0.377854466438 -0.036955051124 -0.998124 -0.003109 0.061152
-0.874550759792 0.560697138309 0.001327952836 -0.998393 -0.001030 0.056668
-0.876588463783 0.585384547710 -0.034168712795 -0.998393 0.001030 0.056668
-0.877095043659 0.595668554306 -0.048688597977 -0.999780 0.000999 0.020974
-0.871563792229 0.635022342205 0.046404309571 -0.995910 -0.001063 0.090344
-0.870403707027 0.515638172626 0.056282237172 -0.995888 -0.003195 0.090535
-0.871196687222 0.481298923492 0.046312525868 -0.995888 -0.003195 0.090535
-0.865994751453 0.651845753193 0.105075359344 -0.995256 0.001069 0.097281
-0.854169666767 0.437404453754 0.141862407327 -0.916251 -0.019550 0.400127
-0.859402358532 0.723980367184 0.133096858859 -0.949911 -0.001235 0.312519
-0.857293546200 0.383191466331 0.130789533257 -0.961787 -0.010943 0.273580
-0.835493206978 0.662199497223 0.189064443111 -0.882162 -0.003980 0.470929
-0.824594080448 0.413864403963 0.229639813304 -0.974582 0.003518 0.224001
-0.823186993599 0.537655472755 0.236295208335 -0.969926 -0.003562 0.243372
-0.785189449787 0.416772156954 0.334945023060 -0.960982 -0.008526 0.276480
-0.764884948730 0.381997376680 0.376726150513 0.003251 -0.993746 0.111620
-0.673982679844 0.465731382370 0.614482223988 -0.899323 0.009190 0.437189
-0.623713791370 0.438168436289 0.708126068115 -0.868314 0.020256 0.495601
-0.877069115639 1.131634116173 -0.062599420547 -0.998085 0.015743 0.059822
-0.873026132584 1.089126110077 0.010618801229 -0.997507 0.015867 0.068757
0.556543171406 1.526458024979 0.623650074005 -0.196952 -0.960965 -0.194308
0.006387474015 1.600437402725 0.661081612110 -0.030436 -0.967876 -0.249578
-0.065560206771 1.591035962105 0.690327942371 0.030436 -0.967876 -0.249578
0.015792004764 1.624078273773 0.689861953259 0.007117 0.033551 0.999412
0.245025172830 1.664117813110 0.683574676514 0.042699 0.026036 0.998749
0.183917179704 1.651541471481 0.686269342899 0.023623 0.027731 0.999336
0.322531640530 1.652185797691 0.679795324802 0.073889 0.024630 0.996962
0.385527431965 1.627140879631 0.676000237465 0.124383 0.032496 0.991702
0.334718614817 1.594042420387 0.680490016937 0.067343 0.028861 0.997312
0.479941397905 1.556645512581 0.664789736271 0.247201 0.045505 0.967895
0.519896864891 1.586377024651 0.647612154484 0.454893 0.044810 0.889418
0.407918930054 1.582969546318 0.645087063313 -0.075560 0.171509 -0.982281
0.291879892349 1.633291840553 0.659456968307 -0.040789 0.168985 -0.984774
0.233846575022 1.664786338806 0.665800213814 -0.017138 0.165672 -0.986032
0.241684406996 1.601740002632 0.655158042908 -0.021764 0.163803 -0.986253
0.154326513410 1.711149096489 0.674417018890 -0.005627 0.160928 -0.986950
0.120242133737 1.672416090965 0.668368399143 -0.010158 0.156882 -0.987565
0.067285634577 1.658466458321 0.666456460953 -0.001119 0.155503 -0.987835
0.028453649953 1.631062507629 0.662250578403 -0.003357 0.153318 -0.988171
-0.117846235633 1.604972839355 0.689162790775 -0.023670 0.029844 0.999274
-0.178053304553 1.704594135284 0.684857070446 -0.021525 0.027675 0.999385
-0.074809081852 1.717552304268 0.679784357548 -0.028469 0.959291 -0.280980
-0.044519856572 1.683489084244 0.670425415039 0.001119 0.155503 -0.987835
-0.129213020205 1.693320870399 0.671753048897 0.005618 0.156191 -0.987711
-0.173155531287 1.600593209267 0.656368792057 0.010196 0.162002 -0.986738
-0.270399093628 1.653968095779 0.663464069366 0.021805 0.166407 -0.985816
-0.256388336420 1.577890753746 0.678110182285 0.108357 -0.967569 -0.228188
-0.212869524956 1.693433642387 0.684227287769 -0.040620 0.026038 0.998835
-0.274603754282 1.688109278679 0.681717693806 -0.042788 0.026090 0.998743
-0.368617802858 1.651161670685 0.676609992981 -0.074197 0.029034 0.996821
-0.441668331623 1.553190588951 0.671856999397 -0.114776 0.032315 0.992866
-0.437167346478 1.621464610100 0.670014083385 -0.125198 0.037221 0.991433
-0.465982466936 1.594846963882 0.642107784748 0.128190 0.170505 -0.976983
-0.493464350700 1.632984876633 0.644819557667 0.153149 0.170869 -0.973319
-0.517883896828 1.616907835007 0.637410342693 0.194860 0.181782 -0.963839
-0.521321713924 1.547919988632 0.622003734112 0.229728 0.210697 -0.950175
-0.523622870445 1.532354474068 0.622154891491 0.284586 -0.958147 -0.031068
-0.567092418671 1.555824637413 0.616966307163 -0.707101 0.004151 0.707101
0.455091953278 1.330479025841 0.713099122047 0.146410 0.216376 0.965270
0.437648147345 1.432351589203 0.692337930202 0.123819 0.248941 0.960571
0.353311449289 1.561293482780 0.665884256363 0.171359 0.980754 0.093579
0.128173023462 1.588678956032 0.659815967083 0.067339 0.991821 0.108427
-0.390132218599 1.498160958290 0.684440553188 -0.141444 0.224494 0.964156
-0.452617973089 1.185787200928 0.738519370556 -0.085048 0.120000 0.989124
-0.455443203449 1.117340803146 0.748229086399 -0.028391 0.144226 0.989137
-0.405514359474 1.027098536491 0.761346995831 -0.040518 0.086511 0.995427
