0.266207396984 -1.053443908691 0.244384050369 0.150135 -0.988665 0.001112
0.229974299669 -1.050015807152 0.221600726247 -0.042447 0.330568 -0.942827
0.272624343634 -1.011577725410 0.233148381114 -0.042344 0.329768 -0.943112
0.409489512444 -0.996373653412 0.226218119264 -0.117155 0.324534 -0.938591
0.164832636714 -1.009130477905 0.240068688989 -0.052124 0.404966 -0.912845
0.244116410613 -1.030718564987 0.274194896221 0.049255 -0.395368 0.917201
-0.005702577531 -1.004552602768 0.244996815920 -0.001291 0.409130 -0.912475
-0.133555799723 -1.007103443146 0.275559931993 0.000978 -0.000978 0.999999
-0.247014135122 -1.033183336258 0.273799926043 -0.049135 -0.394405 0.917622
-0.259535700083 -0.987756073475 0.245014131069 0.052124 0.404966 -0.912845
-0.022366102785 -1.071621656418 0.226525843143 -0.016879 -0.999857 -0.000993
-0.090823583305 -1.009833216667 0.275559931993 -0.000978 -0.000978 0.999999
-0.541993856430 -0.993742108345 0.257639706135 -0.148588 -0.309444 0.939237
-0.614433705807 -0.775788307190 0.359987437725 -0.449332 -0.492126 0.745595
-0.597430169582 -0.596480250359 0.488405555487 -0.482432 -0.482432 0.731108
-0.626611590385 -0.641845583916 0.438949823380 -0.518847 -0.459172 0.721082
-0.468714386225 -0.140516921878 0.709869086742 0.411011 0.143641 -0.900243
-0.389011174440 -0.149943158031 0.735559999943 0.275852 0.154746 -0.948662
-0.362973630428 -0.130393743515 0.746351838112 0.277150 0.158178 -0.947717
-0.010771211237 -0.129001021385 0.782130777836 -0.003387 0.168242 -0.985740
0.110274627805 -0.146756187081 0.776466846466 -0.038389 0.166353 -0.985319
0.211619108915 -0.117440670729 0.771837890148 -0.122200 0.164168 -0.978834
0.468716442585 0.194401457906 0.730264365673 -0.424026 0.060962 -0.903596
0.407282263041 0.016520814970 0.741767823696 -0.327293 0.063894 -0.942760
0.396280795336 -0.080994144082 0.738779127598 -0.324108 0.066384 -0.943688
0.370527267456 0.034528214484 0.754849076271 -0.281660 0.067547 -0.957134
0.227630376816 0.029288334772 0.782366633415 -0.123868 0.070616 -0.989783
0.155953451991 0.022793592885 0.790889739990 -0.123847 0.072919 -0.989618
0.140493094921 -0.002445103368 0.790620505810 -0.037875 0.072503 -0.996649
0.112793169916 -0.092532366514 0.785113811493 -0.037875 0.072503 -0.996649
0.007976692170 -0.088022813201 0.788150608540 -0.003146 0.072365 -0.997373
0.009442590177 0.095763847232 0.801636457443 -0.003146 0.072365 -0.997373
0.053756352514 0.176679477096 0.807127594948 -0.037875 0.072503 -0.996649
0.090765297413 0.202961593866 0.807602822781 -0.040036 0.072497 -0.996565
0.151909604669 0.097119882703 0.796809613705 -0.123847 0.072919 -0.989618
0.256192982197 0.165383771062 0.788582444191 -0.126436 0.070758 -0.989448
0.345644444227 0.143153995275 0.769894301891 -0.282349 0.067713 -0.956919
0.361541301012 0.161591455340 0.766455173492 -0.284698 0.067664 -0.956226
-0.052668720484 0.034679830074 0.797338902950 -0.003146 0.072365 -0.997373
-0.040135305375 0.109689712524 0.802808880806 -0.003146 0.072365 -0.997373
-0.136029437184 0.145813569427 0.802417397499 0.040122 0.072654 -0.996550
-0.156447827816 0.140260070562 0.801197648048 0.040122 0.072654 -0.996550
-0.150501057506 -0.070248335600 0.786036312580 0.040036 0.072497 -0.996565
-0.170571655035 -0.044420342892 0.786063313484 0.126415 0.073065 -0.989283
-0.262744009495 -0.016303531826 0.776501655579 0.123868 0.070616 -0.989783
-0.312880575657 0.009281972423 0.770685970783 0.168444 0.070484 -0.983188
-0.328861832619 -0.078424468637 0.761703610420 0.168049 0.070319 -0.983267
-0.393297523260 -0.035235214978 0.747295200825 0.281660 0.067547 -0.957134
-0.541334807873 -0.080937445164 0.685026347637 0.543135 0.054735 -0.837859
-0.564761400223 -0.096372321248 0.678207516670 0.001071 0.099610 -0.995026
-0.616120815277 -0.226177528501 0.660611033440 -0.670362 -0.192633 0.716594
-0.619214236736 0.005846462213 0.687492072582 -0.684741 -0.044131 0.727449
-0.596146225929 0.013773802668 0.687034428120 0.001001 0.025017 -0.999686
-0.526790261269 0.069303028286 0.704487144947 0.548356 0.054695 -0.834455
-0.397671699524 0.109657138586 0.756178438663 0.284698 0.067664 -0.956226
-0.291023373604 0.101084910333 0.781047224998 0.171166 0.070621 -0.982708
-0.224675342441 0.111624062061 0.790567100048 0.126146 0.070596 -0.989497
-0.214018613100 0.198876827955 0.798301339149 0.126415 0.073065 -0.989283
-0.602715969086 0.248483240604 0.692692101002 0.001001 0.025017 -0.999686
-0.619970619678 0.074207440019 0.688483357430 0.001001 0.025017 -0.999686
-0.624171972275 0.229606360197 0.692229390144 0.001001 0.025017 -0.999686
-0.602843940258 0.491226732731 0.721507668495 -0.697319 -0.006932 0.716727
-0.603428423405 0.629159688950 0.722140431404 -0.700124 -0.006932 0.713988
-0.648007750511 -1.041102528572 0.200854912400 -0.604102 -0.246348 0.757874
-0.549772322178 -1.295212268829 0.089574940503 0.334214 0.383499 -0.860947
-0.579300403595 -1.222904801369 0.109650537372 0.297164 0.341962 -0.891491
-0.514178276062 -1.090587735176 0.179646655917 0.174617 0.362010 -0.915673
-0.508162796497 -1.093025922775 0.191105082631 0.999987 -0.004907 0.000981
-0.521411657333 -1.174174547195 0.198035031557 -0.161626 -0.355577 0.920566
-0.556767463684 -1.232179999352 0.169413164258 -0.167260 -0.352792 0.920631
-0.619760811329 -1.251126408577 0.144308865070 -0.292972 -0.331639 0.896763
-0.623038887978 -1.227733850479 0.151041805744 -0.421677 -0.304287 0.854165
-0.523662209511 -1.372910737991 0.059301149100 0.000989 0.010880 -0.999940
-0.541333436966 -1.405368447304 0.058910075575 0.000989 0.010880 -0.999940
-0.557918190956 -1.397469758987 0.096616536379 -0.247395 -0.549248 0.798199
-0.523943364620 -1.331698775291 0.136407881975 -0.180800 -0.400653 0.898214
-0.515153944492 -1.130130171776 0.163780897856 0.171240 0.363708 -0.915638
-0.632351219654 -1.357885599136 0.059346072376 0.000989 0.010880 -0.999940
-0.510527253151 -1.075366139412 0.235684961081 -0.145920 -0.309568 0.939614
-0.507865607738 -1.024273633957 0.223100975156 0.999987 -0.004907 -0.000981
-0.353401929140 -1.007046580315 0.275559782982 0.000978 0.000978 0.999999
0.325176537037 -0.964106261730 0.274110734463 -0.141237 0.801336 0.581303
0.548801898956 -1.196680903435 0.182148784399 0.161209 -0.354659 0.920993
0.697171807289 -1.091651797295 0.094589732587 0.975293 -0.012972 0.220532
0.708971798420 -0.936650216579 0.052636209875 0.988051 -0.035492 0.149982
0.710492312908 -0.884499728680 0.050407510251 0.991746 0.001096 0.128215
0.712929010391 -0.813472032547 0.012855201028 0.998603 -0.024050 0.047055
0.689072132111 -0.981875717640 0.135574474931 0.974029 -0.013019 0.226050
0.484287261963 -0.206206887960 0.729847013950 0.381669 -0.250981 0.889571
0.484571129084 0.757190465927 0.775800406933 0.410474 0.049471 0.910529
0.435767918825 1.065086841583 0.775854945183 0.319521 0.060800 0.945627
0.341011613607 1.083623766899 0.803574681282 0.274402 0.059433 0.959777
0.333237141371 1.043092012405 0.807665824890 0.163910 0.060140 0.984640
0.264761000872 1.111650824547 0.814248740673 0.120008 0.060575 0.990923
0.259365051985 1.182105183601 0.810659348965 0.120008 0.060575 0.990923
0.153193607926 1.080552339554 0.829712867737 0.120008 0.060575 0.990923
0.081769339740 1.154164671898 0.828340470791 0.037422 0.058806 0.997568
0.051404442638 1.102787017822 0.832562625408 0.037422 0.058806 0.997568
-0.026950402185 0.911127924919 0.844426929951 0.003110 0.059086 0.998248
-0.013305054046 0.963856339455 0.841237187386 0.003110 0.059086 0.998248
-0.058379180729 0.995606660843 0.839466273785 0.003110 0.059086 0.998248
-0.001292105764 1.143280386925 0.830479621887 0.003110 0.059086 0.998248
-0.100862808526 1.126704454422 0.830120742321 -0.037422 0.058806 0.997568
-0.091146051884 1.211639881134 0.824933886528 -0.038782 0.103049 0.993920
-0.090621590614 1.293478846550 0.816466987133 -0.038782 0.103049 0.993920
-0.165089964867 1.206275224686 0.822515189648 -0.121776 0.102859 0.987213
-0.288908571005 1.048975229263 0.817038893700 -0.122537 0.060696 0.990606
-0.326815336943 1.104558825493 0.807589590549 -0.163910 0.060140 0.984640
-0.325908392668 1.151427626610 0.804900825024 -0.163910 0.060140 0.984640
-0.370461404324 1.019280076027 0.803558230400 -0.276739 0.059391 0.959108
-0.366337686777 0.909176826477 0.811472415924 -0.276739 0.059391 0.959108
-0.417033016682 0.849730789661 0.800261259079 -0.277207 0.048919 0.959564
-0.357671856880 0.773490786552 0.821291804314 -0.277207 0.048919 0.959564
-0.398907899857 0.557100892067 0.810429871082 -0.275483 -0.018366 0.961130
-0.410888701677 0.457900673151 0.805234074593 -0.275495 -0.015917 0.961171
-0.406445503235 0.396299004555 0.805413603783 -0.275483 -0.018366 0.961130
-0.397213310003 0.335759937763 0.806546986103 -0.275118 -0.025908 0.961061
-0.402097642422 0.078584827483 0.792312145233 -0.269586 -0.067080 0.960637
-0.368396967649 -0.098544739187 0.789547622204 -0.266587 -0.066963 0.961482
-0.070196077228 -0.336565941572 0.712696194649 0.028987 0.553511 -0.832337
0.401059716940 -0.073546178639 0.778378427029 0.266631 -0.064446 0.961642
0.369352102280 0.039829298854 0.794903755188 0.269586 -0.067080 0.960637
0.404844045639 0.160098209977 0.793127834797 0.269631 -0.064559 0.960797
0.352773368359 0.090840458870 0.803036630154 0.272593 -0.067197 0.959780
0.407008051872 0.295993179083 0.798597574234 0.272188 -0.025864 0.961896
0.388738542795 0.363729357719 0.805623590946 0.274467 -0.025847 0.961249
0.373680055141 0.392080157995 0.810576379299 0.274848 -0.015880 0.961357
0.348868548870 0.547028720379 0.820389866829 0.275495 -0.015917 0.961171
0.368389785290 0.802502751350 0.812389016151 0.277207 0.048919 0.959564
0.349544495344 0.921902537346 0.811163425446 0.274402 0.059433 0.959777
0.335937023163 0.910954296589 0.815162837505 0.163910 0.060140 0.984640
0.251397013664 1.027087688446 0.820974230766 0.120024 0.058298 0.991058
0.176768794656 0.902905941010 0.837553739548 0.122537 0.060696 0.990606
0.193901017308 0.820045351982 0.839908063412 0.121237 0.048722 0.991427
0.133073151112 0.732480406761 0.850096166134 0.037048 0.047633 0.998178
0.051977999508 0.761235654354 0.851769387722 0.037048 0.047633 0.998178
0.024095421657 0.721959233284 0.853921830654 0.003073 0.048149 0.998835
-0.060381341726 0.709929764271 0.854743003845 0.003073 0.048149 0.998835
-0.082182466984 0.769599676132 0.851076602936 -0.039245 0.047730 0.998089
-0.152664989233 0.831747531891 0.845329225063 -0.039245 0.047730 0.998089
-0.149847537279 0.920589864254 0.840540826321 -0.039557 0.058801 0.997486
-0.200467228889 0.903577506542 0.836637139320 -0.122537 0.060696 0.990606
-0.180980548263 0.936783254147 0.837044537067 -0.122537 0.060696 0.990606
-0.285990059376 1.027348995209 0.818695843220 -0.122554 0.058414 0.990741
-0.225950002670 1.109172344208 0.821142673492 -0.122537 0.060696 0.990606
-0.130930453539 1.052340745926 0.833404779434 -0.039642 0.058927 0.997475
-0.312848478556 0.699919402599 0.832307875156 -0.165665 -0.019423 0.985991
-0.342684149742 0.227921411395 0.816988229752 -0.161910 -0.028707 0.986388
-0.266821801662 -0.209405049682 0.784397602081 -0.111980 -0.283243 0.952488
-0.204709589481 -0.181664139032 0.799508512020 -0.114112 -0.160738 0.980378
-0.213746815920 -0.109747044742 0.810247182846 -0.116578 -0.158301 0.980485
-0.231375381351 -0.084099933505 0.810790479183 -0.118489 -0.070173 0.990473
-0.284944713116 0.040385745466 0.813122153282 -0.118489 -0.070173 0.990473
-0.233091220260 0.059785030782 0.820694625378 -0.118759 -0.070333 0.990429
-0.252040505409 0.166109472513 0.825930476189 -0.121032 -0.070314 0.990155
-0.202272504568 0.231956467032 0.836041688919 -0.121382 -0.027840 0.992215
-0.257254242897 0.307483315468 0.831538856030 -0.121382 -0.027840 0.992215
-0.249472603202 0.384608626366 0.834639012814 -0.120607 -0.018810 0.992522
-0.291445374489 0.380335539579 0.829427301884 -0.120607 -0.018810 0.992522
-0.270949065685 0.458750158548 0.833462655544 -0.122787 -0.018805 0.992255
-0.254690587521 0.563015520573 0.837483763695 -0.122787 -0.018805 0.992255
-0.180096298456 0.697022855282 0.849293053150 -0.122787 -0.018805 0.992255
-0.217499598861 0.775476992130 0.841196298599 -0.121510 0.048831 0.991388
-0.276645332575 0.850440800190 0.830226063728 -0.121510 0.048831 0.991388
-0.118159130216 0.689697504044 0.852693378925 -0.038227 -0.019630 0.999076
-0.076399624348 0.508651733398 0.850673079491 -0.038227 -0.019630 0.999076
-0.079853035510 0.405950725079 0.848473489285 -0.038227 -0.019630 0.999076
-0.142151936889 0.306102991104 0.843418776989 -0.038538 -0.028122 0.998861
-0.096461191773 0.322368770838 0.845642864704 -0.038538 -0.028122 0.998861
-0.115980558097 0.095556326210 0.833126485348 -0.037799 -0.070198 0.996817
-0.072848118842 0.013169705868 0.828880786896 -0.037799 -0.070198 0.996817
-0.160336852074 -0.145838499069 0.810092568398 -0.035833 -0.162981 0.985978
-0.136927008629 -0.161547496915 0.808377325535 -0.035915 -0.163354 0.985914
-0.208152934909 -0.253848761320 0.777830779552 -0.109213 -0.288163 0.951333
-0.296952784061 -0.277913749218 0.758934319019 -0.103370 -0.392807 0.913793
0.083836860955 -0.144951716065 0.812274932861 0.035833 -0.162981 0.985978
0.107738628983 -0.022974839434 0.824205517769 0.035565 -0.070053 0.996909
0.054590769112 -0.090000003576 0.821398377419 0.037718 -0.070048 0.996830
0.148927450180 0.072448447347 0.829462707043 0.037718 -0.070048 0.996830
0.054134711623 0.086927130818 0.833986461163 0.037799 -0.070198 0.996817
0.047843847424 0.493003547192 0.850584566593 0.038149 -0.019590 0.999080
0.018969630823 0.559801042080 0.852020144463 0.002996 -0.020974 0.999776
-0.013744274154 0.492181718349 0.850751936436 0.002996 -0.020974 0.999776
-0.059831950814 0.509691059589 0.851236104965 0.002996 -0.020974 0.999776
-0.016051080078 0.545010387897 0.851821839809 0.002996 -0.020974 0.999776
-0.003608384402 0.376771777868 0.848371386528 0.003020 -0.029192 0.999569
0.026798930019 0.222426787019 0.843795120716 0.003020 -0.029192 0.999569
0.011862901971 0.189179494977 0.841612100601 0.003140 -0.072214 0.997384
-0.022808540612 0.129984453321 0.837496876717 0.003140 -0.070131 0.997533
-0.023220293224 0.091874308884 0.834788203239 0.003140 -0.070131 0.997533
-0.036230146885 -0.025159433484 0.826490104198 0.003140 -0.070131 0.997533
-0.054047696292 -0.106993354857 0.820128381252 0.003375 -0.163121 0.986600
-0.024179628119 -0.179352328181 0.808098495007 0.003375 -0.163121 0.986600
-0.040412478149 -0.243820011616 0.789315164089 0.003667 -0.289700 0.957110
-0.200742945075 -0.302741974592 0.759104013443 -0.100676 -0.398565 0.911597
-0.213731423020 -0.312538594007 0.753395676613 -0.100676 -0.398565 0.911597
0.001179863350 -0.267468005419 0.781830668449 0.003866 -0.400748 0.916180
0.027333855629 -0.235890910029 0.791531801224 0.003667 -0.289700 0.957110
0.001180561376 -0.345729529858 0.747460782528 0.001289 -0.400751 0.916186
0.087807253003 0.600674510002 0.851244390011 0.038149 -0.019590 0.999080
0.170416906476 0.463158816099 0.843872547150 0.120607 -0.018810 0.992522
0.234291553497 0.542909264565 0.837654352188 0.120607 -0.018810 0.992522
0.195610597730 0.648847222328 0.844421565533 0.120607 -0.018810 0.992522
0.195863232017 0.757352828979 0.842741966248 0.121237 0.048722 0.991427
0.295527637005 0.847766458988 0.825476169586 0.165159 0.048025 0.985097
0.319980233908 0.708469569683 0.828309834003 0.165159 0.048025 0.985097
0.334696859121 0.679008722305 0.825715124607 0.163441 -0.019430 0.986362
0.259968519211 0.383925437927 0.831469535828 0.120607 -0.018810 0.992522
0.228077307343 0.316490530968 0.833427190781 0.119187 -0.027847 0.992481
0.275928765535 0.367530107498 0.829099059105 0.119187 -0.027847 0.992481
0.154380708933 0.208982214332 0.838839173317 0.118759 -0.070333 0.990429
0.250602364540 0.106754474342 0.820074558258 0.118489 -0.070173 0.990473
0.230516314507 0.081564791501 0.820707678795 0.118489 -0.070173 0.990473
0.158360183239 -0.068305350840 0.818725407124 0.118489 -0.070173 0.990473
0.233098059893 -0.080570660532 0.809046864510 0.115973 -0.067747 0.990939
0.173555627465 -0.178905427456 0.801806092262 0.113882 -0.157966 0.980856
0.265303611755 -0.186249241233 0.789696991444 0.112092 -0.288802 0.950804
0.248485386372 -0.340390205383 0.735733568668 0.100423 -0.397565 0.912062
0.159692466259 -0.336205393076 0.747251093388 0.100423 -0.397565 0.912062
0.312135636806 0.046249009669 0.807367980480 0.159986 -0.067550 0.984805
0.309110730886 0.073410928249 0.809739768505 0.159986 -0.067550 0.984805
0.303794324398 0.288873463869 0.822687387466 0.161910 -0.028707 0.986388
0.327625989914 0.382479250431 0.821370899677 0.163073 -0.019386 0.986423
0.139776870608 0.605227828026 0.849367737770 0.038149 -0.019590 0.999080
0.412860155106 0.902275800705 0.793683707714 0.318790 0.058079 0.946044
0.423546493053 0.804404497147 0.795473217964 0.319680 0.050070 0.946202
0.447865188122 0.694620907307 0.792425274849 0.319947 -0.016311 0.947295
0.464126557112 0.405325770378 0.782262086868 0.316186 -0.016247 0.948558
0.461618989706 0.265314072371 0.779677212238 0.316137 -0.023931 0.948412
0.442598134279 0.150198876858 0.780136764050 0.314813 -0.063481 0.947029
0.447642087936 0.027675323188 0.770325422287 0.311709 -0.063377 0.948062
0.472083717585 0.040647830814 0.763180851936 0.307858 -0.063117 0.949336
0.652689456940 -0.869286954403 0.128761470318 -0.978285 0.064090 -0.197108
0.668967843056 -1.158715248108 0.005403610412 -0.989830 0.012275 -0.141723
0.682818889618 -0.923260152340 -0.191558420658 -0.999999 0.000978 -0.000978
0.717188477516 -0.863143384457 -0.341884464025 0.001358 -0.824239 -0.566240
0.683087170124 -0.839890301228 -0.386312901974 0.001244 -0.944109 -0.329630
0.774445176125 -0.734565794468 -0.476063787937 0.992979 0.001085 -0.118289
0.700703263283 -0.902319669724 -0.291493982077 0.001382 -0.742124 -0.670261
0.761278688908 -0.912859439850 -0.279964238405 0.001377 -0.648407 -0.761293
0.772848308086 -0.752540230751 -0.357922971249 0.998629 -0.001026 0.052343
0.769107282162 -0.764256179333 -0.286795347929 0.998629 -0.001026 0.052343
0.763000190258 -1.457822203636 -0.235546737909 0.989830 -0.070455 0.123584
0.747166037560 -1.533971428871 -0.264632314444 0.899391 -0.414995 0.137387
0.672274589539 -1.593615889549 -0.157166361809 0.642895 -0.672491 0.366664
0.435880929232 -1.694050550461 -0.212171494961 0.018835 -0.948012 0.317678
0.529646754265 -1.644451737404 -0.229580193758 -0.259673 -0.001197 -0.965696
0.573556482792 -1.561765789986 -0.287659645081 -0.906315 -0.001300 -0.422600
0.576645791531 -1.452375173569 -0.287340998650 -0.642481 0.766300 -0.001376
0.568404018879 -1.459285140038 -0.170008137822 -0.642481 0.766300 -0.001376
0.615989565849 -1.412035346031 -0.300316929817 -0.806665 0.591008 -0.001365
0.643831133842 -1.362086772919 -0.240876346827 -0.919277 0.393609 0.001282
0.649629056454 -1.348503589630 -0.193611711264 -0.919277 0.393609 -0.001282
0.662229239941 -1.315268397331 -0.221411436796 -0.963362 0.268202 -0.001203
0.641721725464 -1.374652028084 -0.275629609823 0.001376 0.645448 -0.763803
0.768607497215 -1.379039406776 -0.277380615473 0.998629 -0.001026 0.052343
0.561730086803 -1.491017699242 -0.354345887899 -0.707106 -0.001384 0.707106
0.771009683609 -1.487490296364 -0.392447024584 0.996445 -0.072805 0.042379
0.643108129501 -1.646686196327 -0.345273166895 0.362262 -0.925476 -0.110729
0.481317937374 -1.677334189415 -0.441536873579 0.130234 -0.982235 -0.135103
0.305677354336 -1.683066725731 -0.448242217302 0.021348 -0.989858 -0.140445
0.407311946154 -1.676872253418 -0.471501618624 0.019568 -0.984175 -0.176116
0.375079154968 -1.668209433556 -0.516189992428 0.018982 -0.942797 -0.332826
0.304094284773 -1.660546660423 -0.541898488998 0.018966 -0.942001 -0.335074
0.199358791113 -1.644088625908 -0.576086163521 0.015316 -0.666961 -0.744935
-0.018091574311 -1.672463536263 -0.524945795536 -0.021597 -0.941378 -0.336660
-0.060072317719 -1.657766699791 -0.563309192657 -0.021546 -0.941667 -0.335857
-0.342208117247 -1.670171022415 -0.509533941746 -0.021546 -0.941667 -0.335857
-0.425120562315 -1.656862258911 -0.541409432888 -0.021564 -0.942466 -0.333605
-0.549643158913 -1.649195551872 -0.514036357403 -0.261008 -0.900993 -0.346536
-0.616473853588 -1.609175086021 -0.562721490860 -0.294437 -0.892279 -0.342264
-0.694853425026 -1.580034017563 -0.521412968636 -0.647070 -0.689235 -0.325968
-0.749003946781 -1.521320819855 -0.485581994057 -0.887253 -0.413463 -0.204524
-0.767299354076 -1.490068316460 -0.469663918018 -0.886716 -0.413213 -0.207342
-0.668204128742 -1.470448017120 -0.443912744522 -0.001154 0.979409 -0.201881
-0.747857213020 -1.394685864449 -0.296956092119 0.001379 0.740750 -0.671779
-0.766887545586 -1.371576189995 -0.273848235607 0.001376 0.645448 -0.763803
-0.731828093529 -1.380498886108 -0.281383514404 0.001376 0.645448 -0.763803
-0.590848505497 -1.442679762840 -0.132475808263 0.609944 0.729036 -0.310605
-0.562571585178 -1.454101920128 -0.109177939594 0.382893 0.854147 -0.351890
-0.520128965378 -1.479137182236 -0.123774647713 0.383310 0.855076 -0.349169
-0.632948040962 -1.464062333107 -0.101624108851 0.000978 0.000978 0.999999
-0.705627143383 -1.541731119156 -0.135098993778 -0.619292 -0.394695 0.678744
-0.770229220390 -1.442028403282 -0.192520350218 -0.971926 -0.065454 0.226001
-0.769459962845 -1.173023343086 -0.186480030417 -0.977717 -0.001160 0.209925
-0.764465153217 -0.934398114681 -0.163160160184 -0.977717 -0.001160 0.209925
-0.772487223148 -0.987275660038 -0.200609609485 -0.977717 -0.001160 0.209925
-0.692673981190 -1.051177024841 -0.138116195798 0.998385 0.013534 -0.055177
-0.690836310387 -1.103630185127 -0.117317572236 0.998385 0.013534 -0.055177
-0.687805652618 -1.024455308914 -0.044211018831 0.998378 0.013562 -0.055292
-0.690602064133 -1.020978569984 -0.093443356454 0.998385 0.013534 -0.055177
-0.691124796867 -0.927657186985 -0.083022728562 0.998463 0.007258 -0.054952
-0.694372177124 -0.893482029438 -0.140249013901 0.998724 0.003086 -0.050399
-0.725789844990 -0.702506482601 -0.298367053270 -0.001052 0.996710 0.081042
-0.703291952610 -0.709395647049 -0.185691043735 -0.001024 0.998739 0.050193
-0.750386059284 -0.699789404869 -0.332262545824 -0.001052 0.996710 0.081042
-0.779720187187 -0.722187459469 -0.308670610189 -0.999976 0.000983 0.006883
-0.754233956337 -0.777509093285 -0.579980492592 -0.878249 -0.001325 -0.478202
-0.753573298454 0.107677802444 -0.581227362156 -0.878249 -0.001325 -0.478202
-0.752755463123 0.448386311531 -0.582734584808 -0.878249 -0.001325 -0.478202
-0.760563969612 -0.387171268463 -0.568408608437 -0.878249 -0.001325 -0.478202
-0.750427186489 -0.184662699699 -0.589632630348 0.000978 0.000978 0.999999
-0.749212026596 -0.488837361336 -0.589632630348 0.000978 0.000978 0.999999
-0.759411036968 0.450318932533 -0.589632689953 0.000978 0.000978 0.999999
-0.757955431938 0.719236254692 -0.589632689953 0.000978 0.000978 0.999999
-0.774547755718 -0.245621979237 -0.593338549137 -0.999999 -0.000978 0.000978
-0.774563431740 0.757387638092 -0.605777919292 -0.999999 -0.000978 0.000978
-0.771068096161 0.763382136822 -0.607189714909 -0.000978 0.999999 0.000978
-0.752899885178 0.175627708435 -0.616457045078 -0.000978 -0.000978 -0.999999
-0.766815125942 -0.584675312042 -0.616457045078 -0.000978 -0.000978 -0.999999
-0.769281148911 -0.457383990288 -0.616457045078 -0.000978 -0.000978 -0.999999
-0.773145973682 -0.735480785370 -0.616457045078 -0.000978 -0.000978 -0.999999
-0.738347828388 0.118301451206 -0.616457045078 0.000978 -0.000978 -0.999999
-0.726246118546 0.009395360947 -0.615932166576 0.999999 0.000978 -0.000978
-0.739245355129 -0.222956508398 -0.616457045078 0.000978 0.000978 -0.999999
-0.736444652081 -0.267932206392 -0.616457045078 0.000978 0.000978 -0.999999
-0.765482008457 -0.659792423248 -0.616457045078 0.000978 0.000978 -0.999999
-0.774553179741 -0.006295225583 -0.612982094288 -0.999999 -0.000978 0.000978
-0.774555981159 0.218775436282 -0.612145662308 -0.999999 -0.000978 0.000978
-0.774562358856 0.668837606907 -0.615068614483 -0.999999 -0.000978 0.000978
-0.693778693676 -0.834577560425 -0.269497483969 0.999513 -0.031203 0.001007
-0.694676578045 -0.863622546196 -0.196184366941 0.999513 -0.031203 -0.001007
-0.690207362175 -0.886883795261 -0.059709388763 0.998643 0.011407 -0.050814
-0.686633467674 -0.949494838715 -0.017377141863 0.990830 0.012232 -0.134557
-0.754702806473 -0.957753121853 -0.246399924159 0.001351 -0.544370 -0.838844
-0.779697418213 -0.792093694210 -0.305432975292 -0.999976 -0.000983 0.006883
-0.708841919899 -0.858393490314 -0.352103114128 0.001313 -0.891519 -0.452981
-0.708116292953 -0.914106726646 -0.280957043171 0.001377 -0.648407 -0.761293
-0.693000435829 -0.809402763844 -0.442517787218 0.999513 -0.031203 0.001007
-0.693814098835 -0.734282910824 -0.557657420635 0.999821 0.018902 0.000995
-0.710036993027 -0.754408240318 -0.604203939438 0.000978 0.000978 -0.999999
-0.693924605846 -0.728490114212 -0.436236023903 0.999821 0.018902 0.000995
-0.691283524036 -1.211553692818 -0.183639824390 0.999917 0.012857 0.000989
-0.681828916073 -1.287406206131 -0.184316501021 0.963362 0.268202 -0.001203
-0.670220971107 -1.328054547310 -0.170660227537 0.919277 0.393609 -0.001282
-0.774777531624 -1.275167226791 -0.213761359453 0.001296 0.418483 -0.908224
-0.758924007416 -1.192413330078 -0.191240325570 0.001143 0.188635 -0.982047
-0.733340501785 -1.159896731377 -0.188857093453 0.001036 0.061152 -0.998128
-0.771082282066 -1.074821591377 -0.196410953999 0.001145 -0.191268 -0.981537
-0.763181030750 -1.509448528290 -0.445296883583 -0.904698 -0.423447 -0.047050
-0.669457376003 -1.621134161949 -0.458571642637 -0.354995 -0.912640 -0.202649
-0.479679375887 -1.666649103165 -0.495414167643 -0.132270 -0.973763 -0.185179
-0.438080459833 -1.671373605728 -0.491183042526 -0.024280 -0.983929 -0.176899
-0.352520465851 -1.680009365082 -0.454313695431 -0.024280 -0.983929 -0.176899
-0.251787245274 -1.681478738785 -0.459581524134 -0.024280 -0.983929 -0.176899
-0.139490038157 -1.685345530510 -0.453075408936 -0.024280 -0.983929 -0.176899
0.130615681410 -1.679826378822 -0.487656205893 0.021928 -0.984454 -0.174270
0.201647862792 -1.663108110428 -0.540831208229 0.018966 -0.942001 -0.335074
0.233925491571 -1.683573842049 -0.454189211130 0.021928 -0.984454 -0.174270
-0.002081842162 -1.691707968712 -0.432817757130 -0.023691 -0.989399 -0.143277
-0.017817884684 -1.691559076309 -0.431213200092 -0.023691 -0.989399 -0.143277
-0.191968709230 -1.687788248062 -0.428214341402 -0.023691 -0.989399 -0.143277
-0.546158671379 -1.666111469269 -0.439880549908 -0.275466 -0.951489 -0.137068
-0.637544512749 -1.642452836037 -0.400403976440 -0.362844 -0.922975 -0.128306
-0.776832699776 -1.441793084145 -0.236183300614 -0.994551 -0.067937 0.079074
-0.774273574352 -1.492571949959 -0.247838228941 -0.994724 -0.067949 0.076860
-0.345349043608 -1.680798053741 -0.395191699266 -0.000978 0.000978 0.999999
-0.004141420126 -1.689848423004 -0.398455023766 -0.002944 0.002944 0.999991
0.147451549768 -1.690562248230 -0.419473797083 0.021395 -0.989813 -0.140758
0.360183835030 -1.689460754395 -0.395412176847 0.021348 -0.989858 -0.140445
-0.364891618490 -1.660797357559 -0.395203441381 -0.000978 0.000978 0.999999
-0.120674125850 -1.651654243469 -0.386975556612 -0.023744 -0.989351 -0.143597
-0.232196182013 -1.615686297417 -0.386799842119 -0.000979 0.000979 0.999999
-0.299173355103 -1.575587272644 -0.378785490990 0.712619 0.001384 0.701550
-0.298882275820 -1.559597969055 -0.381300240755 0.094759 0.995500 0.001065
-0.176410585642 -1.571265220642 -0.395170599222 0.094759 0.995500 0.001065
-0.009129990824 -1.574541568756 -0.386796653271 -0.000978 0.999999 0.000978
0.144003197551 -1.582284569740 -0.386770308018 0.000979 0.000979 0.999999
0.242693856359 -1.592041373253 -0.386899322271 0.000979 0.000979 0.999999
0.108229108155 -1.651177287102 -0.393286526203 0.021436 -0.989449 -0.143284
0.146954461932 -1.654363155365 -0.395073384047 0.000978 -0.000978 0.999999
0.435409516096 -1.681714415550 -0.395245432854 0.000978 0.000978 0.999999
0.518456757069 -1.676783204079 -0.409788697958 0.130234 -0.982235 -0.135103
0.596031010151 -1.635996580124 -0.317059636116 -0.996132 -0.001059 0.087863
0.461517810822 -1.646953105927 -0.355995059013 0.133218 -0.981417 -0.138107
0.435323566198 -1.515670895576 -0.540035784245 -0.314746 0.949175 -0.001234
0.485791385174 -1.498950362206 -0.196204036474 -0.314746 0.949175 0.001234
0.358768522739 -1.536829471588 -0.190459623933 -0.157685 0.987489 0.001118
0.380956619978 -1.531201839447 -0.426250219345 -0.268202 0.963362 0.001203
0.384946078062 -1.530088067055 -0.519576489925 -0.268202 0.963362 -0.001203
0.369145721197 -1.534499526024 -0.601367473602 -0.268202 0.963362 -0.001203
0.559413194656 -1.476502180099 -0.541529059410 -0.001003 0.999633 -0.027071
0.619622349739 -1.477697730064 -0.587426662445 -0.001003 0.999633 -0.027071
0.533217072487 -1.478844165802 -0.530566930771 -0.409130 0.912475 -0.001291
0.508574008942 -1.489887714386 -0.525196671486 -0.409130 0.912475 -0.001291
0.478624671698 -1.571220278740 -0.365368455648 0.572458 0.001360 0.819933
0.484229177237 -1.536951422691 -0.368662983179 0.421606 0.001297 0.906778
0.494481652975 -1.496071577072 -0.566724836826 -0.314746 0.949175 -0.001234
0.771306872368 -1.438866853714 -0.358474731445 0.001314 0.889912 -0.456129
0.760573387146 -1.453752636909 -0.389248192310 -0.001246 0.943059 -0.332624
0.573889017105 -1.461041569710 -0.409880131483 -0.001246 0.943059 -0.332624
0.644907474518 -1.632313489914 -0.454715311527 0.354580 -0.915643 -0.189394
0.641184687614 -1.620089054108 -0.515432417393 0.341036 -0.880632 -0.328911
0.575609683990 -1.648741483688 -0.491458028555 0.308228 -0.933053 -0.185495
0.609134078026 -1.643797278404 -0.460693657398 0.308068 -0.932567 -0.188186
0.727233648300 -1.539163231850 -0.528595745564 0.805939 -0.534694 -0.254097
0.636764168739 -1.476323246956 -0.536139309406 -0.001003 0.999633 -0.027071
0.623391151428 -1.475792288780 -0.515981614590 -0.001003 0.999633 -0.027071
0.768363118172 -1.475018143654 -0.489385724068 -0.001003 0.999633 -0.027071
0.748957276344 -1.496998786926 -0.534827113152 0.881751 -0.414854 -0.224527
0.617724537849 -1.559770107269 -0.616456866264 0.000978 -0.000978 -0.999999
0.636051774025 -1.528198599815 -0.616456866264 -0.000978 0.000978 -0.999999
0.079384602606 -1.641885638237 -0.580344021320 0.015316 -0.666961 -0.744935
-0.067754611373 -1.631733417511 -0.589310884476 -0.015345 -0.665410 -0.746320
-0.637795090675 -1.576315760612 -0.616457045078 0.000978 -0.000978 -0.999999
-0.592358767986 -1.583378911018 -0.616456985474 0.000978 0.000978 -0.999999
-0.593004107475 -1.476233005524 -0.511848032475 -0.001003 0.999633 -0.027071
-0.655613183975 -1.476790189743 -0.531696557999 -0.001003 0.999633 -0.027071
-0.574864447117 -1.463987469673 -0.414517700672 0.642481 0.766300 0.001376
-0.589584827423 -1.451654314995 -0.248313426971 0.642481 0.766300 0.001376
-0.571506738663 -1.466801285744 -0.183175474405 0.642481 0.766300 -0.001376
-0.528593122959 -1.486500620842 -0.157254233956 0.409130 0.912475 0.001291
-0.502560079098 -1.509359240532 -0.101624555886 0.000978 0.000978 0.999999
-0.596439182758 -1.542813181877 -0.101622983813 -0.000978 -0.000978 0.999999
-0.682570993900 -1.613023757935 -0.187913492322 -0.652625 -0.678665 0.336891
-0.743896126747 -1.560959815979 -0.266902208328 -0.835169 -0.540913 0.099528
-0.753170788288 -1.534430384636 -0.222651377320 -0.905551 -0.413374 0.095394
-0.663280010223 -1.642747759819 -0.309261828661 -0.367798 -0.929243 -0.035090
-0.628662705421 -1.656047701836 -0.312977790833 -0.322117 -0.945980 -0.036922
-0.554919838905 -1.545156478882 -0.359286278486 0.707106 0.001384 0.707106
-0.523693382740 -1.634060859680 -0.374829024076 0.259673 0.001197 0.965696
-0.314988046885 -1.649916648865 -0.353855282068 0.915316 -0.009063 0.402635
-0.330856919289 -1.556040048599 -0.357341349125 0.130369 0.991465 -0.001096
-0.343752264977 -1.554357767105 -0.204258903861 0.130369 0.991465 -0.001096
-0.415036618710 -1.567116856575 -0.101622886956 -0.000978 0.000978 0.999999
-0.646883547306 -1.591863155365 -0.129086881876 -0.250418 -0.622107 0.741804
-0.575573086739 -1.527254104614 -0.302540153265 0.996132 0.001059 -0.087863
-0.575300276279 -1.512173771858 -0.323012709618 0.965696 0.001197 0.259673
-0.323375731707 -1.636396050453 -0.305617421865 0.993508 0.001083 0.113760
-0.139811173081 -1.645633697510 -0.259411811829 0.000978 -0.000978 -0.999999
-0.278973937035 -1.561494469643 -0.187076553702 0.094759 0.995500 0.001065
-0.311044871807 -1.563281655312 -0.119847230613 -0.000981 -0.004907 0.999987
-0.157174423337 -1.625543475151 -0.127845644951 -0.009526 -0.543001 0.839678
-0.214757025242 -1.625032901764 -0.128263443708 -0.012248 -0.542985 0.839653
-0.402793377638 -1.667472600937 -0.147359818220 -0.018156 -0.685731 0.727629
-0.545845687389 -1.618187308311 -0.120401628315 -0.192735 -0.646049 0.738562
-0.607743918896 -1.615995168686 -0.136380553246 -0.219895 -0.634734 0.740783
-0.619294106960 -1.651674509048 -0.204544752836 -0.303709 -0.890181 0.339615
-0.574631989002 -1.512931704521 -0.297462612391 0.965696 0.001197 -0.259673
-0.521758794785 -1.614798426628 -0.247825160623 0.087863 0.001059 -0.996132
-0.457549124956 -1.512527942657 -0.268089264631 0.314746 0.949175 0.001234
-0.440686672926 -1.518112421036 -0.241009160876 0.314746 0.949175 0.001234
-0.408942013979 -1.527000904083 -0.319076001644 0.268202 0.963362 -0.001203
-0.361906021833 -1.538557529449 -0.163119480014 0.157685 0.987489 0.001118
-0.382079482079 -1.534497976303 -0.535773634911 0.268202 0.963362 0.001203
-0.317626386881 -1.545629024506 -0.472147673368 0.157685 0.987489 0.001118
-0.246692717075 -1.554149627686 -0.497172683477 0.115898 0.993261 0.001083
-0.252776741982 -1.553439974785 -0.480956703424 0.115898 0.993261 -0.001083
-0.211280584335 -1.558281898499 -0.527769267559 0.115898 0.993261 -0.001083
-0.099713258445 -1.565319776535 -0.457507908344 0.035367 0.999374 -0.001010
-0.088849507272 -1.565712213516 -0.603187859058 0.035367 0.999374 0.001010
-0.051361244172 -1.566620230675 -0.557052135468 -0.000978 0.999999 0.000978
0.067723497748 -1.565692067146 -0.424167066813 -0.035367 0.999374 -0.001010
0.113694876432 -1.564027667046 -0.580609738827 -0.035367 0.999374 0.001010
0.202309519053 -1.557607769966 -0.445572853088 -0.115898 0.993261 0.001083
0.286395132542 -1.566930174828 -0.381093680859 -0.711237 0.001381 0.702951
0.314020395279 -1.597626090050 -0.296109199524 -0.993261 -0.001083 0.115898
0.331678569317 -1.554045319557 -0.224915266037 -0.130369 0.991465 -0.001096
0.212131187320 -1.566409707069 -0.179192602634 -0.094759 0.995500 -0.001065
0.202293738723 -1.567348957062 -0.257596075535 -0.094759 0.995500 0.001065
0.198591113091 -1.576510429382 -0.259487241507 0.000978 -0.000978 -0.999999
0.334762424231 -1.652819871902 -0.331103503704 0.021739 -0.998948 -0.040372
0.416081786156 -1.651790857315 -0.312313467264 0.021739 -0.998948 -0.040372
0.320564806461 -1.650602936745 -0.250215500593 0.022659 -0.995916 0.087399
0.018380550668 -1.657024979591 -0.247605592012 0.022659 -0.995916 0.087399
-0.051104277372 -1.655649542809 -0.237970575690 -0.024874 -0.996033 0.085436
-0.384320974350 -1.647557616234 -0.240589320660 -0.024874 -0.996033 0.085436
0.553847134113 -1.475914120674 -0.261142075062 -0.572458 -0.001360 -0.819933
0.545394599438 -1.473386526108 -0.241769850254 -0.409130 0.912475 -0.001291
0.542058825493 -1.629307031631 -0.249518319964 0.281989 -0.953517 0.106238
0.260781943798 -1.676381707191 -0.227202966809 0.000993 -0.016879 -0.999857
0.124492898583 -1.683922052383 -0.220168411732 0.018366 -0.961130 0.275483
-0.041633620858 -1.674347281456 -0.181352123618 -0.018409 -0.960943 0.276133
-0.035090427846 -1.687566995621 -0.226953029633 -0.018409 -0.960943 0.276133
-0.375642895699 -1.646682500839 -0.227665334940 0.000978 0.000978 -0.999999
-0.568134486675 -1.654634833336 -0.248957946897 0.707106 0.001384 -0.707106
-0.513044178486 -1.683259725571 -0.207999795675 -0.129060 -0.936028 0.327406
-0.445262283087 -1.677851915359 -0.167601704597 -0.023912 -0.947654 0.318402
-0.152404665947 -1.665839910507 -0.166811943054 -0.015323 -0.739664 0.672802
-0.208566009998 -1.649256825447 -0.149818837643 -0.015323 -0.739664 0.672802
0.018843516707 -1.652213573456 -0.149094894528 0.012537 -0.739693 0.672828
0.188491880894 -1.664419531822 -0.165870621800 0.012537 -0.739693 0.672828
0.392265826464 -1.671711683273 -0.150316461921 0.015334 -0.687238 0.726270
0.306327670813 -1.559791564941 -0.119960449636 0.000978 -0.000978 0.999999
0.337657839060 -1.539810061455 -0.119951307774 0.000978 -0.000978 0.999999
0.121972508729 -1.559901595116 -0.131114259362 -0.029080 0.947010 -0.319885
0.061231371015 -1.574004292488 -0.171461582184 -0.029133 0.999575 0.001005
0.071179389954 -1.573709249496 -0.238810271025 -0.029133 0.999575 -0.001005
0.165908128023 -1.617175698280 -0.259442776442 0.000978 -0.000978 -0.999999
-0.006809736602 -1.603807806969 -0.259457498789 0.000978 -0.000978 -0.999999
-0.080025009811 -1.574107408524 -0.202956855297 0.029133 0.999575 0.001005
0.026074327528 -1.574174046516 -0.166876837611 -0.006210 0.947667 -0.319201
0.039815746248 -1.569026708603 -0.151842638850 -0.006210 0.947667 -0.319201
0.032884627581 -1.621468424797 -0.123769819736 0.009519 -0.539839 0.841714
0.223230704665 -1.602920889854 -0.119978763163 0.000978 -0.000978 0.999999
0.347213864326 -1.592534661293 -0.119978770614 0.000978 -0.000978 0.999999
0.286415576935 -1.622929930687 -0.127632811666 0.009526 -0.543001 0.839678
-0.004269637167 -1.605467319489 -0.119960092008 0.000981 -0.004907 0.999987
-0.026366900653 -1.574549317360 -0.242991372943 -0.000978 0.999999 -0.000978
0.560850620270 -1.568821907043 -0.101622901857 0.000978 -0.000978 0.999999
0.512768566608 -1.553507447243 -0.101622864604 -0.000978 -0.000978 0.999999
0.522022485733 -1.534915328026 -0.101622819901 0.000978 -0.000978 0.999999
0.311138182878 -1.544440269470 -0.566835761070 -0.157685 0.987489 0.001118
0.310853838921 -1.544485926628 -0.435966968536 -0.157685 0.987489 -0.001118
0.247907996178 -1.552283525467 -0.531952619553 -0.115898 0.993261 -0.001083
-0.299639701843 -1.597905874252 -0.616456985474 0.000978 0.000978 -0.999999
-0.307222843170 -1.626195311546 -0.616457045078 0.000978 -0.000978 -0.999999
-0.096684418619 -1.608851313591 -0.616456985474 -0.000978 -0.000978 -0.999999
0.153884634376 -1.641357302666 -0.616456925869 0.000978 0.000978 -0.999999
0.142447158694 -1.637696623802 -0.616456925869 0.000978 0.000978 -0.999999
0.596927106380 -1.509212613106 -0.616456925869 0.000978 -0.000978 -0.999999
0.476752370596 -1.520430088043 -0.616456985474 0.000978 -0.000978 -0.999999
0.681642413139 -1.480704545975 -0.605446517467 -0.000978 0.999999 0.000978
0.190916761756 -1.641256332397 -0.604317605495 0.025017 -0.999686 -0.001001
0.188292860985 -1.641320347786 -0.589670002460 0.025017 -0.999686 -0.001001
-0.016394659877 -1.645173072815 -0.603323519230 -0.027071 -0.999633 -0.001003
-0.442641645670 -1.633453369141 -0.610457003117 -0.027071 -0.999633 -0.001003
-0.001613754779 -1.566596388817 -0.583794414997 -0.000978 0.999999 0.000978
-0.469578474760 -1.508544683456 -0.551529705524 0.314746 0.949175 -0.001234
-0.498319447041 -1.499026894569 -0.521106064320 0.314746 0.949175 -0.001234
-0.524656534195 -1.488264083862 -0.530743598938 0.409130 0.912475 0.001291
-0.517778217793 -1.491344928741 -0.598209202290 0.409130 0.912475 0.001291
-0.592061638832 -1.584225893021 -0.109477534890 -0.159200 -0.462994 0.871947
-0.451462268829 -1.596673250198 -0.101622968912 -0.000978 -0.000978 0.999999
-0.622231960297 -1.419792652130 -0.177103012800 0.806665 0.591008 0.001365
-0.637714743614 -1.398656368256 -0.200619190931 0.806665 0.591008 0.001365
-0.707101643085 -1.499538540840 -0.616457104683 0.000978 -0.000978 -0.999999
-0.645673632622 -1.507525086403 -0.616456985474 -0.000978 0.000978 -0.999999
-0.516632378101 -1.530696272850 -0.616456985474 0.000978 -0.000978 -0.999999
-0.457348763943 -1.638591170311 -0.573463618755 -0.086007 -0.651615 -0.753658
-0.716377317905 -1.538331031799 -0.554682552814 -0.797739 -0.529193 -0.289081
-0.746083140373 -1.502671599388 -0.529300928116 -0.873564 -0.408870 -0.264030
-0.564564466476 -1.663491368294 -0.420968741179 -0.275566 -0.951833 -0.134455
0.569822251797 -1.671236157417 -0.235225290060 0.319176 -0.941502 0.108173
0.603112757206 -1.660689115524 -0.241377234459 0.317480 -0.941724 0.111185
0.672435939312 -1.626397252083 -0.228268012404 0.681343 -0.720277 0.130279
0.627190291882 -1.395719647408 -0.148827761412 -0.778761 0.571092 -0.259587
0.687463521957 -0.738517105579 -0.604203820229 0.000978 0.000978 -0.999999
0.773523867130 -0.795270264149 -0.616456985474 -0.000978 0.000978 -0.999999
0.760892152786 -0.456856995821 -0.616456985474 -0.000978 -0.000978 -0.999999
0.746051251888 -0.533403456211 -0.616456985474 -0.000978 -0.000978 -0.999999
0.740175008774 -0.109999544919 -0.616456985474 -0.000978 -0.000978 -0.999999
0.724490761757 -0.130369037390 -0.616456985474 -0.000978 -0.000978 -0.999999
0.735298216343 0.116028249264 -0.616456985474 -0.000978 -0.000978 -0.999999
0.740011692047 0.601874411106 -0.616456925869 -0.000978 -0.000978 -0.999999
0.747625231743 0.474064588547 -0.616456925869 -0.000978 -0.000978 -0.999999
0.775551974773 -0.389634191990 -0.616456985474 -0.000978 -0.000978 -0.999999
0.774810731411 -0.424255311489 -0.616456985474 -0.000978 -0.000978 -0.999999
0.734156370163 0.759777843952 -0.616456925869 -0.000978 -0.000978 -0.999999
0.769992768764 -0.437678635120 -0.616456985474 -0.000978 -0.000978 -0.999999
0.785418272018 0.748657524586 -0.610045552254 0.999999 0.000978 -0.000978
0.785418629646 0.704677045345 -0.614197134972 0.999999 0.000978 -0.000978
0.785431206226 -0.152059376240 -0.590890228748 0.999999 0.000978 -0.000978
0.785434603691 -0.643303036690 -0.609825134277 0.999999 0.000978 -0.000978
0.764289617538 0.304366558790 -0.589632451534 0.000978 -0.000978 0.999999
0.783124983311 0.577551960945 -0.589632451534 0.000978 -0.000978 0.999999
0.768921136856 0.083971500397 -0.589632451534 0.000978 -0.000978 0.999999
0.764763355255 -0.219962835312 -0.589632451534 0.000978 -0.000978 0.999999
0.755854189396 -0.038202211261 -0.589632451534 0.000978 -0.000978 0.999999
0.761338591576 0.170162111521 -0.589632451534 0.000978 -0.000978 0.999999
0.760467529297 0.322470068932 -0.574300706387 0.909655 0.001294 -0.415362
0.759616672993 0.547915816307 -0.576156973839 0.909655 0.001294 -0.415362
0.712120532990 -0.642651140690 -0.604203760624 0.000978 -0.000978 -0.999999
0.693901896477 0.892907202244 -0.255480170250 0.001350 0.541234 -0.840871
0.749537765980 1.009078979492 -0.200347930193 0.001143 0.188635 -0.982047
0.689482569695 1.122393012047 -0.191529750824 0.001038 -0.065416 -0.997858
0.752297937870 1.310783028603 -0.178202450275 0.967932 0.001191 0.251210
0.704575181007 1.137580156326 -0.192519977689 0.001145 -0.191268 -0.981537
0.692739725113 1.166888713837 -0.198219686747 0.001145 -0.191268 -0.981537
0.698878943920 1.208938479424 -0.210331678391 0.001235 -0.312519 -0.949911
0.695899844170 1.364327430725 -0.326646119356 0.001358 -0.824239 -0.566240
0.714020431042 1.368245601654 -0.332310467958 0.001358 -0.824239 -0.566240
0.695148110390 1.399762630463 -0.388084560633 0.001244 -0.944109 -0.329630
0.709504485130 1.421129345894 -0.464638978243 0.001152 -0.979955 -0.199215
0.638595223427 1.467049598694 -0.575544416904 -0.978290 -0.207235 -0.001158
0.639061331749 1.464862585068 -0.191593453288 -0.978290 -0.207235 -0.001158
0.636769175529 1.473298549652 -0.316638350487 -0.886654 -0.462431 -0.001317
0.626303076744 1.493304729462 -0.396088868380 -0.886654 -0.462431 -0.001317
0.613222062588 1.518309116364 -0.493843764067 -0.886654 -0.462431 -0.001317
0.584877014160 1.543221235275 -0.343786895275 -0.645448 -0.763803 -0.001376
0.573532164097 1.552798032761 -0.446859598160 -0.645448 -0.763803 -0.001376
0.569428443909 1.556262373924 -0.509734630585 -0.645448 -0.763803 -0.001376
0.563556730747 1.561218976974 -0.475695133209 -0.645448 -0.763803 0.001376
0.588733255863 1.548231601715 -0.570778906345 -0.999995 -0.000981 0.002944
0.620431303978 1.503366947174 0.036856271327 -0.001048 0.997066 -0.076536
0.636144101620 1.473720550537 -0.142823398113 -0.883332 -0.466846 -0.042193
0.637969136238 1.442232012749 0.026904694736 -0.977523 -0.208364 -0.032148
0.677311420441 1.486533761024 -0.028348531574 0.976243 0.213889 0.034652
0.687124371529 1.393961310387 0.003543715691 0.996580 0.076494 0.031244
0.688850283623 1.408558964729 -0.089092589915 0.996821 0.074197 0.029034
0.694594442844 1.274527311325 0.018222153187 0.997761 0.060438 0.028629
0.698511600494 1.255473852158 -0.083947688341 0.997963 0.058082 0.026401
0.704176604748 1.523903250694 -0.101622983813 0.000978 0.000978 0.999999
0.718638420105 1.239032864571 -0.106408916414 0.869469 0.001331 0.493986
0.720948517323 0.751976907253 -0.110467247665 0.871255 0.001330 0.490829
0.717505753040 0.550368309021 -0.037248075008 0.999538 0.013192 0.027398
0.717618167400 0.669365465641 -0.102533251047 0.999538 0.013192 0.027398
0.716396868229 0.622552752495 -0.032281398773 0.999538 0.013192 0.027398
0.718587517738 0.381285637617 0.008504812606 0.999538 0.013192 0.027398
0.717686414719 0.445711016655 0.009584091604 0.999538 0.013192 0.027398
0.760069370270 1.296518683434 -0.208142876625 0.967932 -0.001191 0.251210
0.749419510365 1.465053915977 -0.167108476162 0.967932 -0.001191 0.251210
0.762064576149 1.529755115509 -0.219272077084 0.992979 -0.001085 0.118289
0.773778676987 1.450878620148 -0.375297099352 0.998629 0.001026 0.052343
0.774275779724 1.559959530830 -0.384781748056 0.998629 0.001026 0.052343
0.777510166168 1.438065886497 -0.446368485689 0.998629 -0.001026 0.052343
0.774726092815 1.425663709641 -0.473720639944 0.992979 -0.001085 -0.118289
0.738449096680 1.500628829002 -0.616457045078 0.000978 -0.000978 -0.999999
-0.513256192207 1.594995021820 -0.616457104683 -0.000978 0.000978 -0.999999
-0.167146682739 1.669707179070 -0.616456985474 -0.000978 0.000978 -0.999999
-0.636201024055 1.568403005600 -0.616457104683 0.000978 -0.000978 -0.999999
-0.765874564648 1.545092701912 -0.594888806343 -0.999999 -0.000978 -0.000978
-0.716640591621 1.520074725151 -0.616457104683 -0.000978 -0.000978 -0.999999
-0.669352829456 1.504934430122 -0.616457104683 0.000978 0.000978 -0.999999
-0.513153195381 1.653934597969 -0.589632630348 0.000978 -0.000978 0.999999
-0.423931837082 1.646024346352 -0.616457164288 0.000978 -0.000978 -0.999999
-0.679147541523 1.598435759544 -0.616457164288 0.000978 0.000978 -0.999999
-0.438542068005 1.668476104736 -0.613585412502 -0.065416 0.997858 -0.001038
-0.581380307674 1.657150268555 -0.601261913776 -0.097074 0.995277 -0.001067
-0.645551085472 1.647667288780 -0.593573212624 -0.157685 0.987489 -0.001118
-0.159140780568 1.653302550316 -0.583480954170 0.000978 -0.000978 0.999999
-0.219647675753 1.661916971207 -0.585758686066 -0.030022 0.992966 -0.114530
-0.081810280681 1.625788807869 -0.583491086960 -0.000978 -0.000978 0.999999
-0.040604971349 1.644597649574 -0.583484113216 0.000978 -0.000978 0.999999
0.078856088221 1.634871602058 -0.583487749100 0.000978 -0.000978 0.999999
0.176906913519 1.625997066498 -0.583491086960 0.000978 -0.000978 0.999999
0.130521327257 1.664100170135 -0.583477020264 -0.000978 -0.000978 0.999999
0.381375491619 1.672869086266 -0.614733159542 0.058843 0.998267 0.001032
0.560015320778 1.564208626747 -0.597906172276 -0.645448 -0.763803 0.001376
0.493497073650 1.592432141304 -0.604203939438 -0.000978 -0.000978 -0.999999
0.595333576202 1.534394383430 -0.568222999573 -0.645448 -0.763803 -0.001376
0.592051327229 1.537165045738 -0.446694225073 -0.645448 -0.763803 0.001376
0.540774822235 1.653346180916 -0.589632451534 -0.000978 0.000978 0.999999
0.694007396698 1.643715143204 -0.352466255426 0.241095 0.970376 -0.015593
0.708561301231 1.629335165024 -0.162491664290 0.304986 0.942067 0.139616
0.775090932846 1.584475755692 -0.590660512447 0.999960 -0.008867 0.000985
0.693498849869 1.558919310570 -0.616457045078 -0.000978 -0.000978 -0.999999
0.710745751858 1.539601206779 -0.616457045078 -0.000978 -0.000978 -0.999999
