-0.152014896274 0.935054898262 0.811033964157 -0.007019 0.021058 0.999754
-0.183270320296 0.649063467979 0.813217997551 -0.006978 -0.012960 0.999892
-0.201766297221 0.503929913044 0.811162650585 -0.006978 -0.012960 0.999892
-0.234153777361 0.664060413837 0.812503874302 -0.075231 -0.013775 0.997071
-0.286813706160 0.492870032787 0.806254148483 -0.075231 -0.013775 0.997071
-0.265773713589 0.865426301956 0.808930993080 -0.075864 0.020302 0.996911
-0.336009025574 0.779549598694 0.815413177013 -0.075864 0.020302 0.996911
-0.341374754906 1.003722906113 0.810417234898 -0.075864 0.020302 0.996911
-0.341596484184 0.775789022446 0.810005962849 -0.997066 -0.001048 -0.076536
-0.344160407782 0.576524317265 0.802992463112 -0.075231 -0.013775 0.997071
-0.431038796902 0.727524518967 0.798360705376 -0.075231 -0.013775 0.997071
-0.438628405333 0.614979922771 0.796313762665 -0.075231 -0.013775 0.997071
-0.475863426924 0.534173011780 0.790814042091 -0.137042 -0.012256 0.990489
-0.458332180977 0.590509474277 0.793975532055 -0.137042 -0.012256 0.990489
-0.521707415581 0.847128272057 0.785422027111 -0.137635 0.019023 0.990300
-0.539512336254 1.727665305138 0.741771757603 -0.013534 0.998385 0.055177
-0.571521997452 1.727844119072 0.730711519718 -0.013560 0.998261 0.057371
-0.603951811790 -0.179841652513 0.707032084465 -0.979289 0.084148 0.184150
-0.587497293949 0.117689236999 0.725631177425 -0.981938 0.031675 0.186533
-0.576206207275 1.001923322678 0.759164035320 -0.982791 -0.005734 0.184632
-0.569558382034 -0.282859385014 0.696389496326 -0.201861 -0.285389 0.936913
-0.467557936907 -0.275767534971 0.713160812855 -0.139613 -0.236167 0.961631
-0.551415741444 -0.194385185838 0.718290627003 -0.140785 -0.183908 0.972809
-0.534999072552 -0.035706087947 0.744805276394 -0.171728 -0.096217 0.980434
-0.549321711063 0.097873508930 0.755468070507 -0.171728 -0.096217 0.980434
-0.509142518044 -0.046336829662 0.748272001743 -0.171728 -0.096217 0.980434
-0.497890770435 -0.011612817645 0.753316104412 -0.132985 -0.085911 0.987388
-0.534901857376 0.093433007598 0.757492423058 -0.132985 -0.085911 0.987388
-0.561145365238 0.337954998016 0.771876513958 -0.133877 -0.049203 0.989776
-0.472118586302 0.290565431118 0.781653642654 -0.136432 -0.049299 0.989422
-0.554605066776 0.502661824226 0.779496192932 -0.137042 -0.012256 0.990489
-0.517562031746 0.530887544155 0.784992635250 -0.137042 -0.012256 0.990489
-0.578849077225 1.156821250916 0.762211203575 -0.982514 -0.022092 0.184875
-0.587133586407 1.446618318558 0.754299700260 -0.981862 -0.034019 0.186519
-0.356309443712 0.463540911674 0.800475001335 -0.075589 -0.051488 0.995809
-0.387281298637 0.305486321449 0.790084540844 -0.075589 -0.051488 0.995809
0.097338870168 -0.243429705501 0.734400272369 -0.003109 0.998124 -0.061152
0.348882615566 -0.306133121252 0.717680096626 0.083218 -0.217361 0.972537
0.362592816353 -0.249071374536 0.729203462601 0.083218 -0.217361 0.972537
0.200342282653 -0.317431658506 0.725153207779 0.010590 -0.220032 0.975435
0.178756669164 -0.340149044991 0.720274329185 0.010590 -0.220032 0.975435
-0.395317494869 -0.296376079321 0.715891003609 -0.083218 -0.217361 0.972537
-0.343251347542 -0.299733310938 0.719583749771 -0.083218 -0.217361 0.972537
-0.384233057499 -0.276497900486 0.721257686615 -0.083218 -0.217361 0.972537
-0.385802626610 -0.345839321613 0.704725027084 -0.100798 -0.238597 0.965873
-0.320421308279 -0.373564481735 0.704788267612 -0.100798 -0.238597 0.965873
-0.069159097970 -0.332211971283 0.723476886749 -0.015319 -0.213285 0.976870
-0.021445492283 -0.262620449066 0.739389777184 -0.015319 -0.213285 0.976870
-0.010898848996 -0.391580402851 0.711500525475 -0.015319 -0.213285 0.976870
-0.043304421008 -0.260098785162 0.739703714848 -0.010590 -0.220032 0.975435
-0.076500311494 -0.289516955614 0.732738912106 -0.010590 -0.220032 0.975435
0.124558247626 -0.351091116667 0.718473970890 0.015319 -0.213285 0.976870
0.061922952533 -0.412136852741 0.706203401089 0.015319 -0.213285 0.976870
0.052257627249 -0.429487168789 0.702584385872 0.015319 -0.213285 0.976870
0.587576150894 0.029975295067 0.739876568317 0.982022 0.031603 0.186104
0.577905416489 0.231707006693 0.758712232113 0.982491 0.012700 0.185877
0.572090685368 0.501623988152 0.772274374962 0.983039 -0.001139 0.183394
0.576194107533 1.152510643005 0.767622947693 0.087613 0.052124 0.994790
0.577141523361 0.981041908264 0.753466248512 0.982791 -0.005734 0.184632
0.586733639240 1.408968210220 0.749639511108 0.981862 -0.034019 0.186519
0.591359257698 1.451604127884 0.732913017273 0.981778 -0.034098 0.186949
0.581728875637 1.105161905289 0.740951299667 0.982594 -0.022042 0.184454
0.420007884502 1.730252742767 0.742771506310 0.039562 0.997609 0.056670
0.291668653488 1.649344205856 0.774543881416 0.076025 0.091911 0.992861
0.250863999128 1.668126702309 0.775893032551 0.076025 0.091911 0.992861
0.188782438636 1.725781559944 0.772505223751 0.009645 0.093237 0.995597
0.160298794508 1.665781617165 0.778344511986 0.009645 0.093237 0.995597
0.107761703432 1.530706644058 0.796613574028 0.007186 0.046198 0.998906
0.100396603346 1.364322423935 0.799373865128 -0.999976 0.000983 0.006883
0.049346532673 1.247905492783 0.798088431358 0.007089 0.029369 0.999544
0.025752529502 1.299942493439 0.796723663807 0.007089 0.029369 0.999544
-0.038515724242 1.260034203529 0.797810018063 -0.007089 0.029369 0.999544
-0.095848172903 1.300371289253 0.796192288399 -0.007089 0.029369 0.999544
-0.208305120468 0.417766600847 0.808105528355 -0.007229 -0.050606 0.998693
-0.250505685806 0.455006420612 0.808069169521 -0.075589 -0.051488 0.995809
-0.297500342131 0.603581070900 0.806893289089 -0.075231 -0.013775 0.997071
-0.340234786272 0.700036287308 0.814972400665 -0.075231 -0.013775 0.997071
-0.437716424465 0.266551375389 0.781901121140 0.001007 -0.999513 0.031203
-0.457406222820 -0.115849599242 0.745958030224 0.989041 0.001110 -0.147635
0.061127617955 -0.244625374675 0.716500759125 -0.003109 0.998124 -0.061152
-0.099664993584 0.789905488491 0.814422070980 -0.007033 0.021100 0.999753
-0.093366354704 1.150097370148 0.802217364311 -0.007258 0.054952 0.998463
-0.088548429310 1.037003517151 0.808552742004 -0.007258 0.054952 0.998463
-0.026640901342 1.034106612206 0.809174478054 -0.007258 0.054952 0.998463
-0.003341266653 0.871628403664 0.813451945782 -0.007019 0.021058 0.999754
-0.010023508221 0.773264706135 0.815434455872 -0.007033 0.021100 0.999753
-0.080007404089 0.618506550789 0.813584208488 -0.006978 -0.012960 0.999892
-0.040079653263 0.495255112648 0.812252581120 -0.006978 -0.012960 0.999892
-0.004366821609 0.471808642149 0.812208592892 -0.006978 -0.012960 0.999892
-0.039585776627 0.418620139360 0.809403955936 -0.007229 -0.050606 0.998693
-0.084148988128 0.275608062744 0.801724851131 -0.007229 -0.050606 0.998693
0.294528305531 0.448964208364 0.804420650005 0.075589 -0.051488 0.995809
0.300284802914 1.142679929733 0.796111583710 0.075903 0.056102 0.995536
0.293090760708 1.173643827438 0.794944584370 0.075903 0.056102 0.995536
0.295544922352 1.497831225395 0.782174289227 0.075121 0.044637 0.996175
0.341620177031 1.491156101227 0.784401893616 0.997208 -0.003152 -0.074607
0.301671952009 1.298073530197 0.797682821751 -0.997220 0.003146 0.074451
0.301698267460 0.864101111889 0.814481794834 -0.997066 0.001048 0.076536
0.301653295755 0.390780746937 0.808605134487 -0.997208 -0.003152 0.074607
0.328972101212 0.537540018559 0.813700675964 0.075231 -0.013775 0.997071
0.307675480843 0.888776481152 0.815330684185 0.075864 0.020302 0.996911
0.341569006443 0.543737292290 0.807405292988 0.997066 0.001048 -0.076536
0.345036625862 0.487728387117 0.801762938499 0.075231 -0.013775 0.997071
0.344743669033 0.790706217289 0.804455578327 0.075864 0.020302 0.996911
0.444805353880 1.611112236977 0.765893220901 0.075121 0.044637 0.996175
0.393337488174 1.627426385880 0.768988192081 0.073752 0.094176 0.992820
0.458878755569 1.626237273216 0.764024436474 0.122955 0.041737 0.991534
0.482106834650 1.499035239220 0.766736626625 0.123495 0.044186 0.991361
0.391240507364 1.361342191696 0.781109631062 0.075121 0.044637 0.996175
0.440833985806 1.574851274490 0.767815470695 0.075121 0.044637 0.996175
0.430465817451 1.327961683273 0.779136419296 0.074197 0.029034 0.996821
0.353382289410 1.240507364273 0.787488818169 0.076335 0.029029 0.996660
0.378768444061 1.201833605766 0.786908447742 0.075912 0.053908 0.995656
0.362975955009 1.135783672333 0.791744410992 0.075912 0.053908 0.995656
0.406449645758 1.005044341087 0.795383453369 0.075702 0.020258 0.996925
0.370888054371 0.873217880726 0.800778329372 0.075864 0.020302 0.996911
0.382509082556 0.765891790390 0.802090227604 0.075864 0.020302 0.996911
0.399217247963 0.634327948093 0.799561262131 0.075231 -0.013775 0.997071
0.357126206160 0.650864481926 0.802979707718 0.075231 -0.013775 0.997071
0.440955072641 0.593828439713 0.795860886574 0.075231 -0.013775 0.997071
0.458534747362 0.710938990116 0.795504629612 0.137042 -0.012256 0.990489
0.485030561686 0.561320483685 0.789892852306 0.137042 -0.012256 0.990489
0.537730216980 0.798200011253 0.784147799015 0.137635 0.019023 0.990300
0.551158666611 0.842705428600 0.781420230865 0.137635 0.019023 0.990300
0.491698443890 0.910536885262 0.788303613663 0.135438 0.019029 0.990603
0.491603136063 1.034981608391 0.785105705261 0.134471 0.051720 0.989567
0.465494722128 1.208271265030 0.779234528542 0.131896 0.053906 0.989797
0.502141118050 1.103033542633 0.780106484890 0.131896 0.053906 0.989797
0.520370483398 1.284530520439 0.769835054874 0.131311 0.025813 0.991005
0.563480913639 1.344513773918 0.762493908405 0.129096 0.028064 0.991235
0.533008158207 1.397451877594 0.764525353909 0.130498 0.039717 0.990653
0.521657526493 0.593001782894 0.785223424435 0.137042 -0.012256 0.990489
0.559224784374 0.722542822361 0.781682074070 0.137042 -0.012256 0.990489
0.563935816288 0.425021350384 0.775738179684 0.136448 -0.047011 0.989531
0.443348884583 0.446302950382 0.792993307114 0.075589 -0.051488 0.995809
0.527792036533 0.335297912359 0.776274383068 0.136432 -0.049299 0.989422
0.482703685760 0.284901827574 0.779932558537 0.133877 -0.049203 0.989776
0.464763730764 0.221517428756 0.778068959713 0.134175 -0.073505 0.988228
0.473858624697 0.129978746176 0.768899321556 0.132985 -0.085911 0.987388
0.524240493774 0.121569141746 0.761381626129 0.132985 -0.085911 0.987388
0.516466200352 0.090808838606 0.759746134281 0.132985 -0.085911 0.987388
0.552886009216 0.062269575894 0.751337170601 0.171728 -0.096217 0.980434
0.548695504665 -0.104474134743 0.735637307167 0.171728 -0.096217 0.980434
0.579711794853 0.028395039961 0.743315517902 0.171728 -0.096217 0.980434
0.489894926548 -0.208404213190 0.725460827351 0.270259 -0.314085 0.910116
0.539663493633 -0.167069599032 0.725169777870 0.140785 -0.183908 0.972809
0.506343185902 -0.311430871487 0.698771655560 0.139613 -0.236167 0.961631
0.428333640099 -0.305252611637 0.710244357586 0.100798 -0.238597 0.965873
0.411080241203 -0.382649213076 0.692981600761 0.100798 -0.238597 0.965873
0.423061281443 -0.406962037086 0.664786159992 0.130950 -0.987433 0.088480
0.098550118506 -0.434314638376 0.693939745426 0.040203 -0.996375 0.074973
0.326466262341 1.400558710098 0.794298768044 0.075121 0.044637 0.996175
0.316235989332 1.270246744156 0.799498617649 0.076335 0.029029 0.996660
0.318102717400 1.170018315315 0.803329825401 0.075912 0.053908 0.995656
0.319155126810 1.105948090553 0.806787788868 0.075903 0.056102 0.995536
0.282605707645 1.587486624718 0.779108881950 0.075121 0.044637 0.996175
0.264745563269 1.623940944672 0.778816878796 0.075121 0.044637 0.996175
0.281712681055 1.497239470482 0.783239305019 0.075121 0.044637 0.996175
0.250787883997 1.370925664902 0.791259050369 0.075285 0.044734 0.996158
0.203853845596 1.378036737442 0.792804896832 0.007186 0.046198 0.998906
0.155645683408 1.381372928619 0.793008863926 0.007186 0.046198 0.998906
0.222667336464 1.231102466583 0.797300934792 0.007089 0.029369 0.999544
0.158638268709 1.191384077072 0.799433767796 0.007258 0.054952 0.998463
0.134633585811 1.052618980408 0.817390203476 0.007258 0.054952 0.998463
0.094582498074 1.193549156189 0.799787998199 0.007258 0.054952 0.998463
0.074991881847 1.169619679451 0.801266074181 0.007258 0.054952 0.998463
0.074229717255 1.030346870422 0.809029877186 0.007258 0.054952 0.998463
0.009305965155 0.880373775959 0.813226878643 0.007019 0.021058 0.999754
0.085274524987 0.861691713333 0.813046693802 0.007033 0.021100 0.999753
0.064835153520 0.656948864460 0.814205408096 0.006978 -0.012960 0.999892
0.080677352846 0.485903650522 0.811826586723 0.006978 -0.012960 0.999892
0.060630951077 0.500034213066 0.812162756920 0.006978 -0.012960 0.999892
0.003154043108 0.426701158285 0.810089766979 0.007229 -0.050606 0.998693
0.015029692091 0.333489269018 0.805211544037 0.007229 -0.050606 0.998693
0.108833953738 1.087231874466 0.815654337406 0.007258 0.054952 0.998463
0.139500573277 0.976616680622 0.820305466652 0.007019 0.021058 0.999754
0.127482801676 0.574404954910 0.822682797909 0.006978 -0.012960 0.999892
0.116926595569 0.757170259953 0.825006186962 0.007033 0.021100 0.999753
0.100412659347 0.734939098358 0.822251796722 -0.999976 -0.000983 0.006883
0.100360155106 0.551639735699 0.812785387039 -0.999976 -0.000983 0.006883
0.140957891941 0.625950098038 0.813228189945 0.006978 -0.012960 0.999892
0.198556065559 0.828441858292 0.812888562679 0.007019 0.021058 0.999754
0.205382287502 0.876441895962 0.811846613884 0.007019 0.021058 0.999754
0.226892009377 0.973868012428 0.809657931328 0.075864 0.020302 0.996911
0.276645034552 1.209562897682 0.794202089310 0.075903 0.056102 0.995536
0.279902219772 1.301326990128 0.791272997856 0.076335 0.029029 0.996660
0.256065785885 1.292471766472 0.793331861496 0.074197 0.029034 0.996821
0.264923006296 0.842485070229 0.809465944767 0.075864 0.020302 0.996911
0.243003457785 0.684280157089 0.812097132206 0.075231 -0.013775 0.997071
0.214085116982 0.618176221848 0.812580227852 0.006978 -0.012960 0.999892
0.188689634204 0.473281472921 0.810855150223 0.006978 -0.012960 0.999892
0.167689174414 0.743524789810 0.814582407475 0.006978 -0.012960 0.999892
0.249715045094 0.277129888535 0.799050331116 0.075589 -0.051488 0.995809
0.129816889763 0.491929680109 0.821575284004 0.006978 -0.012960 0.999892
0.116670124233 0.375457793474 0.816662311554 0.007229 -0.050606 0.998693
-0.132287278771 0.914380609989 0.821644604206 -0.007019 0.021058 0.999754
-0.140539705753 0.588622629642 0.817835748196 -0.999976 0.000983 -0.006883
-0.200885534286 0.348124563694 0.804583668709 -0.007229 -0.050606 0.998693
-0.202799618244 0.296067088842 0.801895856857 -0.007229 -0.050606 0.998693
-0.304576456547 0.317477047443 0.796957373619 -0.075589 -0.051488 0.995809
-0.167984560132 0.267089277506 0.798736691475 0.001007 -0.999513 0.031203
-0.100377760828 0.500105798244 0.814468622208 0.999976 -0.000983 0.006883
-0.120482102036 0.491005003452 0.821632564068 -0.006978 -0.012960 0.999892
-0.106949292123 0.859623968601 0.822964370251 -0.007033 0.021100 0.999753
0.459718674421 -0.145352140069 0.730559468269 -0.989041 0.001110 -0.147635
0.415058344603 0.265828192234 0.759268522263 -0.001007 -0.999513 0.031203
-0.919180035591 1.068235993385 0.197482451797 -0.993144 -0.007631 0.116648
-0.924489200115 1.097010970116 0.153818339109 -0.993227 -0.003256 0.116148
-0.931950449944 1.146888256073 0.090779677033 -0.996696 -0.001055 0.081212
-0.895486772060 1.164567947388 0.074945278466 0.001299 0.905318 -0.424733
-0.875699400902 1.136971831322 0.017361981794 0.001313 0.891519 -0.452981
-0.844012856483 1.093665719032 -0.065819092095 0.001327 0.874782 -0.484515
-0.863176047802 1.056940793991 -0.134338408709 0.001313 0.891519 -0.452981
-0.843435168266 1.029826045036 -0.184910148382 0.001342 0.854638 -0.519223
-0.915400207043 0.973266303539 -0.277674794197 0.001342 0.854638 -0.519223
-0.845094263554 0.590842962265 -0.331064015627 0.000995 0.018902 -0.999821
-0.839888393879 0.726732254028 -0.328450739384 0.000995 0.018902 -0.999821
-0.842042922974 0.718851804733 -0.328602313995 0.000995 0.018902 -0.999821
-0.859917938709 0.249924242496 -0.337620139122 0.000995 0.018902 -0.999821
-0.828331232071 0.283323317766 -0.336977869272 0.000995 0.018902 -0.999821
-0.910877466202 0.297799706459 -0.336699455976 0.000995 0.018902 -0.999821
-0.933241605759 0.160938739777 -0.250770837069 -0.998844 0.001022 -0.048051
-0.880747675896 0.132531523705 -0.230209290981 0.000983 -0.999976 -0.006883
-0.818289816380 0.132385328412 -0.211535856128 0.000983 -0.999976 -0.006883
-0.932964324951 0.795326232910 -0.177518785000 -0.350574 -0.026967 0.936147
-0.953471958637 0.289113521576 -0.173176735640 -0.999633 0.001003 -0.027071
-0.953700244427 0.276692509651 -0.164934799075 -0.999633 0.001003 -0.027071
-0.953211307526 0.509686052799 -0.177604258060 -0.999686 0.001001 -0.025017
-0.953310012817 0.418273150921 -0.175894021988 -0.999686 0.001001 -0.025017
-0.947210431099 0.325960427523 -0.187306717038 -0.445503 0.022608 -0.894995
-0.942018985748 1.019248604774 -0.153923824430 -0.999780 0.000999 -0.020974
-0.943804621696 0.275368928909 -0.132189735770 -0.341312 -0.026845 0.939567
-0.953405857086 0.229412540793 -0.137053832412 -0.344369 -0.029444 0.938373
-0.839519858360 0.132436513901 -0.185987576842 0.000991 -0.999889 0.014865
-0.917082130909 0.132647350430 -0.172664716840 0.000991 -0.999889 0.014865
-0.937189638615 0.984281480312 -0.082219049335 -0.999999 0.000978 -0.000978
-0.937188804150 0.866102635860 -0.085958808661 -0.999999 0.000978 -0.000978
-0.937177121639 0.413795858622 -0.110291115940 -0.999999 0.000978 -0.000978
-0.937200784683 0.610461115837 -0.080956265330 -0.999999 0.000978 -0.000978
-0.937222719193 0.384006738663 -0.061869449914 -0.999999 0.000978 -0.000978
-0.937196552753 0.350071310997 -0.091068312526 -0.999999 0.000978 -0.000978
-0.867844343185 0.135223433375 -0.073465339839 0.001009 -0.999445 0.033281
-0.830304503441 0.134237915277 -0.103415578604 0.001009 -0.999445 0.033281
-0.936119675636 0.182644054294 -0.001774180681 -0.999821 -0.000995 0.018902
-0.936005830765 0.450979918242 0.009362742305 -0.999821 -0.000995 0.018902
-0.936084747314 0.506805300713 0.006291797385 -0.999821 -0.000995 0.018902
-0.936499297619 0.648416936398 -0.012743804604 -0.999821 -0.000995 0.018902
-0.936411440372 0.710883557796 -0.006927898154 -0.999821 -0.000995 0.018902
-0.936111092567 0.734736442566 0.009294142015 -0.999821 -0.000995 0.018902
-0.936217248440 0.814444661140 0.005255494267 -0.999821 -0.000995 0.018902
-0.936988592148 0.926068961620 -0.033048264682 -0.999821 -0.000995 0.018902
-0.936362922192 1.122360706329 0.003624379402 -0.999821 -0.000995 0.018902
-0.935412287712 1.010659217834 0.037057649344 -0.997991 -0.001038 0.063348
-0.934052526951 0.646075069904 0.051213741302 -0.997991 -0.001038 0.063348
-0.933550953865 0.365205019712 0.053642179817 -0.997991 -0.001038 0.063348
-0.933177232742 0.316087722778 0.058531485498 -0.997991 -0.001038 0.063348
-0.935745894909 0.143027275801 0.015736047179 -0.997999 0.001036 0.063217
-0.918847143650 0.139274969697 0.048805657774 0.001024 -0.998739 0.050193
-0.932575404644 0.261563718319 0.065982766449 -0.996696 -0.001055 0.081212
-0.925720453262 0.929891467094 0.138398930430 -0.992612 -0.005460 0.121210
-0.929523229599 0.882267951965 0.105666995049 -0.992653 -0.003269 0.120949
-0.923652887344 0.739268183708 0.147888034582 -0.992313 -0.005470 0.123629
-0.929770469666 0.736369967461 0.098716720939 -0.992313 -0.005470 0.123629
-0.930634975433 0.794915497303 0.094313241541 -0.992313 -0.005470 0.123629
-0.923864901066 0.458287477493 0.134358689189 -0.990076 -0.003319 0.140491
-0.929673492908 0.645155072212 0.097221277654 -0.990076 -0.003319 0.140491
-0.925757825375 0.282172292471 0.117698177695 -0.990076 -0.003319 0.140491
-0.921631813049 0.222066819668 0.144930958748 -0.989721 -0.003325 0.142972
-0.922472774982 0.213281780481 0.138797208667 -0.989666 -0.005554 0.143285
-0.818077385426 0.141136586666 0.065183192492 0.001217 -0.957524 0.288352
-0.889746069908 0.155430480838 0.181406512856 0.001087 -0.992690 0.120688
-0.922761201859 0.542344868183 0.193287968636 -0.963205 0.013361 -0.268434
-0.922278404236 0.530754208565 0.206224322319 -0.819340 -0.029114 0.572568
-0.919248402119 0.724299967289 0.220071732998 -0.817121 -0.029133 0.575730
-0.915171623230 0.713614583015 0.225325569510 -0.817121 -0.029133 0.575730
-0.864954829216 0.331677317619 0.277707397938 -0.817121 -0.029133 0.575730
-0.851781427860 0.728804349899 0.315954506397 -0.817121 -0.029133 0.575730
-0.872087955475 0.631182789803 0.282351583242 -0.817121 -0.029133 0.575730
-0.891382277012 1.049638867378 0.274962544441 -0.815878 -0.026319 0.577625
-0.892798066139 0.912630856037 0.266830891371 -0.815878 -0.026319 0.577625
-0.873867154121 0.979003489017 0.296858072281 -0.820311 -0.026283 0.571313
-0.877154231071 0.883214533329 0.287607103586 -0.817121 -0.029133 0.575730
-0.813034713268 0.281476765871 0.303357690573 0.001024 -0.050193 0.998739
-0.830536365509 0.624382495880 0.320254474878 0.001024 -0.050193 0.998739
-0.815233707428 0.873704314232 0.332582622766 0.001024 -0.050193 0.998739
-0.808879733086 0.594763934612 0.315814137459 0.893398 0.022635 -0.448696
-0.808482229710 0.260940790176 0.300157636404 0.893398 0.022635 -0.448696
-0.821034908295 1.209156155586 0.243736609817 0.001067 0.995277 0.097074
-0.834114491940 1.196941852570 0.191245988011 0.001186 0.969369 -0.245605
-0.919396996498 1.189188718796 0.201324582100 -0.993465 -0.005429 0.114004
-0.899726510048 0.914045691490 0.199856549501 -0.198710 -0.039266 0.979271
-0.899666070938 1.106048941612 0.266745835543 -0.816195 -0.029199 0.577038
-0.877352833748 1.101302385330 0.298121809959 -0.817121 -0.029133 0.575730
-0.926656901836 0.995228946209 -0.241653472185 0.001342 0.854638 -0.519223
-0.921185076237 0.812252521515 -0.326803416014 0.000997 0.020933 -0.999780
-0.929456174374 0.780790805817 -0.318718850613 -0.998513 0.001028 -0.054502
-0.929366588593 0.331664085388 -0.329013973475 -0.998513 0.001028 -0.054502
-0.933838546276 0.714391767979 -0.223478510976 -0.998945 0.001020 -0.045917
-0.934552133083 0.747863352299 -0.206957995892 -0.998945 0.001020 -0.045917
-0.931295394897 0.622272014618 -0.281829297543 -0.998945 0.001020 -0.045917
-0.929920017719 0.759002983570 -0.309799998999 -0.998945 0.001020 -0.045917
-0.935380041599 0.513480663300 -0.195588991046 -0.998940 0.001022 -0.046011
-0.933055818081 0.476959556341 -0.246225938201 -0.998940 0.001022 -0.046011
-0.934067666531 0.464146316051 -0.225001618266 -0.998940 0.001022 -0.046011
-0.935636401176 0.758682906628 -0.183093398809 -0.999036 0.001020 -0.043880
-0.929267585278 0.859255194664 -0.320665657520 -0.998513 0.001028 -0.054502
-0.934583187103 0.894293010235 -0.202641904354 -0.999036 0.001020 -0.043880
-0.930803656578 0.876110017300 -0.287612617016 -0.999036 0.001020 -0.043880
-0.932769179344 0.934993326664 -0.242132738233 -0.999036 0.001020 -0.043880
-0.931964576244 0.958601534367 -0.259577006102 -0.999036 0.001020 -0.043880
-0.920028924942 0.130875959992 -0.157764822245 0.000991 0.999889 -0.014865
-0.847972571850 0.130365520716 -0.209920153022 0.000983 0.999976 0.006883
-0.859029769897 0.131153792143 -0.310610443354 0.000983 0.999976 0.006883
-0.887336969376 -0.089328125119 -0.345992207527 0.001009 0.033281 -0.999445
-0.853676736355 -0.242207974195 -0.351088434458 0.001009 0.033281 -0.999445
-0.831791102886 -0.125051796436 -0.347183048725 0.001009 0.033281 -0.999445
-0.897281587124 -0.226145684719 -0.350552976131 0.001009 0.033281 -0.999445
-0.832785069942 -0.264487564564 -0.351831138134 0.001009 0.033281 -0.999445
-0.915618360043 -0.713363170624 -0.366794317961 0.001009 0.033281 -0.999445
-0.896389365196 -0.566834211349 -0.361909806728 0.001009 0.033281 -0.999445
-0.912614524364 -0.640909194946 -0.364379078150 0.001009 0.033281 -0.999445
-0.860763907433 -0.629825711250 -0.364009618759 0.001009 0.033281 -0.999445
-0.907099068165 -0.702985644341 -0.366448402405 0.001009 0.033281 -0.999445
-0.884322226048 -0.875564932823 -0.372201323509 0.001009 0.033281 -0.999445
-0.920742094517 -0.918170988560 -0.373621582985 0.001009 0.033281 -0.999445
-0.879537642002 -0.961569786072 -0.350815087557 0.001030 -0.998393 -0.056668
-0.937196850777 0.130585938692 -0.094406977296 -0.999999 0.000978 -0.000978
-0.934679448605 -0.836332798004 -0.174227774143 -0.098652 -0.041013 0.994277
-0.936725437641 -0.358426451683 -0.213957622647 -0.093844 0.040850 -0.994748
-0.943090319633 -0.944382429123 -0.212178722024 -0.999780 0.000999 -0.020974
-0.942946851254 -0.916429579258 -0.217649191618 -0.999780 0.000999 -0.020974
-0.952975332737 -0.877156734467 -0.211938306689 -0.999685 0.001003 -0.025067
-0.951200187206 -0.065588004887 -0.197201073170 -0.431404 0.033390 -0.901541
-0.944161415100 -0.315837889910 -0.210822388530 -0.435582 0.038867 -0.899310
-0.953135430813 -0.405913174152 -0.187787950039 -0.999685 0.001003 -0.025067
-0.953740000725 -0.513197004795 -0.167870849371 -0.999685 0.001003 -0.025067
-0.953005313873 -0.096100434661 -0.181529223919 -0.999685 0.001003 -0.025067
-0.841173946857 -0.970672667027 -0.199022382498 0.001042 -0.997558 -0.069839
-0.923102736473 -0.971838235855 -0.182130470872 0.001042 -0.997558 -0.069839
-0.937164545059 -0.326327234507 -0.148287579417 -0.999999 0.000978 -0.000978
-0.937178373337 -0.007012104616 -0.119526684284 -0.999999 0.000978 -0.000978
-0.937173426151 -0.679831445217 -0.152670979500 -0.999999 0.000978 -0.000978
-0.937202453613 -0.132716476917 -0.097206473351 -0.999999 0.000978 -0.000978
-0.937211155891 -0.420806288719 -0.098455086350 -0.999999 0.000978 -0.000978
-0.937219977379 -0.387431025505 -0.086437508464 -0.999999 0.000978 -0.000978
-0.937207818031 -0.604216277599 -0.108568161726 -0.999999 0.000978 -0.000978
-0.936630129814 -0.647513151169 -0.053762912750 -0.999821 -0.000995 0.018902
-0.936906158924 -0.699145257473 -0.069955185056 -0.999821 -0.000995 0.018902
-0.936202228069 -0.701313495636 -0.033092509955 -0.999821 -0.000995 0.018902
-0.936720192432 -0.485592603683 -0.053135484457 -0.999821 -0.000995 0.018902
-0.936862766743 -0.129729360342 -0.048857241869 -0.999821 -0.000995 0.018902
-0.936704874039 -0.072258673608 -0.038668546826 -0.999821 -0.000995 0.018902
-0.937143325806 0.056541174650 -0.057424660772 -0.999821 -0.000995 0.018902
-0.937225282192 0.037726201117 -0.065519228578 -0.999999 0.000978 -0.000978
-0.937165260315 0.107116080821 -0.129356041551 -0.999999 0.000978 -0.000978
-0.937168896198 0.111808031797 -0.125168532133 -0.999999 0.000978 -0.000978
-0.936507940292 0.127350300550 -0.022304296494 -0.999821 0.000995 0.018902
-0.936147034168 0.112471044064 -0.003351660445 -0.999821 0.000995 0.018902
-0.935852169991 0.075870424509 0.010988254100 -0.999821 -0.000995 0.018902
-0.936318814754 0.045240432024 -0.014521368779 -0.999821 -0.000995 0.018902
-0.935755670071 -0.341456294060 0.000631853298 -0.997987 -0.003115 0.063348
-0.934044301510 -0.203413218260 0.031930878758 -0.997987 -0.003115 0.063348
-0.933147549629 -0.817229151726 0.025621676818 -0.997987 -0.003115 0.063348
-0.931987881660 -0.201745599508 0.061278015375 -0.996692 -0.003164 0.081212
-0.932576298714 -0.470985054970 0.045117273927 -0.996692 -0.003164 0.081212
-0.925307393074 -0.037414364517 0.109414897859 -0.987766 -0.005606 0.155845
-0.927572429180 -0.362600743771 0.083014912903 -0.986470 -0.005650 0.163847
-0.927660822868 -0.183009475470 0.088430114090 -0.986470 -0.005650 0.163847
-0.925324797630 -0.277724593878 0.099351823330 -0.986470 -0.005650 0.163847
-0.920908153057 -0.267920732498 0.125388890505 -0.975178 -0.013002 0.221040
-0.919701874256 -0.448220729828 0.119583904743 -0.975178 -0.013002 0.221040
-0.922110259533 -0.894145607948 0.081751793623 -0.974029 -0.013019 0.226050
-0.931771278381 -0.920376002789 0.039026167244 -0.973026 -0.008276 0.230547
-0.835058093071 -0.968761324883 0.074288189411 0.001059 -0.996132 0.087863
-0.924941956997 -0.865087687969 0.112506926060 -0.910107 0.027739 -0.413445
-0.885384202003 -0.957312643528 0.146480858326 0.001162 -0.977134 0.212622
-0.896439433098 -0.385046005249 0.187685772777 -0.817573 -0.040529 0.574397
-0.870143532753 -0.845222949982 0.193021416664 -0.817573 -0.040529 0.574397
-0.879086017609 -0.598094642162 0.197512164712 -0.817573 -0.040529 0.574397
-0.887865364552 -0.644420385361 0.181819871068 -0.817573 -0.040529 0.574397
-0.922863185406 -0.413500249386 0.139097943902 -0.910107 0.027739 -0.413445
-0.919978737831 -0.455368846655 0.128150060773 -0.948012 0.018835 -0.317678
-0.906795918941 -0.101789094508 0.161766022444 -0.421806 0.896159 -0.137761
-0.895196974277 -0.005721534602 0.171674564481 -0.999999 0.000978 0.000978
-0.842812001705 0.141451254487 0.083335801959 0.001071 0.994811 -0.101730
-0.837605476379 0.145886152983 0.126826494932 0.001071 0.994811 -0.101730
-0.920522212982 0.151122763753 0.178179189563 0.001071 0.994811 -0.101730
-0.908474862576 -0.101912990212 0.166332006454 -0.428733 0.903354 -0.011800
-0.890278697014 -0.075235500932 0.218433424830 -0.822021 -0.040473 0.568018
-0.854760706425 -0.170248612761 0.263098090887 -0.822021 -0.040473 0.568018
-0.880687773228 -0.134481593966 0.228139683604 -0.822021 -0.040473 0.568018
-0.875388443470 -0.329223066568 0.221850529313 -0.822021 -0.040473 0.568018
-0.849596738815 -0.349205672741 0.257744282484 -0.822021 -0.040473 0.568018
-0.848137915134 -0.715862452984 0.233571141958 -0.816643 -0.040622 0.575712
-0.852475643158 0.132919177413 0.287904083729 -0.821210 -0.001362 0.570625
-0.904842317104 0.122314579785 0.211101144552 -0.823797 -0.026306 0.566274
-0.880755126476 0.118108876050 0.245881766081 -0.823324 -0.040537 0.566122
-0.853685259819 -0.057081013918 0.272741645575 -0.823324 -0.040537 0.566122
-0.847156226635 -0.095260076225 0.279479473829 -0.822021 -0.040473 0.568018
-0.828278720379 -0.153232157230 0.278262197971 0.001044 -0.072063 0.997400
-0.815397441387 -0.928938806057 0.222825095057 0.001020 -0.045917 0.998945
-0.836004078388 -0.868642807007 0.226883009076 0.001044 -0.072063 0.997400
-0.825541615486 -0.847959816456 0.228368446231 0.001044 -0.072063 0.997400
-0.811803698540 -0.689109146595 0.239776745439 0.001044 -0.072063 0.997400
-0.932847917080 -0.427287131548 -0.278214395046 -0.998840 0.001024 -0.048149
-0.931076645851 -0.590092182159 -0.320693075657 -0.998840 0.001024 -0.048149
-0.930952966213 -0.593368411064 -0.323389708996 -0.998840 0.001024 -0.048149
-0.930740714073 -0.128465652466 -0.312345802784 -0.998840 0.001024 -0.048149
-0.934391617775 -0.241267815232 -0.239723563194 -0.998840 0.001024 -0.048149
-0.933086454868 -0.493753284216 -0.276055991650 -0.998730 0.003079 -0.050296
-0.934279859066 -0.821220755577 -0.265922486782 -0.998730 0.003079 -0.050296
-0.932318687439 -0.731235444546 -0.301171004772 -0.998730 0.003079 -0.050296
-0.932421982288 -0.808737993240 -0.302334725857 -0.998730 0.003079 -0.050296
-0.931320428848 0.040975846350 -0.294170677662 -0.998844 0.001022 -0.048051
-0.931649625301 -0.049515791237 -0.290310472250 -0.998844 0.001022 -0.048051
-0.934535503387 0.007142918650 -0.227466180921 -0.998840 0.001024 -0.048149
-0.929749548435 0.121085733175 -0.324922949076 -0.998844 0.001022 -0.048051
-0.931147694588 0.102351032197 -0.295672029257 -0.998940 0.001022 -0.046011
-0.934442937374 0.088757045567 -0.226241603494 -0.998840 0.001024 -0.048149
0.875005125999 0.959316015244 0.294342249632 0.820311 -0.026283 0.571313
0.855182051659 1.067221760750 0.327826172113 0.821545 -0.029093 0.569401
0.930234432220 1.045201063156 0.103417314589 0.992943 -0.003263 0.118544
0.924372911453 1.030603170395 0.152535796165 0.992943 -0.003263 0.118544
0.921017587185 0.933532714844 0.177011668682 0.992612 -0.005460 0.121210
0.911571979523 0.521969735622 0.220986127853 0.817121 -0.029133 0.575730
0.909865677357 0.698004424572 0.232079640031 0.817121 -0.029133 0.575730
0.891644299030 0.475286781788 0.246941104531 0.817121 -0.029133 0.575730
0.888090729713 0.515517711639 0.253962010145 0.817121 -0.029133 0.575730
0.873152971268 0.760890305042 0.287232875824 0.817121 -0.029133 0.575730
0.849118530750 0.749783635139 0.320763915777 0.817121 -0.029133 0.575730
0.849007904530 0.421150594950 0.304727256298 0.817121 -0.029133 0.575730
0.832182884216 1.155582189560 0.346657395363 0.001024 -0.050193 0.998739
0.930980861187 1.106427907944 0.098441213369 0.993227 -0.003256 0.116148
0.864208698273 0.237662017345 0.274132758379 0.817121 -0.029133 0.575730
0.827143549919 0.506927371025 0.314466834068 0.001024 -0.050193 0.998739
0.824015498161 0.950806796551 0.336432516575 0.001024 -0.050193 0.998739
0.825981020927 0.991656363010 0.338472217321 0.001024 -0.050193 0.998739
0.897812545300 0.158155277371 0.202486157417 0.001106 -0.989771 0.142660
0.836087465286 0.139530703425 0.053836349398 0.001024 -0.998739 0.050193
0.910309851170 0.136976584792 -0.007929277606 0.001001 -0.999686 0.025017
0.904786169529 0.134823188186 -0.085628509521 0.001009 -0.999445 0.033281
0.893694043159 0.132636219263 -0.173367410898 0.000991 -0.999889 0.014865
0.846053242683 0.137561738491 -0.339115619659 0.000978 0.000978 -0.999999
0.904391646385 0.162281930447 -0.339115619659 0.000978 0.000978 -0.999999
0.894391000271 0.221095561981 -0.338174521923 0.000995 0.018902 -0.999821
0.867816507816 0.421628355980 -0.334318131208 0.000995 0.018902 -0.999821
0.879350900650 0.447187572718 -0.333826631308 0.000995 0.018902 -0.999821
0.882548987865 0.413427114487 -0.334475845098 0.000995 0.018902 -0.999821
0.859031140804 0.687386214733 -0.329207420349 0.000995 0.018902 -0.999821
0.817667126656 0.776631951332 -0.327491164207 0.000995 0.018902 -0.999821
0.875150144100 0.584645152092 -0.331183195114 0.000995 0.018902 -0.999821
0.835851252079 0.884224236012 -0.325366169214 0.000997 0.020933 -0.999780
0.861530065536 0.916736900806 -0.324716895819 0.000997 0.020933 -0.999780
0.840374708176 0.939395129681 -0.324269592762 0.000978 0.000978 -0.999999
0.917936861515 0.998787164688 -0.235817745328 0.001342 0.854638 -0.519223
0.865449488163 0.996099889278 -0.240225046873 0.001342 0.854638 -0.519223
0.927126407623 0.133224889636 -0.318777620792 0.000983 -0.999976 -0.006883
0.924959540367 0.205252692103 -0.338479161263 0.000995 0.018902 -0.999821
0.941948950291 1.002730965614 -0.157651215792 0.999780 0.000999 -0.020974
0.932633519173 0.908108532429 -0.113024860620 0.053868 -0.028518 0.998141
0.940649092197 0.406629264355 -0.127973899245 0.053755 -0.028458 0.998149
0.954155385494 0.588735580444 -0.138009071350 0.999633 0.001003 -0.027071
0.935267269611 0.149931132793 -0.134472697973 0.052343 0.001026 0.998629
0.953289151192 0.644240379333 -0.171113952994 0.999686 0.001001 -0.025017
0.942161023617 0.372368454933 -0.188203617930 0.289854 0.028612 -0.956643
0.930814445019 0.133458435535 -0.302310317755 0.998844 0.001022 -0.048051
0.934750497341 0.247315794230 -0.216623872519 0.998940 0.001022 -0.046011
0.930270671844 0.252863883972 -0.312054216862 0.998940 0.001022 -0.046011
0.934112787247 0.503633618355 -0.222910165787 0.998940 0.001022 -0.046011
0.934079945087 0.758354842663 -0.217261210084 0.998945 0.001020 -0.045917
0.930802345276 0.778919994831 -0.289786934853 0.998945 0.001020 -0.045917
0.931216895580 0.553706586361 -0.284894883633 0.998945 0.001020 -0.045917
0.930617988110 0.490069687366 -0.299443572760 0.998945 0.001020 -0.045917
0.931319475174 0.831271231174 -0.277124464512 0.999036 0.001020 -0.043880
0.931440472603 0.819886565208 -0.274687737226 0.999036 0.001020 -0.043880
0.914975941181 0.156156539917 0.188388377428 0.001067 -0.995277 0.097074
0.826632320881 0.374747246504 0.307953625917 0.001024 -0.050193 0.998739
0.924241065979 0.158434391022 0.124813392758 0.989410 0.001108 0.145143
0.926975131035 0.203508138657 0.107113748789 0.989721 -0.003325 0.142972
0.920639455318 0.207717165351 0.171672448516 0.949832 0.013694 -0.312461
0.937220096588 0.223092198372 -0.067830480635 0.999999 0.000978 -0.000978
0.937165677547 0.676001966000 -0.114422872663 0.999999 0.000978 -0.000978
0.937182545662 0.595321357250 -0.099738731980 0.999999 0.000978 -0.000978
0.937216460705 0.270151853561 -0.070859387517 0.999999 0.000978 -0.000978
0.937197208405 0.392342567444 -0.089541137218 0.999999 0.000978 -0.000978
0.936971127987 0.479634582996 -0.040754236281 0.999821 -0.000995 0.018902
0.936941683292 0.748202443123 -0.034041874111 0.999821 -0.000995 0.018902
0.936258018017 0.582937657833 -0.001338358968 0.999821 -0.000995 0.018902
0.936356663704 0.305736780167 -0.011844798923 0.999821 -0.000995 0.018902
0.935517907143 0.506932258606 0.025663806126 0.997991 -0.001038 0.063348
0.933861255646 0.256807208061 0.046714127064 0.997991 -0.001038 0.063348
0.924502730370 0.472672909498 0.130162611604 0.990076 -0.003319 0.140491
0.931442201138 0.267172098160 0.077549926937 0.990076 -0.003319 0.140491
0.925714790821 0.276840776205 0.117897324264 0.990076 -0.003319 0.140491
0.920831501484 0.516868233681 0.160904720426 0.992313 -0.005470 0.123629
0.923424601555 0.589208722115 0.143238842487 0.992313 -0.005470 0.123629
0.925008475780 0.698877334595 0.135275781155 0.992313 -0.005470 0.123629
0.933524966240 0.809752225876 0.062597446144 0.997991 -0.001038 0.063348
0.936200082302 0.862376272678 0.007093099877 0.999821 -0.000995 0.018902
0.937171041965 0.908777773380 -0.102492094040 0.999999 0.000978 -0.000978
0.937226235867 0.948290050030 -0.046953465790 0.999999 0.000978 -0.000978
0.936288058758 0.960557579994 0.004392705858 0.999821 -0.000995 0.018902
0.937220752239 1.045307636261 -0.050372418016 0.999999 0.000978 -0.000978
0.934980928898 1.097011685371 0.045475952327 0.997991 -0.001038 0.063348
0.840774953365 1.039588093758 -0.168373733759 0.001313 0.891519 -0.452981
0.844246804714 1.073723316193 -0.101819753647 0.001327 0.874782 -0.484515
0.811026275158 1.144533038139 0.032264254987 0.001313 0.891519 -0.452981
0.872984707355 1.189327239990 0.161165103316 0.001186 0.969369 -0.245605
0.846323192120 0.923497319221 0.333362460136 0.817121 -0.029133 0.575730
0.874126195908 0.886344313622 0.292059123516 0.817121 -0.029133 0.575730
0.854881703854 1.012531042099 0.325664490461 0.817121 -0.029133 0.575730
0.886108934879 0.890211224556 0.275245368481 0.817121 -0.029133 0.575730
0.897242963314 1.051796913147 0.224554821849 0.281143 -0.942172 0.182400
0.910409212112 -0.112116269767 0.186734527349 0.822021 -0.040473 0.568018
0.902412652969 -0.299794048071 0.185132518411 0.817573 -0.040529 0.574397
0.859934687614 -0.833200573921 0.208357691765 0.817573 -0.040529 0.574397
0.905854046345 -0.620973765850 0.157901197672 0.817573 -0.040529 0.574397
0.880502164364 -0.560791730881 0.198095813394 0.817573 -0.040529 0.574397
0.878368139267 -0.439733713865 0.209617123008 0.822021 -0.040473 0.568018
0.887743592262 -0.187597304583 0.214121282101 0.822021 -0.040473 0.568018
0.857591092587 -0.174731910229 0.258680582047 0.822021 -0.040473 0.568018
0.847145736217 -0.524392485619 0.248730450869 0.816643 -0.040622 0.575712
0.842930436134 -0.152271404862 0.278331220150 0.001044 -0.072063 0.997400
0.874263346195 -0.023355824873 0.245272651315 0.823324 -0.040537 0.566122
0.903789103031 -0.048110537231 0.200767904520 0.822021 -0.040473 0.568018
0.904019832611 0.062222685665 0.208127498627 0.822021 -0.040473 0.568018
0.871591746807 0.111733675003 0.258762627840 0.823324 -0.040537 0.566122
0.876982152462 0.148700982332 0.252622634172 0.821210 -0.001362 0.570625
0.922308862209 -0.122721545398 0.168803289533 0.817573 -0.040529 0.574397
0.921538591385 -0.681431710720 0.131330907345 0.816643 -0.040622 0.575712
0.918163359165 -0.347233682871 0.159197285771 0.817573 -0.040529 0.574397
0.861879289150 -0.852805554867 0.204220399261 0.816643 -0.040622 0.575712
0.811699926853 -0.133384704590 0.279687613249 0.001044 -0.072063 0.997400
0.834450542927 0.114525899291 0.297492086887 0.001044 -0.072063 0.997400
0.922868371010 0.091822728515 0.171473950148 0.954730 0.021106 -0.296724
0.929509997368 0.086779102683 0.087155923247 0.988109 -0.005608 0.153656
0.920067489147 0.039243612438 0.145227849483 0.987967 -0.010139 0.154335
0.922509312630 0.028726786375 0.129291683435 0.987766 -0.005606 0.155845
0.918829679489 -0.415761262178 0.127168044448 0.948012 0.018835 -0.317678
0.923722624779 -0.871320605278 0.115123651922 0.816643 -0.040622 0.575712
0.835144937038 -0.753653645515 0.235141307116 0.001044 -0.072063 0.997400
0.830557227135 -0.943496465683 0.210035294294 0.001162 -0.977134 0.212622
0.851308226585 -0.970709383488 0.051956411451 0.001059 -0.996132 0.087863
0.902604281902 -0.973237633705 0.013083521277 0.000993 -0.999857 0.016879
0.847618520260 -0.965679824352 -0.277905166149 0.001030 -0.998393 -0.056668
0.844870507717 -0.931749641895 -0.374074220657 0.001009 0.033281 -0.999445
0.915888249874 -0.559087038040 -0.361651539803 0.001009 0.033281 -0.999445
0.819493889809 -0.835020840168 -0.370849758387 0.001009 0.033281 -0.999445
0.885204911232 -0.750689387321 -0.368038594723 0.001009 0.033281 -0.999445
0.883324921131 -0.640081882477 -0.364351511002 0.001009 0.033281 -0.999445
0.892573475838 -0.279620349407 -0.352335572243 0.001009 0.033281 -0.999445
0.822800517082 -0.128091916442 -0.347284376621 0.001009 0.033281 -0.999445
0.848272919655 -0.446874439716 -0.357910960913 0.001009 0.033281 -0.999445
0.821646213531 -0.284999489784 -0.352514892817 0.001009 0.033281 -0.999445
0.913883686066 -0.054990883917 -0.344847559929 0.001009 0.033281 -0.999445
0.832637965679 -0.077885523438 -0.345610767603 0.001009 0.033281 -0.999445
0.848773598671 0.109850540757 -0.339352607727 0.001009 0.033281 -0.999445
0.901559472084 0.130596756935 -0.239457353950 0.000983 0.999976 0.006883
0.820757329464 0.130852371454 -0.272109091282 0.000983 0.999976 0.006883
0.933165609837 -0.214619129896 -0.147552922368 0.347583 0.040056 -0.936793
0.927138805389 -0.851826965809 -0.371410012245 0.001009 0.033281 -0.999445
0.931065082550 -0.456415712833 -0.218608602881 0.093844 0.040850 -0.994748
0.931382238865 -0.478512704372 -0.219505339861 0.093844 0.040850 -0.994748
0.937609612942 -0.199657425284 -0.147868961096 0.098652 -0.041013 0.994277
0.942950010300 -0.906792700291 -0.217088147998 0.999780 0.000999 -0.020974
0.936376869678 -0.095515176654 -0.202961504459 0.093844 0.040850 -0.994748
0.948199510574 -0.620031774044 -0.220720022917 0.652985 0.026681 -0.756901
0.952691078186 -0.711719453335 -0.216544851661 0.999685 0.001003 -0.025067
0.952965915203 -0.162907451391 -0.185535699129 0.999685 0.001003 -0.025067
0.953327298164 -0.427374184132 -0.181009665132 0.999685 0.001003 -0.025067
0.953485190868 -0.431471467018 -0.174930036068 0.999685 0.001003 -0.025067
0.930915236473 -0.859158515930 -0.334491193295 0.998734 0.001026 -0.050296
0.933135628700 -0.861519932747 -0.290455937386 0.998730 0.003079 -0.050296
0.933025181293 -0.694069623947 -0.285586148500 0.998730 0.003079 -0.050296
0.935341656208 -0.767663717270 -0.242593988776 0.998730 0.003079 -0.050296
0.934041857719 -0.381984323263 -0.252427220345 0.998730 0.003079 -0.050296
0.934896409512 -0.781099379063 -0.252001672983 0.998730 0.003079 -0.050296
0.933033525944 -0.208704680204 -0.267050385475 0.998840 0.001024 -0.048149
0.930124163628 -0.125835821033 -0.325156539679 0.998840 0.001024 -0.048149
0.934839427471 -0.158257544041 -0.227589040995 0.998840 0.001024 -0.048149
0.930398583412 -0.619166970253 -0.335846483707 0.998840 0.001024 -0.048149
0.933677196503 -0.290243655443 -0.256299853325 0.998840 0.001024 -0.048149
0.934690713882 -0.111389897764 -0.229136869311 0.998840 0.001024 -0.048149
0.929044783115 -0.316156655550 -0.352474987507 0.998507 0.001030 -0.054614
0.934063017368 0.112304046750 -0.233386829495 0.998940 0.001022 -0.046011
0.937170445919 -0.970302820206 -0.167897701263 0.999999 0.000978 -0.000978
0.932840228081 -0.963378548622 0.033291351050 0.995083 0.038484 0.091262
0.918317496777 -0.963744640350 0.116893172264 0.001162 -0.977134 0.212622
0.932800054550 -0.973470628262 -0.001170357689 0.000993 -0.999857 0.016879
0.936045527458 -0.921449482441 -0.032152853906 0.999821 -0.000995 0.018902
0.937184631824 -0.892067015171 -0.147309258580 0.999999 0.000978 -0.000978
0.922639131546 -0.866519749165 0.080735586584 0.975293 -0.012972 0.220532
0.918866038322 -0.131109908223 0.142887637019 0.975178 -0.013002 0.221040
0.925057470798 -0.515767157078 0.091696202755 0.975178 -0.013002 0.221040
0.929635226727 -0.514696300030 0.065564163029 0.986470 -0.005650 0.163847
0.927403748035 -0.238243058324 0.088148027658 0.986470 -0.005650 0.163847
0.924665629864 -0.278208166361 0.103302508593 0.986470 -0.005650 0.163847
0.932352364063 -0.791484832764 0.037262886763 0.996692 -0.003164 0.081212
0.933678328991 -0.483211517334 0.028387751430 0.997987 -0.003115 0.063348
0.934914827347 -0.817738473415 -0.001994524151 0.997987 -0.003115 0.063348
0.935184717178 -0.678231835365 -0.001592479297 0.997987 -0.003115 0.063348
0.935893476009 -0.625614523888 -0.014385272749 0.999821 -0.000995 0.018902
0.936297297478 -0.730996847153 -0.039060518146 0.999821 -0.000995 0.018902
0.936357259750 -0.545488595963 -0.036070708185 0.999821 -0.000995 0.018902
0.936771512032 -0.196297287941 -0.046267561615 0.999821 -0.000995 0.018902
0.936980843544 -0.218607932329 -0.057991862297 0.999821 -0.000995 0.018902
0.936656415462 -0.156012699008 -0.038894001395 0.999821 -0.000995 0.018902
0.937225222588 -0.689888536930 -0.089962281287 0.999999 0.000978 -0.000978
0.937190711498 -0.723266184330 -0.133588582277 0.999999 0.000978 -0.000978
0.937218010426 -0.814526855946 -0.103008463979 0.999999 0.000978 -0.000978
0.937165558338 -0.320554375648 -0.146761685610 0.999999 0.000978 -0.000978
0.937168657780 -0.414467871189 -0.147168785334 0.999999 0.000978 -0.000978
0.937193453312 -0.440523386002 -0.120144806802 0.999999 0.000978 -0.000978
0.937187135220 -0.600485622883 -0.133898362517 0.999999 0.000978 -0.000978
0.937042713165 -0.028830375522 -0.054964434355 0.999821 -0.000995 0.018902
0.936865508556 0.055035032332 -0.042892232537 0.999821 -0.000995 0.018902
0.937079966068 0.128485500813 -0.052345000207 0.999821 0.000995 0.018902
0.937179148197 0.073873631656 -0.115411117673 0.999999 0.000978 -0.000978
0.937209725380 0.006491082720 -0.084100961685 0.999999 0.000978 -0.000978
0.813005924225 0.136125132442 0.026327062398 0.001024 0.998739 -0.050193
0.897648215294 0.142240479589 0.091075286269 0.001071 0.994811 -0.101730
0.877491831779 0.147870004177 0.146281167865 0.001071 0.994811 -0.101730
0.880381047726 0.156687378883 0.222348898649 0.001098 0.991141 -0.132811
-0.938555479050 0.948476195335 0.252445310354 -0.076819 -0.033541 0.996481
-0.949334204197 0.992591083050 0.252779662609 -0.684247 -0.018191 0.729024
-0.939724981785 -0.054323978722 0.197850272059 -0.076819 -0.033541 0.996481
-0.911322891712 0.084788158536 0.186950802803 0.970072 -0.001184 -0.242814
-0.918318271637 0.025655444711 0.201133683324 0.509147 -0.859616 -0.042774
-0.925225496292 0.090775378048 0.200663894415 -0.124147 0.533100 0.836894
-0.912182331085 -0.135825216770 0.183503836393 0.970072 -0.001184 -0.242814
-0.939823806286 0.035724721849 0.159970819950 -0.498053 0.034113 -0.866475
0.960257589817 1.039774537086 0.235527381301 0.945965 0.018894 -0.323719
0.935234665871 0.904475688934 0.207723572850 0.514100 -0.001342 -0.857729
0.959824621677 1.082181453705 0.240688532591 0.884912 0.362078 -0.292968
0.948011457920 0.055050667375 0.200794696808 0.056323 0.032943 0.997869
0.853272974491 -2.135084867477 -0.474236845970 0.092079 -0.020582 -0.995539
0.888670861721 -2.079854726791 -0.431007802486 -0.095162 -0.003208 0.995457
0.872924745083 -2.169764280319 -0.432672411203 0.667038 -0.297354 0.683111
-0.872216820717 -2.171924352646 -0.434279412031 -0.918483 -0.381903 -0.102662
-0.880059778690 -2.146599292755 -0.431468069553 0.040129 -0.013376 0.999105
0.880841493607 0.042970538139 -0.532951235771 0.000997 0.020933 -0.999780
0.895221948624 -0.805145919323 -0.551215887070 0.000997 0.020933 -0.999780
0.865554749966 0.046140611172 -0.532882988453 0.000997 0.020933 -0.999780
0.902274608612 -0.948183953762 -0.458949923515 0.001083 -0.993261 -0.115898
