0.491910636425 0.015018820763 0.666530430317 0.081022 -0.177765 0.980732
0.579248309135 -0.139580205083 0.627694487572 0.231214 -0.323125 0.917676
0.634884595871 -0.329213917255 0.530904114246 0.578934 -0.241873 0.778674
0.662013590336 -0.486331403255 0.457668185234 0.417749 -0.345778 0.840192
0.729519248009 -0.733265757561 0.291586637497 0.332212 -0.484807 0.809072
0.747870802879 -0.838679671288 0.213982418180 0.333946 -0.553350 0.763075
0.744410455227 -0.853628993034 0.204675301909 0.333946 -0.553350 0.763075
0.817065179348 -1.192412137985 0.064234055579 0.832371 -0.149324 0.533723
0.807943165302 -1.268311023712 0.054638925940 0.637023 -0.216494 0.739819
0.830954253674 -1.151128292084 0.040848623961 0.908747 -0.057891 0.413312
0.825970768929 -1.047170639038 0.067348927259 0.876011 -0.082695 0.475148
0.884619057178 -1.158348560333 -0.108790107071 0.970868 0.154776 0.182917
0.860611677170 -0.566654145718 -0.561816513538 0.964929 -0.001199 -0.262509
0.859830617905 -0.533589363098 -0.564698338509 0.964929 -0.001199 -0.262509
0.854748845100 -0.167012870312 -0.583460450172 0.964929 -0.001199 -0.262509
0.854580044746 -0.178536295891 -0.584081530571 0.964929 -0.001199 -0.262509
0.854209423065 -0.375416785479 -0.585430383682 0.964929 -0.001199 -0.262509
0.854150474072 -0.689679801464 -0.585620462894 0.964929 -0.001199 -0.262509
0.879797279835 -0.716134548187 -0.491090059280 0.964929 -0.001199 -0.262509
0.853944301605 -0.900756001472 -0.586361825466 0.964929 -0.001199 -0.262509
0.885172843933 -0.816433608532 -0.467048436403 0.981308 -0.110930 -0.157253
0.869760751724 -0.933858513832 -0.474458634853 0.985249 -0.125700 -0.116123
0.879003882408 -0.905463576317 -0.426082432270 0.985249 -0.125700 -0.116123
0.865243792534 -0.963077783585 -0.485349267721 0.995448 0.005346 -0.095161
0.886380612850 -1.015692710876 -0.273619025946 0.995250 0.022842 -0.094630
0.884791195393 -0.946077704430 -0.359062105417 0.966972 -0.190288 -0.169576
0.884653985500 -0.900931537151 -0.394390076399 0.963096 -0.163792 -0.213585
0.912064075470 -0.452146708965 -0.376468151808 0.980656 -0.019823 -0.194732
0.912357687950 -0.395255804062 -0.380659729242 0.980656 -0.019823 -0.194732
0.906904578209 -0.158397674561 -0.431755065918 0.980656 -0.019823 -0.194732
0.896968603134 -0.534044027328 -0.444384306669 0.980656 -0.019823 -0.194732
0.904409170151 -0.421967238188 -0.418056994677 0.980656 -0.019823 -0.194732
0.918158829212 -0.464636415243 -0.344505906105 0.980656 -0.019823 -0.194732
0.901651859283 -0.451399922371 -0.429019540548 0.980656 -0.019823 -0.194732
0.914599537849 0.094521522522 -0.418186366558 0.980656 -0.019823 -0.194732
0.911627411842 -0.231618344784 -0.400653183460 0.980656 -0.019823 -0.194732
0.889757096767 0.129771798849 -0.496354699135 0.941243 -0.016424 -0.337331
0.879444479942 -0.125697731972 -0.513324737549 0.941243 -0.016424 -0.337331
0.889844298363 -0.399422168732 -0.471786469221 0.941243 -0.016424 -0.337331
0.892002820969 -0.472884595394 -0.462399631739 0.941243 -0.016424 -0.337331
0.875185191631 0.016944542527 -0.531740725040 0.941243 -0.016424 -0.337331
0.883754789829 0.049057140946 -0.509356677532 0.941243 -0.016424 -0.337331
0.888738274574 -0.145663261414 -0.486530452967 0.941243 -0.016424 -0.337331
0.870411276817 -0.054335296154 -0.541756093502 0.941243 -0.016424 -0.337331
0.882191002369 -0.589037835598 -0.484379351139 0.941243 -0.016424 -0.337331
0.877972483635 0.384081661701 -0.526061296463 0.933019 0.001263 -0.359825
0.871148347855 0.384790599346 -0.543769538403 0.933019 0.001263 -0.359825
0.867161393166 0.159405380487 -0.555381059647 0.933019 0.001263 -0.359825
0.877389490604 0.480243533850 -0.527035415173 0.933019 0.001263 -0.359825
0.893910050392 0.303611159325 -0.485146135092 0.933019 0.001263 -0.359825
0.863317966461 0.529802560806 -0.563280522823 0.933019 0.001263 -0.359825
0.893927812576 0.348683029413 -0.484847486019 0.933019 0.001263 -0.359825
0.853465139866 0.162551909685 -0.590912163258 0.933019 0.001263 -0.359825
0.857774555683 0.043998599052 -0.580391466618 0.933019 0.001263 -0.359825
0.909908711910 0.319286614656 -0.438526451588 0.975511 0.034797 -0.217180
0.872467339039 0.843137621880 -0.521137595177 0.975511 0.034797 -0.217180
0.862132728100 0.922957360744 -0.554457187653 0.975511 0.034797 -0.217180
0.888465583324 0.726593911648 -0.468418419361 0.975511 0.034797 -0.217180
0.897099733353 0.892659187317 -0.108465433121 0.997645 0.068188 -0.007343
0.899623692036 0.861422359943 -0.054964818060 0.997645 0.068188 -0.007343
0.888024389744 1.029632449150 -0.055139139295 0.997645 0.068188 -0.007343
0.891798436642 0.929118454456 0.018631773070 0.996391 0.060024 0.060024
0.910883188248 0.696138560772 -0.062241379172 0.996391 0.060024 0.060024
0.891239225864 0.960060417652 -0.003736227751 0.996391 0.060024 0.060024
0.816773176193 1.051991701126 0.168159991503 0.708972 0.052994 0.703243
0.805353105068 1.047876238823 0.180013939738 0.708972 0.052994 0.703243
0.771929562092 1.316752195358 0.215238273144 0.679939 -0.076838 0.729231
0.777635455132 1.225565552711 0.200326636434 0.679939 -0.076838 0.729231
0.814579486847 1.193812012672 0.162503451109 0.679939 -0.076838 0.729231
0.758634328842 1.340839743614 0.241560444236 0.982598 -0.029209 0.183434
0.789961934090 1.466027617455 0.202983111143 0.839645 0.051692 0.540670
0.833550572395 1.443957448006 0.137538105249 0.839645 0.051692 0.540670
0.835890710354 1.382232069969 0.139676302671 0.839645 0.051692 0.540670
0.872889816761 1.165117025375 0.091170564294 0.995603 0.071507 0.060506
0.855789959431 1.395445227623 0.099667012691 0.995603 0.071507 0.060506
0.875607609749 1.259640932083 0.000923331827 0.977464 0.015291 0.210549
0.884160518646 1.147318959236 -0.051541142166 0.993097 -0.039098 0.110592
0.903124213219 1.368069291115 -0.080460764468 0.738364 0.018145 0.674158
0.902214109898 1.488301157951 -0.111224055290 0.816319 0.186284 0.546737
0.882819950581 1.716104745865 -0.209117174149 0.971015 0.154393 0.182464
0.863608062267 1.796956896782 -0.175474628806 0.973382 0.197188 0.116806
0.855066180229 1.829676866531 -0.169978648424 0.964141 0.238139 0.117139
0.831791877747 1.949549078941 -0.237004518509 0.959941 0.272638 0.064672
0.837612688541 1.943632245064 -0.298637360334 0.959941 0.272638 0.064672
0.822570979595 0.889561355114 0.171826109290 0.724786 0.038296 0.687909
0.844960808754 0.893083214760 0.148016229272 0.724786 0.038296 0.687909
0.899614512920 0.801366746426 0.065720528364 0.997063 0.071754 0.026774
0.900568187237 0.797445416451 0.041231617332 0.997063 0.071754 0.026774
0.906530797482 0.723851084709 0.018770981580 0.997063 0.071754 0.026774
0.916978001595 0.568279385567 0.019305253401 0.997534 0.064941 0.026615
0.923515737057 0.505811274052 -0.070642732084 0.997534 0.064941 0.026615
0.910077810287 0.651353716850 0.073887482285 0.997534 0.064941 0.026615
0.911430656910 0.644296109676 0.041459299624 0.997534 0.064941 0.026615
0.934741556644 0.228811949492 -0.071209505200 0.976680 -0.020077 0.213759
0.925703942776 0.270462721586 -0.025917723775 0.976680 -0.020077 0.213759
0.903430640697 0.297126471996 0.078836083412 0.976680 -0.020077 0.213759
0.940429806709 0.217495352030 -0.098369419575 0.976680 -0.020077 0.213759
0.909138202667 0.420700967312 0.063779987395 0.976680 -0.020077 0.213759
0.846865832806 0.302691876888 0.139008417726 0.717928 -0.032441 0.695361
0.894949674606 0.330412775278 0.090644925833 0.717928 -0.032441 0.695361
0.871061444283 0.345840781927 0.116054385900 0.717928 -0.032441 0.695361
0.888445675373 0.162321180105 0.089060798287 0.716449 -0.038305 0.696587
0.845715224743 -0.141457289457 0.116359338164 0.716449 -0.038305 0.696587
0.836828589439 -0.374512702227 0.112680256367 0.716449 -0.038305 0.696587
0.831758797169 -0.494954466820 0.111270681024 0.716449 -0.038305 0.696587
0.835108339787 0.070326179266 0.138953045011 0.716449 -0.038305 0.696587
0.845166862011 -0.434516966343 0.100783608854 0.716449 -0.038305 0.696587
0.858069896698 -0.540104329586 0.075227193534 0.816718 -0.049200 0.574936
0.877936542034 -0.340953052044 0.064271233976 0.816718 -0.049200 0.574936
0.886353731155 -0.397538453341 0.047381211072 0.816718 -0.049200 0.574936
0.850173711777 -0.600375175476 0.081222489476 0.816718 -0.049200 0.574936
0.828995823860 -0.844423592091 0.090620644391 0.818356 -0.031956 0.573822
0.671218395233 -0.275768935680 0.522595703602 0.565420 -0.214151 0.796517
0.625342249870 -0.181028008461 0.583479762077 0.663323 -0.206609 0.719247
0.846693336964 -0.967950284481 0.035228502005 0.858681 -0.154122 0.488788
0.857629418373 -1.084338068962 0.000770878047 0.895192 -0.050109 0.442856
0.874139964581 -1.064291000366 -0.088786423206 0.985699 -0.024154 0.166775
0.869739532471 -1.002893209457 -0.044249378145 0.959255 -0.143428 0.243432
0.862215042114 -0.989014387131 -0.006452425383 0.959255 -0.143428 0.243432
0.882999181747 -0.888473868370 -0.043247796595 0.989561 -0.061198 0.130479
0.889626085758 -0.913495719433 -0.104610837996 0.989561 -0.061198 0.130479
0.890850901604 -0.987879455090 -0.193175241351 0.998687 -0.042786 -0.028176
0.890198051929 -0.987150073051 -0.218353286386 0.998687 -0.042786 -0.028176
0.896101713181 -0.933688700199 -0.230689242482 0.982189 -0.139965 0.125360
0.930277764797 -0.380659341812 -0.212982803583 0.989931 -0.046813 0.133589
0.943452715874 0.158226326108 -0.122531577945 0.989931 -0.046813 0.133589
0.912978827953 -0.774196863174 -0.221679449081 0.989931 -0.046813 0.133589
0.938344538212 0.039098583162 -0.126123011112 0.989931 -0.046813 0.133589
0.920258462429 -0.531710982323 -0.191073179245 0.989931 -0.046813 0.133589
0.923843383789 -0.378098070621 -0.164014264941 0.989931 -0.046813 0.133589
0.917017221451 -0.658213257790 -0.211197093129 0.989931 -0.046813 0.133589
0.935270905495 -0.205493196845 -0.188890308142 0.989931 -0.046813 0.133589
0.909211695194 -0.510861337185 -0.101235821843 0.989931 -0.046813 0.133589
0.901498794556 -0.737421572208 -0.123022712767 0.989931 -0.046813 0.133589
0.916913807392 -0.310936868191 -0.088704138994 0.989931 -0.046813 0.133589
0.888068079948 -0.763430237770 -0.031799003482 0.989931 -0.046813 0.133589
0.882642805576 -0.796437084675 -0.002835795283 0.989931 -0.046813 0.133589
0.908229887486 -0.595364570618 -0.123519286513 0.989931 -0.046813 0.133589
0.898321807384 -0.630511164665 -0.061815746129 0.989931 -0.046813 0.133589
0.897692739964 -0.547169387341 -0.027904443443 0.989931 -0.046813 0.133589
0.887247025967 -0.831616342068 -0.049563944340 0.989931 -0.046813 0.133589
0.907505095005 -0.017344396561 0.016143415123 0.976243 -0.034652 0.213889
0.904734551907 -0.039735600352 0.025226123631 0.976243 -0.034652 0.213889
0.883245408535 -0.718652546406 0.014105588198 0.976243 -0.034652 0.213889
0.888610124588 -0.666399896145 -0.002046117559 0.976243 -0.034652 0.213889
0.897594213486 -0.269604027271 0.020840141922 0.976243 -0.034652 0.213889
0.914240002632 -0.254662096500 -0.053039111197 0.976243 -0.034652 0.213889
0.903688549995 -0.276344507933 -0.008179895580 0.976243 -0.034652 0.213889
0.909125447273 0.090355679393 0.026104860008 0.976243 -0.034652 0.213889
0.927981734276 0.161317706108 -0.048861343414 0.976243 -0.034652 0.213889
0.886592268944 0.130890399218 0.089239463210 0.716449 -0.038305 0.696587
0.889677047729 -0.361586183310 0.042275771499 0.976243 -0.034652 0.213889
0.890379607677 -0.416866064072 0.030131170526 0.976243 -0.034652 0.213889
0.936188638210 0.054588228464 -0.201778113842 0.995167 -0.007531 -0.097903
0.924378752708 -0.254389762878 -0.299318343401 0.995167 -0.007531 -0.097903
0.936538994312 0.031728375703 -0.196654275060 0.995167 -0.007531 -0.097903
0.925052344799 -0.324883669615 -0.287617206573 0.995167 -0.007531 -0.097903
0.921604275703 -0.249202951789 -0.327650070190 0.995167 -0.007531 -0.097903
0.926589787006 -0.089739054441 -0.288495898247 0.995167 -0.007531 -0.097903
0.935957014561 0.122262157500 -0.208827301860 0.995167 -0.007531 -0.097903
0.922716677189 0.039165660739 -0.336521327496 0.995167 -0.007531 -0.097903
0.915455758572 0.090854883194 -0.413322001696 0.995167 -0.007531 -0.097903
0.920227468014 -0.245970979333 -0.341755628586 0.995167 -0.007531 -0.097903
0.928050756454 -0.372876197100 -0.254046320915 0.995167 -0.007531 -0.097903
0.925539195538 -0.153227493167 -0.294665008783 0.995167 -0.007531 -0.097903
0.939029812813 0.115846917033 -0.177402406931 0.995167 -0.007531 -0.097903
0.921110808849 -0.031026357785 -0.347821801901 0.995167 -0.007531 -0.097903
0.936614394188 -0.042790208012 -0.190703451633 0.995167 -0.007531 -0.097903
0.929752886295 -0.146450042725 -0.252657681704 0.995167 -0.007531 -0.097903
0.923853874207 0.353394389153 -0.220595881343 0.992924 0.078121 -0.089442
0.919025897980 0.257639974356 -0.358888030052 0.992924 0.078121 -0.089442
0.933823227882 0.270475029945 -0.181871742010 0.992924 0.078121 -0.089442
0.913749754429 0.570175409317 -0.143092244864 0.992924 0.078121 -0.089442
0.921421289444 0.439852565527 -0.171796798706 0.992924 0.078121 -0.089442
0.927832126617 0.255599558353 -0.262054771185 0.992924 0.078121 -0.089442
0.927565991879 0.452141225338 -0.092168807983 0.992924 0.078121 -0.089442
0.923498630524 0.508065462112 -0.088534899056 0.992924 0.078121 -0.089442
0.911345660686 0.595339298248 -0.188171282411 0.999340 0.025677 -0.025677
0.910773158073 0.667170405388 -0.137553766370 0.999340 0.025677 -0.025677
0.909595310688 0.599531352520 -0.251148819923 0.999340 0.025677 -0.025677
0.911982893944 0.629015982151 -0.129664659500 0.999340 0.025677 -0.025677
0.911739408970 0.476144403219 -0.293527811766 0.999340 0.025677 -0.025677
0.911977231503 0.449147254229 -0.311681598425 0.999340 0.025677 -0.025677
0.902346551418 0.849148631096 -0.277203440666 0.999340 0.025677 -0.025677
0.911457538605 0.433983802795 -0.346963852644 0.999340 0.025677 -0.025677
0.909071266651 0.749814510345 -0.119375556707 0.999340 0.025677 -0.025677
0.907125771046 0.651761472225 -0.293188899755 0.999340 0.025677 -0.025677
0.902034938335 0.793065369129 -0.317894369364 0.995934 0.038096 -0.081634
0.905298352242 0.652766227722 -0.344755917788 0.995934 0.038096 -0.081634
0.898604929447 0.936934173107 -0.291381120682 0.995934 0.038096 -0.081634
0.903636991978 0.727179884911 -0.329650640488 0.995934 0.038096 -0.081634
0.904955625534 0.486578643322 -0.421959638596 0.992440 0.041492 -0.115504
0.890611171722 0.905583381653 -0.393117904663 0.992440 0.041492 -0.115504
0.894938349724 0.668253064156 -0.442250549793 0.992440 0.041492 -0.115504
0.895536482334 0.628553092480 -0.451555013657 0.992440 0.041492 -0.115504
0.899734258652 0.872469305992 -0.132024094462 0.992255 0.092276 0.083163
0.903121471405 0.819533824921 -0.114293359220 0.992255 0.092276 0.083163
0.883064150810 0.576982438564 0.114093936980 0.662672 -0.012503 0.748805
0.836163759232 0.514174580574 0.154559314251 0.662672 -0.012503 0.748805
0.811577856541 0.337710410357 0.173318326473 0.662672 -0.012503 0.748805
0.815996050835 0.863374948502 0.178390622139 0.662672 -0.012503 0.748805
0.845409333706 0.466715335846 0.145559415221 0.662672 -0.012503 0.748805
0.837516546249 0.733774244785 0.157114923000 0.662672 -0.012503 0.748805
-0.527823328972 0.395717680454 0.685518443584 -0.201478 -0.010481 0.979437
-0.826552927494 -1.273570537567 0.040985781699 -0.835708 -0.127332 0.534209
-0.814866065979 -1.122214913368 0.093598358333 -0.641255 -0.202420 0.740147
-0.837823450565 -1.546698093414 -0.053273178637 -0.706523 -0.189330 0.681894
-0.867515444756 -1.753059983253 -0.138476207852 -0.999657 0.025218 -0.007061
-0.865101516247 -1.725162386894 -0.202633142471 -0.997738 -0.033009 -0.058565
-0.860062122345 -1.833276867867 -0.227532625198 -0.997738 -0.033009 -0.058565
-0.846212148666 -1.708283662796 -0.104992181063 -0.445613 -0.282170 0.849594
-0.891875088215 -0.945985436440 -0.110208109021 -0.990487 -0.037355 0.132442
-0.897111535072 -0.888761222363 -0.133522629738 -0.990487 -0.037355 0.132442
0.719651401043 2.180281400681 -0.297705888748 0.856281 0.516466 0.006742
0.701273083687 2.162761688232 -0.391876995564 0.138088 0.958723 -0.248558
0.390914052725 2.226426124573 -0.237809062004 0.050918 0.998611 0.013509
0.255226790905 2.232195615768 -0.147313922644 0.050918 0.998611 0.013509
-0.623897492886 2.181856870651 -0.382689267397 -0.118012 0.960952 -0.250288
-0.579928696156 2.208375930786 -0.272894084454 -0.132077 0.991134 0.014429
-0.669521152973 2.143498897552 -0.395679146051 -0.831067 0.539826 -0.133853
-0.723892867565 2.020034313202 -0.486689627171 -0.807880 0.508665 -0.297640
-0.750243902206 1.973682880402 -0.458958983421 -0.926630 0.288949 -0.240554
-0.769300460815 1.922520637512 -0.444467455149 -0.934043 0.281473 -0.219857
-0.746988594532 2.022607326508 -0.385372877121 -0.948669 0.299510 -0.101596
-0.748847782612 2.041669607162 -0.302775979042 -0.838065 0.531989 -0.120973
0.491684943438 2.215539216995 -0.282153427601 0.114987 0.993265 0.014236
0.508913338184 2.213677883148 -0.291927933693 0.114987 0.993265 0.014236
0.561416029930 2.206359863281 -0.205067008734 0.114987 0.993265 0.014236
0.564670205116 2.206680536270 -0.254596471786 0.114987 0.993265 0.014236
0.677119374275 2.189883947372 -0.295324504375 0.155016 0.987802 0.014710
0.641500890255 2.193370342255 -0.144797205925 0.155016 0.987802 0.014710
0.668642401695 2.179378747940 -0.130942642689 0.136321 0.663630 0.735535
0.544060051441 2.209003925323 -0.298639804125 0.112331 0.961917 -0.249195
-0.862097144127 0.902610301971 -0.291739493608 -0.994826 0.061135 -0.081142
-0.878624558449 0.517212986946 -0.383944988251 -0.994826 0.061135 -0.081142
-0.870363354683 0.704987883568 -0.341592252254 -0.994826 0.061135 -0.081142
-0.836086571217 1.126486778259 0.035294033587 -0.994777 0.083361 0.058909
-0.852796733379 0.940927326679 0.018950507045 -0.994777 0.083361 0.058909
-0.850579500198 0.991126298904 -0.015165358782 -0.994777 0.083361 0.058909
-0.734095335007 1.537548303604 0.204423710704 -0.839653 0.012248 0.542985
-0.776376485825 1.626708984375 0.126801848412 -0.874904 0.073955 0.478616
-0.814676642418 1.575642943382 -0.006674749777 -0.973191 0.083062 0.214474
-0.790411174297 1.624528884888 0.084572322667 -0.973191 0.083062 0.214474
-0.837459623814 1.524428963661 -0.093687064946 -0.975284 0.080143 0.205907
-0.826699018478 1.576128959656 -0.065989382565 -0.973693 0.150676 0.170934
-0.297210007906 1.039572238922 0.681731581688 -0.057221 0.291191 0.954952
-0.200394883752 0.982955753803 0.697508275509 -0.047840 0.159857 0.985980
0.002988453954 0.980041265488 0.699580192566 0.001123 0.160574 0.987023
0.130964249372 1.016754984856 0.693443655968 0.001120 0.160219 0.987081
0.132100149989 1.066001415253 0.681129097939 0.003647 0.283217 0.959049
0.048338815570 1.070586204529 0.680036723614 0.003647 0.283217 0.959049
-0.035636521876 1.081868290901 0.676998078823 0.003647 0.283217 0.959049
-0.079898163676 1.040930747986 0.689288258553 0.003655 0.283879 0.958853
-0.263741046190 1.115711808205 0.660763502121 -0.059741 0.283451 0.957124
0.329193174839 1.092753648758 0.664053440094 0.067713 0.282349 0.956919
0.352639883757 1.090262770653 0.663176476955 0.062639 0.290183 0.954919
0.330075562000 0.998203575611 0.689562976360 0.052617 0.160188 0.985683
0.183883950114 0.896298944950 0.706139385700 0.000989 0.012857 0.999917
0.154733821750 0.853996098042 0.706649959087 0.000989 0.012857 0.999917
0.098952956498 0.850351572037 0.706695854664 0.000989 0.012857 0.999917
0.287248700857 0.742945849895 0.704767227173 0.035799 0.011251 0.999296
0.223922356963 0.708383142948 0.707426428795 0.035799 0.011251 0.999296
0.345101714134 0.745531082153 0.702654004097 0.035798 0.013296 0.999271
0.244153872132 0.906659245491 0.704376459122 0.035798 0.013296 0.999271
0.497584879398 0.719050288200 0.693122982979 0.070717 0.011610 0.997429
0.392016053200 0.776329100132 0.700018525124 0.070717 0.011610 0.997429
0.536022901535 0.871021509171 0.680632889271 0.134471 0.051720 0.989567
0.519692301750 0.781803309917 0.687555491924 0.134471 0.051720 0.989567
0.499800533056 0.828415393829 0.687808334827 0.134471 0.051720 0.989567
0.424834489822 0.930068373680 0.690117120743 0.165295 0.231413 0.958710
0.509763121605 0.968701720238 0.666332125664 0.189186 0.158299 0.969097
0.349391102791 0.952664315701 0.696140408516 0.050381 0.162860 0.985362
0.425632774830 1.036825776100 0.667117774487 0.213955 0.281079 0.935531
0.543919563293 0.990051627159 0.653168678284 0.586836 0.177416 0.790030
0.712405145168 2.074362516403 0.257030516863 0.161415 0.972302 0.169041
0.683743476868 2.094835758209 0.160231783986 0.289365 0.951894 -0.100820
-0.881392478943 -1.649447441101 -0.464441418648 -0.995252 -0.003207 -0.097280
0.462773978710 -2.109788179398 -0.602046906948 0.342417 -0.896806 -0.280159
0.433853447437 -2.115586519241 -0.586435377598 -0.026038 -0.040620 0.998835
0.387552767992 -2.086542606354 -0.404808372259 0.684462 -0.727331 -0.050013
0.379608809948 -2.096374511719 -0.387625336647 0.760720 -0.648643 -0.023816
0.376182287931 -2.100419282913 -0.537174820900 0.825621 -0.563738 0.023432
0.334187746048 -2.138601779938 -0.430588990450 0.483072 -0.873934 -0.053675
0.237893059850 -2.174660444260 -0.428909599781 -0.999690 0.023202 -0.009079
0.254554390907 -2.176855802536 -0.451216250658 0.288921 -0.949312 -0.123823
0.253556549549 -2.116290569305 -0.585851013660 0.005103 -0.041842 0.999111
0.216732993722 -2.125545024872 -0.586011230946 0.007158 -0.041927 0.999095
0.178575724363 -2.127807855606 -0.585870563984 0.005113 -0.041928 0.999108
-0.023822082207 -2.212728261948 -0.605416178703 -0.124159 -0.946547 -0.297715
0.328262656927 -2.156900644302 -0.608974814415 0.205268 -0.934180 -0.291844
0.316038072109 -2.110605239868 -0.585992097855 0.005103 -0.039804 0.999195
0.216145485640 -2.166771173477 -0.378475785255 -0.002996 0.020974 -0.999776
0.340301513672 -2.083463907242 -0.488136172295 0.213528 -0.973837 -0.077759
0.308176159859 -2.166514158249 -0.378719478846 -0.002996 0.020974 -0.999776
0.027455624193 -2.183186531067 -0.587699711323 0.003055 -0.041757 0.999123
-0.055888280272 -2.196832895279 -0.588291585445 -0.003062 -0.041843 0.999120
-0.063394919038 -2.123647928238 -0.585274994373 -0.003062 -0.041843 0.999120
-0.095655389130 -2.148503541946 -0.586429357529 -0.003062 -0.041843 0.999120
-0.223281919956 -2.195571899414 -0.379083365202 0.002996 0.020974 -0.999776
-0.351375311613 -2.159044504166 -0.378754615784 0.002996 0.020974 -0.999776
-0.369797080755 -2.085020542145 -0.377331465483 0.002996 0.020974 -0.999776
-0.714951872826 -1.986669898033 -0.594387233257 -0.469418 -0.841874 -0.266260
-0.821633875370 -1.870771169662 -0.610506653786 -0.982403 -0.177428 -0.058349
-0.856617689133 -1.675345063210 -0.620722174644 -0.967721 -0.197679 -0.156334
-0.274691224098 -2.173385620117 -0.462270081043 -0.310519 -0.942311 -0.125014
-0.226742982864 -2.208487987518 -0.345194369555 -0.000991 -0.014865 0.999889
0.564061999321 -2.018836498260 -0.579273819923 -0.021739 -0.040372 0.998948
0.759808480740 -1.957159399986 -0.535431146622 0.643156 -0.763479 -0.058729
0.787327885628 -1.943691134453 -0.411113262177 0.643156 -0.763479 -0.058729
0.845475137234 -1.721575975418 -0.494161903858 0.967290 -0.253021 -0.018159
0.827358484268 -1.788615345955 -0.525444447994 0.967290 -0.253021 -0.018159
0.803591728210 -1.885082244873 -0.453971832991 0.967290 -0.253021 -0.018159
0.801350235939 -1.873518705368 -0.573747813702 0.962851 -0.220789 -0.155467
0.866437971592 -1.655980229378 -0.403894782066 0.994891 -0.027302 -0.097196
0.799588561058 -1.897882819176 -0.310502320528 0.932253 -0.238352 0.272201
0.828440368176 -1.836519956589 -0.367294371128 0.942497 -0.334192 -0.003755
0.853972673416 -1.749108552933 -0.409013450146 0.911329 -0.350956 -0.215195
0.863947153091 -1.608056902885 -0.188116133213 0.904471 -0.330904 0.269135
0.852253913879 -1.378740072250 -0.107850141823 0.176357 0.171208 -0.969322
0.875704228878 -1.392282843590 -0.105977721512 0.176357 0.171208 -0.969322
0.829034924507 -1.239618182182 -0.115465268493 0.167647 -0.150000 -0.974369
0.858421087265 -1.205183744431 -0.115633636713 0.167647 -0.150000 -0.974369
0.638030588627 -1.270393252373 -0.144697353244 0.176561 -0.131482 -0.975468
0.673145234585 -1.284654974937 -0.136429339647 0.176561 -0.131482 -0.975468
0.608220994473 -1.228170752525 -0.173620894551 0.999941 -0.010858 0.000987
0.607698559761 -1.272715806961 -0.197909861803 0.999941 -0.010858 0.000987
0.608984887600 -1.163051486015 -0.248346671462 0.999941 -0.010858 0.000987
0.609990537167 -1.077315211296 -0.276545554399 0.999941 -0.010858 -0.000987
0.605347573757 -1.473144054413 -0.238434299827 0.999941 -0.010858 -0.000987
0.610716581345 -1.015415906906 -0.303994148970 0.999941 -0.010858 -0.000987
0.607890367508 -1.256363153458 -0.286775827408 0.999941 -0.010858 -0.000987
0.610022187233 -1.074617385864 -0.330368399620 0.999941 -0.010858 -0.000987
0.605600357056 -1.451593399048 -0.334648519754 0.999941 -0.010858 0.000987
0.604204416275 -1.570600986481 -0.367105305195 0.999941 -0.010858 0.000987
0.606490015984 -1.375743389130 -0.357884883881 0.999941 -0.010858 0.000987
0.609316229820 -1.134804129601 -0.370942682028 0.999941 -0.010858 0.000987
0.604369223118 -1.556551814079 -0.402659207582 0.999941 -0.010858 0.000987
0.608699619770 -1.187370181084 -0.390642344952 0.999941 -0.010858 0.000987
0.608445286751 -1.209051847458 -0.400155603886 0.999941 -0.010858 0.000987
0.610256433487 -1.054651260376 -0.476613968611 0.999941 -0.010858 0.000987
0.604925811291 -1.509099125862 -0.436696827412 0.999941 -0.010858 0.000987
0.607081353664 -1.325333476067 -0.449758082628 0.999941 -0.010858 0.000987
0.604077219963 -1.581447839737 -0.446184813976 0.999941 -0.010858 0.000987
0.605727434158 -1.440760970116 -0.494462400675 0.999941 -0.010858 0.000987
0.607643723488 -1.277391672134 -0.554006636143 0.999941 -0.010858 -0.000987
0.609442591667 -1.124030113220 -0.550180554390 0.999941 -0.010858 -0.000987
0.607706606388 -1.272029519081 -0.509281516075 0.999941 -0.010858 -0.000987
0.605159699917 -1.489162087440 -0.503264427185 0.999941 -0.010858 -0.000987
0.604174077511 -1.573189139366 -0.598650634289 0.999941 -0.010858 -0.000987
0.606525838375 -1.372691154480 -0.590042114258 0.999941 -0.010858 -0.000987
0.606084764004 -1.410294532776 -0.594563424587 0.999941 -0.010858 -0.000987
0.603815734386 -1.603737592697 -0.576009213924 0.999941 -0.010858 -0.000987
0.604744434357 -1.524562239647 -0.609768569469 0.999941 -0.010858 -0.000987
0.627562403679 -1.681383967400 -0.590163111687 -0.029781 0.993814 0.106992
0.684693157673 -1.685585975647 -0.480981767178 -0.037221 0.991433 -0.125198
0.829986393452 -1.673300266266 -0.426830708981 -0.037221 0.991433 -0.125198
0.771871209145 -1.667921423912 -0.387734174728 -0.008060 0.982196 -0.187688
0.798672199249 -1.642477273941 -0.310268402100 -0.003709 0.950636 -0.310286
0.605471909046 -1.649236559868 -0.352669984102 0.076558 0.878334 -0.471878
0.669252455235 -1.657898187637 -0.358330547810 0.076558 0.878334 -0.471878
0.695938885212 -1.617607712746 -0.281644463539 0.089128 0.696949 -0.711560
0.702449321747 -1.606331586838 -0.269768446684 0.089128 0.696949 -0.711560
0.737425565720 -1.554393410683 -0.209090039134 0.123492 0.757317 -0.641265
0.731185793877 -1.565019130707 -0.222875788808 0.123492 0.757317 -0.641265
0.738105356693 -1.521375417709 -0.184219703078 0.142370 0.450120 -0.881545
0.806697905064 -1.544578552246 -0.184892594814 0.142370 0.450120 -0.881545
0.876662194729 -1.484963655472 -0.137062251568 0.170984 0.509977 -0.843023
0.861529350281 -1.503076314926 -0.151113092899 0.170984 0.509977 -0.843023
0.748639225960 -1.390148043633 -0.128765553236 0.172716 0.165040 -0.971046
0.611955225468 -1.365796804428 -0.149097219110 0.172716 0.165040 -0.971046
0.695362865925 -1.922683954239 -0.486929386854 0.463162 -0.883464 -0.070511
0.592071831226 -1.975550651550 -0.505372166634 0.463162 -0.883464 -0.070511
0.564293920994 -1.988268017769 -0.529368400574 0.463162 -0.883464 -0.070511
0.618066430092 -1.966428637505 -0.447650432587 0.463162 -0.883464 -0.070511
0.617816209793 -1.969595551491 -0.409125417471 0.463162 -0.883464 -0.070511
0.493539988995 -2.021961450577 -0.526061594486 0.354987 -0.932007 -0.073125
0.473207652569 -2.037294387817 -0.430254161358 0.354987 -0.932007 -0.073125
0.003014957532 -2.140462636948 -0.205565065145 0.091789 -0.868461 0.487186
-0.030153892934 -2.128709554672 -0.184315636754 -0.110199 -0.865847 0.488023
-0.322638839483 -2.089337825775 -0.203769698739 -0.174544 -0.875654 0.450294
-0.264090925455 -2.110903501511 -0.220158442855 -0.206293 -0.850770 0.483358
-0.162807255983 -2.102945804596 -0.169333294034 -0.113146 -0.863635 0.491255
0.200421378016 -2.080402612686 -0.141102895141 0.154988 -0.879231 0.450479
0.249461188912 -2.099448919296 -0.195126101375 0.154988 -0.879231 0.450479
0.231702283025 -2.117089748383 -0.220620185137 0.185952 -0.855379 0.483475
0.106635205448 -2.108871221542 -0.169081017375 0.091887 -0.866564 0.490534
-0.487468332052 -2.033476352692 -0.415185928345 -0.377545 -0.923038 -0.073897
-0.605613410473 -1.975258827209 -0.435028702021 -0.486401 -0.871063 -0.068291
-0.650490522385 -1.943881154060 -0.515435457230 -0.486401 -0.871063 -0.068291
-0.657720386982 -1.946625232697 -0.430660068989 -0.486401 -0.871063 -0.068291
-0.807468235493 -1.631741881371 -0.334440171719 0.026427 0.950099 -0.310827
-0.844217538834 -1.619989871979 -0.301697075367 0.026427 0.950099 -0.310827
-0.658028721809 -1.655765414238 -0.397598773241 0.031661 0.981506 -0.188796
-0.617953240871 -1.108732938766 -0.482548087835 -0.999941 0.010858 -0.000987
-0.623219132423 -1.557669162750 -0.493742138147 -0.999941 0.010858 -0.000987
-0.622411072254 -1.488778233528 -0.488718837500 -0.999941 0.010858 -0.000987
-0.622127890587 -1.464636802673 -0.427681088448 -0.999941 0.010858 -0.000987
-0.617491126060 -1.069335937500 -0.499798923731 -0.999941 0.010858 0.000987
-0.619652450085 -1.253597617149 -0.531188964844 -0.999941 0.010858 0.000987
-0.618772864342 -1.178607583046 -0.516017556190 -0.999941 0.010858 0.000987
-0.618698894978 -1.172298192978 -0.547815740108 -0.999941 0.010858 0.000987
-0.620930194855 -1.362528324127 -0.521437168121 -0.999941 0.010858 0.000987
-0.618658185005 -1.168834686279 -0.599317967892 -0.999941 0.010858 0.000987
-0.619008362293 -1.198681950569 -0.580936551094 -0.999941 0.010858 0.000987
-0.621732771397 -1.430947542191 -0.540544807911 -0.999941 0.010858 0.000987
-0.622546732426 -1.500342369080 -0.608117341995 -0.999941 0.010858 0.000987
-0.390132814646 -1.391421556473 -0.606685638428 0.036455 0.030206 -0.998879
-0.591111421585 -1.660761117935 -0.622236371040 0.036455 0.030206 -0.998879
-0.521646201611 -1.110380887985 -0.602976679802 0.036455 0.030206 -0.998879
-0.139421418309 -1.653407931328 -0.605443358421 0.036455 0.030206 -0.998879
-0.360787808895 -1.643314719200 -0.613257527351 0.036455 0.030206 -0.998879
-0.060148146003 -1.621018052101 -0.601551890373 0.036455 0.030206 -0.998879
-0.219438537955 -1.435131669044 -0.601751089096 0.036455 0.030206 -0.998879
-0.356145322323 -1.644162535667 -0.613112926483 0.036455 0.030206 -0.998879
-0.583099603653 -1.509538531303 -0.617350816727 0.036455 0.030206 -0.998879
-0.386941611767 -1.367801308632 -0.605851411819 0.036455 0.030206 -0.998879
-0.517949819565 -1.411836743355 -0.611994326115 0.036455 0.030206 -0.998879
-0.522849917412 -1.480498552322 -0.614258944988 0.036455 0.030206 -0.998879
-0.474869757891 -1.234359741211 -0.605025172234 0.036455 0.030206 -0.998879
-0.440067291260 -1.223865628242 -0.603429853916 0.036455 0.030206 -0.998879
-0.505914747715 -1.637353420258 -0.618400335312 0.036455 0.030206 -0.998879
-0.608915925026 -1.404674291611 -0.615113914013 0.036455 0.030206 -0.998879
-0.430287301540 -1.228481650352 -0.603211283684 0.036455 0.030206 -0.998879
-0.257813394070 -1.666983604431 -0.610198676586 0.036455 0.030206 -0.998879
-0.595014691353 -1.603490829468 -0.620640695095 0.036455 0.030206 -0.998879
-0.352043420076 -1.594836115837 -0.611464738846 0.036455 0.030206 -0.998879
-0.373825937510 -1.544796466827 -0.610744416714 0.036455 0.030206 -0.998879
-0.544167697430 -1.341107368469 -0.610808491707 0.036455 0.030206 -0.998879
-0.048832271248 -1.046712160110 -0.587445795536 0.029783 0.023621 -0.999277
-0.134407699108 -1.463888764381 -0.599880099297 0.029783 0.023621 -0.999277
-0.050978917629 -1.235037088394 -0.592006802559 0.029783 0.023621 -0.999277
-0.156349271536 -0.965777397156 -0.588613092899 0.029783 0.023621 -0.999277
-0.203024417162 -1.396920561790 -0.600259125233 0.029783 0.023621 -0.999277
-0.208862513304 -1.218926906586 -0.596175253391 0.029783 0.023621 -0.999277
-0.133744359016 -1.309180974960 -0.596165060997 0.029783 0.023621 -0.999277
-0.018846074119 -0.990314841270 -0.585233688354 0.029783 0.023621 -0.999277
-0.490061461926 -1.022220253944 -0.599585592747 0.029783 0.023621 -0.999277
-0.237959399819 -1.004484772682 -0.591891407967 0.029783 0.023621 -0.999277
-0.315665304661 -1.283108949661 -0.600788712502 0.029783 0.023621 -0.999277
-0.030885322019 -1.332843184471 -0.593763947487 0.029783 0.023621 -0.999277
-0.059742897749 -1.542955517769 -0.599615752697 0.029783 0.023621 -0.999277
-0.172091573477 -1.361032009125 -0.598509609699 0.029783 0.023621 -0.999277
-0.348569512367 -1.207559227943 -0.599932730198 0.029783 0.023621 -0.999277
-0.252808868885 -1.036570191383 -0.593086123466 0.029783 0.023621 -0.999277
-0.398513734341 -1.029799461365 -0.597126483917 0.029783 0.023621 -0.999277
-0.438228517771 -0.978647649288 -0.597049772739 0.029783 0.023621 -0.999277
-0.235895395279 -0.971496820450 -0.591043770313 0.029783 0.023621 -0.999277
-0.363586157560 -0.948494076729 -0.594176769257 0.029783 0.023621 -0.999277
-0.165274143219 -1.263631463051 -0.595986187458 0.029783 0.023621 -0.999277
-0.084611505270 -0.951832354069 -0.586210966110 0.029783 0.023621 -0.999277
0.013537615538 -1.242283344269 -0.591419816017 -0.027731 0.023623 -0.999336
-0.004881143570 -1.278979659081 -0.591800332069 -0.027731 0.023623 -0.999336
0.068205401301 -1.336089253426 -0.595269203186 -0.027731 0.023623 -0.999336
-0.002582907677 -1.244058847427 -0.591007649899 -0.027731 0.023623 -0.999336
0.418543040752 -1.123549699783 -0.599953770638 -0.027731 0.023623 -0.999336
0.030784122646 -1.558678030968 -0.599678039551 -0.027731 0.023623 -0.999336
0.220670968294 -1.006179571152 -0.591477036476 -0.027731 0.023623 -0.999336
0.345287978649 -1.161612510681 -0.598817586899 -0.027731 0.023623 -0.999336
0.056307137012 -1.160169601440 -0.590612292290 -0.027731 0.023623 -0.999336
0.428719371557 -1.112855672836 -0.599978804588 -0.027731 0.023623 -0.999336
0.255651414394 -1.111119508743 -0.595043301582 -0.027731 0.023623 -0.999336
0.171301752329 -0.968134105206 -0.589146912098 -0.027731 0.023623 -0.999336
0.001185947098 -1.642064929008 -0.600889205933 -0.027731 0.023623 -0.999336
0.204571068287 -0.982635498047 -0.590443670750 -0.027731 0.023623 -0.999336
0.402800768614 -1.036250948906 -0.597364664078 -0.027731 0.023623 -0.999336
0.273882687092 -1.083851814270 -0.594889044762 -0.027731 0.023623 -0.999336
0.020552705973 -1.618251562119 -0.600851893425 -0.027731 0.023623 -0.999336
0.492700129747 -1.047204136848 -0.600175201893 -0.027731 0.023623 -0.999336
0.402235776186 -1.189965486526 -0.601123869419 -0.027731 0.023623 -0.999336
0.059741497040 -1.461987733841 -0.598121941090 -0.027731 0.023623 -0.999336
0.032441973686 -1.240373611450 -0.591907322407 -0.027731 0.023623 -0.999336
0.080449953675 -1.512064456940 -0.599937319756 -0.027731 0.023623 -0.999336
0.282720774412 -1.362203359604 -0.602172553539 -0.036455 0.030206 -0.998879
0.604154407978 -0.976597905159 -0.601694941521 -0.036455 0.030206 -0.998879
0.402729302645 -1.419535517693 -0.608277916908 -0.036455 0.030206 -0.998879
0.594860315323 -1.006974935532 -0.602308988571 -0.036455 0.030206 -0.998879
0.378910839558 -1.515242576599 -0.610408902168 -0.036455 0.030206 -0.998879
0.168571144342 -1.500710725784 -0.602391183376 -0.036455 0.030206 -0.998879
0.252073407173 -1.370747566223 -0.601337134838 -0.036455 0.030206 -0.998879
0.565379500389 -1.317433595657 -0.610939979553 -0.036455 0.030206 -0.998879
0.393963158131 -1.266224741936 -0.603176951408 -0.036455 0.030206 -0.998879
0.480671644211 -1.251497626305 -0.605835437775 -0.036455 0.030206 -0.998879
0.479565411806 -1.117358446121 -0.601608455181 -0.036455 0.030206 -0.998879
0.533229053020 -1.638187170029 -0.619796276093 -0.036455 0.030206 -0.998879
0.076059341431 -1.630741596222 -0.603123247623 -0.036455 0.030206 -0.998879
0.466761559248 -1.323553562164 -0.607584536076 -0.036455 0.030206 -0.998879
0.360590636730 -1.675257325172 -0.614745080471 -0.036455 0.030206 -0.998879
0.596455335617 -1.648057937622 -0.622378051281 -0.036455 0.030206 -0.998879
0.438663899899 -1.499667644501 -0.612071573734 -0.036455 0.030206 -0.998879
0.559192955494 -1.413906097412 -0.613728880882 -0.036455 0.030206 -0.998879
0.601839900017 -0.980819761753 -0.601743519306 -0.036455 0.030206 -0.998879
0.212022811174 -1.426351070404 -0.601632595062 -0.036455 0.030206 -0.998879
0.588547587395 -1.640761017799 -0.621865928173 -0.036455 0.030206 -0.998879
0.409674048424 -1.534016609192 -0.612101256847 -0.036455 0.030206 -0.998879
0.438811212778 -1.562442541122 -0.614036440849 -0.036455 0.030206 -0.998879
0.434821367264 -1.798712134361 -0.606908440590 -0.036065 -0.086337 -0.995613
0.718150734901 -1.891864418983 -0.609419882298 -0.036065 -0.086337 -0.995613
0.600236773491 -1.732138037682 -0.618829607964 -0.036065 -0.086337 -0.995613
0.493346512318 -1.749690175056 -0.613327503204 -0.036065 -0.086337 -0.995613
0.509004473686 -1.728266716003 -0.615762948990 -0.036065 -0.086337 -0.995613
0.574654638767 -1.830906867981 -0.609338939190 -0.036065 -0.086337 -0.995613
0.661300301552 -1.763957262039 -0.618355929852 -0.036065 -0.086337 -0.995613
0.796498775482 -1.714093565941 -0.625501573086 -0.024626 -0.076018 -0.996802
0.755548238754 -1.810281872749 -0.617217421532 -0.024626 -0.076018 -0.996802
0.733033299446 -1.726511478424 -0.623038053513 -0.024626 -0.076018 -0.996802
0.228471755981 -1.773292541504 -0.604474723339 -0.005004 0.021016 -0.999767
0.563671350479 -1.902420997620 -0.608687698841 -0.005004 0.021016 -0.999767
0.700829505920 -1.980374097824 -0.610914826393 -0.005004 0.021016 -0.999767
0.221373334527 -1.769804120064 -0.604370355606 -0.005004 0.021016 -0.999767
0.519748568535 -2.037804365158 -0.611441493034 -0.003002 0.021016 -0.999775
0.286232918501 -1.824490427971 -0.605821371078 -0.003002 0.021016 -0.999775
0.332142412663 -1.925754547119 -0.608230590820 -0.003002 0.021016 -0.999775
0.197259783745 -1.785576224327 -0.604611396790 -0.003002 0.021016 -0.999775
0.358879983425 -1.918009877205 -0.608166873455 -0.003002 0.021016 -0.999775
0.607447504997 -1.973306179047 -0.610372900963 -0.003002 0.021016 -0.999775
0.240995883942 -2.184042215347 -0.341405510902 0.266178 -0.963831 -0.013370
0.205749824643 -2.192059755325 -0.313914090395 0.261274 -0.945236 0.195613
0.080196142197 -2.136256933212 -0.425062566996 0.104297 -0.991397 -0.079083
0.080617584288 -2.125631093979 -0.558642089367 0.104297 -0.991397 -0.079083
-0.453196614981 -2.036895990372 -0.548339664936 -0.377545 -0.923038 -0.073897
-0.671059608459 -1.928494572639 -0.564591228962 -0.469418 -0.841874 -0.266260
-0.870050251484 -1.230727672577 -0.108593881130 -0.172669 -0.144941 -0.974257
-0.864123880863 -1.195401906967 -0.114898256958 -0.172669 -0.144941 -0.974257
-0.635228753090 -1.111354470253 -0.194844543934 -0.175279 -0.412846 -0.893776
-0.624862134457 -1.176916241646 -0.166579335928 -0.175279 -0.412846 -0.893776
-0.620005130768 -1.283661484718 -0.194483071566 -0.999941 0.010858 -0.000987
-0.618495821953 -1.154990673065 -0.232340902090 -0.999941 0.010858 -0.000987
-0.622438967228 -1.491151094437 -0.259241163731 -0.999941 0.010858 0.000987
-0.621500432491 -1.411138534546 -0.229874432087 -0.999941 0.010858 0.000987
-0.620261192322 -1.305487632751 -0.316988527775 -0.999941 0.010858 0.000987
-0.622923970222 -1.532499194145 -0.291366368532 -0.999941 0.010858 0.000987
-0.620470166206 -1.323308229446 -0.327419668436 -0.999941 0.010858 0.000987
-0.619425296783 -1.234228610992 -0.378307431936 -0.999941 0.010858 -0.000987
-0.622364461422 -1.484800815582 -0.313380718231 -0.999941 0.010858 -0.000987
-0.619857013226 -1.271032214165 -0.382437616587 -0.999941 0.010858 -0.000987
-0.616587281227 -0.992278099060 -0.411420732737 -0.999941 0.010858 -0.000987
-0.621314346790 -1.395280838013 -0.418686509132 -0.999941 0.010858 -0.000987
-0.616484940052 -0.983552217484 -0.399407029152 -0.999941 0.010858 -0.000987
-0.616982519627 -1.025979399681 -0.466403633356 -0.999941 0.010858 -0.000987
-0.690388441086 -0.941830039024 -0.437810301781 0.003525 -0.973948 -0.226745
-0.720831334591 -0.937932133675 -0.460464626551 0.035641 -0.987597 -0.152911
-0.806669414043 0.975650787354 -0.368200123310 -0.022615 0.996118 -0.085074
-0.795271754265 0.973130762577 -0.401016920805 -0.022615 0.996118 -0.085074
-0.662807703018 0.976056456566 -0.400821596384 -0.022615 0.996118 -0.085074
-0.595689654350 0.975505828857 -0.413649529219 0.005731 0.982373 -0.186846
-0.485206246376 0.972034215927 -0.428042054176 0.005731 0.982373 -0.186846
-0.381691694260 1.355098962784 -0.413863509893 -0.999131 0.041673 0.001016
-0.394358664751 1.046865701675 -0.400773406029 -0.999131 0.041673 0.001016
-0.378327906132 1.436969995499 -0.419056773186 -0.999131 0.041673 0.001016
-0.396117985249 1.003818511963 -0.375486195087 -0.999131 0.041673 0.001016
-0.376282334328 1.487425565720 -0.488704144955 -0.999131 0.041673 0.001016
-0.377489238977 1.457700252533 -0.452025949955 -0.999131 0.041673 0.001016
-0.370660871267 1.624208331108 -0.493727028370 -0.999131 0.041673 0.001016
-0.373489320278 1.554872989655 -0.440315276384 -0.999131 0.041673 0.001016
-0.394162386656 1.052768468857 -0.512841522694 -0.999131 0.041673 0.001016
-0.375001907349 1.518876194954 -0.519188046455 -0.999131 0.041673 0.001016
-0.376878052950 1.473284959793 -0.523417234421 -0.999131 0.041673 0.001016
-0.387350916862 1.218224287033 -0.490977644920 -0.999131 0.041673 0.001016
-0.007018401287 0.998834431171 -0.537211596966 0.053141 0.061818 -0.996672
-0.208591490984 1.154065132141 -0.538380742073 0.053141 0.061818 -0.996672
-0.391105681658 1.059633255005 -0.553923964500 0.053141 0.061818 -0.996672
-0.291936576366 1.163943290710 -0.542211532593 0.053141 0.061818 -0.996672
0.002121275757 1.020760893822 -0.535373151302 0.053141 0.061818 -0.996672
-0.337179690599 1.376491427422 -0.531520009041 0.053141 0.061818 -0.996672
-0.123619772494 1.168473720551 -0.532966196537 0.053141 0.061818 -0.996672
-0.256674230099 1.429311156273 -0.523975729942 0.053141 0.061818 -0.996672
-0.060581322759 1.064512968063 -0.536016404629 0.053141 0.061818 -0.996672
-0.373105376959 1.129985213280 -0.548628509045 0.053141 0.061818 -0.996672
-0.264565080404 1.347639083862 -0.529430389404 0.053141 0.061818 -0.996672
-0.381268739700 1.193893313408 -0.545124053955 0.053141 0.061818 -0.996672
-0.354137986898 1.098531484604 -0.549556970596 0.053141 0.061818 -0.996672
-0.233305513859 1.383118271828 -0.525578260422 0.053141 0.061818 -0.996672
-0.244134485722 1.565109610558 -0.518739461899 -0.015192 0.023294 -0.999613
-0.042743116617 1.140277385712 -0.531790018082 -0.015192 0.023294 -0.999613
-0.128974393010 1.473536491394 -0.522575438023 -0.015192 0.023294 -0.999613
-0.024166289717 1.608914375305 -0.520825922489 -0.015192 0.023294 -0.999613
-0.093407347798 1.268599033356 -0.527992963791 -0.015192 0.023294 -0.999613
0.006127931178 1.520823359489 -0.523368477821 -0.015192 0.023294 -0.999613
-0.040281668305 1.399733185768 -0.525608301163 -0.015192 0.023294 -0.999613
-0.145045682788 1.421911001205 -0.523583352566 -0.015192 0.023294 -0.999613
-0.008744239807 1.057282805443 -0.534263372421 -0.015192 0.023294 -0.999613
-0.095632210374 1.294011592865 -0.527352392673 -0.015192 0.023294 -0.999613
-0.018187716603 1.285900592804 -0.528650820255 -0.015192 0.023294 -0.999613
-0.173531949520 1.349161624908 -0.524920403957 -0.015192 0.023294 -0.999613
-0.143161088228 1.481611967087 -0.522179722786 -0.015192 0.023294 -0.999613
-0.309863686562 1.786174893379 -0.513235628605 -0.015102 0.017115 -0.999739
-0.317085713148 1.807079195976 -0.512783110142 -0.015102 0.017115 -0.999739
-0.470183163881 2.023241519928 -0.506979107857 -0.015102 0.017115 -0.999739
-0.265086084604 1.805001258850 -0.513593137264 -0.015102 0.017115 -0.999739
-0.286629050970 1.794239997864 -0.513439118862 -0.015102 0.017115 -0.999739
-0.451784938574 2.063531160355 -0.506586015224 -0.015102 0.017115 -0.999739
-0.241156861186 1.718232274055 -0.515356004238 -0.015102 0.017115 -0.999739
-0.214852303267 1.922286748886 -0.512413501740 -0.015102 0.017115 -0.999739
-0.109703257680 1.716737031937 -0.517277419567 -0.015102 0.017115 -0.999739
-0.112476818264 1.709741234779 -0.517351865768 -0.015102 0.017115 -0.999739
-0.214202493429 2.122981548309 -0.508253037930 -0.005014 0.021058 -0.999766
-0.265915930271 2.032526016235 -0.509842634201 -0.005014 0.021058 -0.999766
-0.267840266228 2.108397245407 -0.508242011070 -0.005014 0.021058 -0.999766
-0.204234033823 2.041933059692 -0.510009646416 -0.005014 0.021058 -0.999766
-0.083403311670 1.775430202484 -0.516382932663 -0.015132 0.019167 -0.999702
-0.041828855872 1.785922646523 -0.516770720482 -0.015132 0.019167 -0.999702
-0.083720736206 2.002000808716 -0.511800110340 -0.003008 0.023063 -0.999730
-0.043372921646 2.056963205338 -0.510633468628 -0.003008 0.023063 -0.999730
-0.040782738477 1.979789137840 -0.512482106686 -0.003008 0.023063 -0.999730
-0.003631658852 2.068952083588 -0.510488927364 -0.003008 0.023063 -0.999730
-0.043892968446 2.157400846481 -0.481300622225 -0.012378 0.807304 -0.590006
0.143425583839 2.139657735825 -0.501447498798 0.032059 0.807053 -0.589608
0.175657048821 2.168814182281 -0.459875226021 0.032059 0.807053 -0.589608
0.038163926452 2.203832149506 -0.391768664122 0.034650 0.940682 -0.337516
-0.055138800293 2.201182126999 -0.395911902189 -0.013865 0.941566 -0.336544
-0.119048461318 2.176209449768 -0.454051464796 -0.012378 0.807304 -0.590006
-0.283474326134 2.138882160187 -0.498529851437 -0.026385 0.806830 -0.590194
-0.428254455328 2.121592521667 -0.505934953690 -0.082016 0.804328 -0.588498
-0.477747768164 2.140653371811 -0.472932249308 -0.082016 0.804328 -0.588498
-0.502687573433 2.095823049545 -0.505493640900 0.023621 0.029783 -0.999277
-0.598799347878 2.078693866730 -0.508303821087 0.023621 0.029783 -0.999277
-0.521201550961 1.983120441437 -0.509192049503 0.023621 0.029783 -0.999277
-0.444858670235 1.775341510773 -0.512810468674 -0.008919 0.006937 -0.999936
-0.583833158016 1.963113546371 -0.510368883610 -0.008919 0.006937 -0.999936
-0.484770864248 1.811576008797 -0.512220323086 -0.008919 0.006937 -0.999936
-0.646547198296 1.906868577003 -0.510038197041 -0.014865 0.000991 -0.999889
-0.579046964645 1.867067098618 -0.511008679867 -0.014865 0.000991 -0.999889
-0.696757912636 1.881927847862 -0.509340882301 -0.014865 0.000991 -0.999889
-0.523308515549 1.758918285370 -0.511843740940 -0.014865 0.000991 -0.999889
-0.735866546631 1.714780330658 -0.508740365505 -0.014865 -0.000991 -0.999889
-0.723739445210 1.786697268486 -0.508971691132 -0.014865 -0.000991 -0.999889
-0.667484343052 1.736968278885 -0.509751737118 -0.014865 -0.000991 -0.999889
-0.652165412903 1.683940649033 -0.450901359320 -0.011862 -0.995313 -0.095973
-0.602652728558 1.686333060265 -0.482257544994 -0.011862 -0.995313 -0.095973
-0.663383901119 1.684511780739 -0.455306082964 -0.011862 -0.995313 -0.095973
-0.673690080643 1.663605570793 -0.347240090370 -0.003740 -0.943832 -0.330404
-0.789191961288 1.651121854782 -0.310604184866 -0.003740 -0.943832 -0.330404
-0.802012026310 1.635470509529 -0.277792245150 -0.006810 -0.832241 -0.554373
-0.575492382050 1.626399755478 -0.267355471849 -0.006810 -0.832241 -0.554373
-0.482531100512 1.641206502914 -0.290888935328 -0.006810 -0.832241 -0.554373
-0.672612071037 1.570693135262 -0.194044291973 -0.023830 -0.654638 -0.755567
-0.763379693031 1.528662443161 -0.154842734337 -0.023830 -0.654638 -0.755567
-0.801519453526 1.550472974777 -0.172540351748 -0.023830 -0.654638 -0.755567
