-0.363505721092 1.978968262672 -0.415556639433 -0.159256 0.747743 -0.644606
-0.307272493839 2.090592622757 -0.300074458122 -0.159256 0.747743 -0.644606
-0.309036642313 2.093084573746 -0.290615618229 -0.199600 0.978879 -0.044223
-0.280840486288 2.101384639740 -0.264195352793 -0.218804 0.971491 -0.091273
-0.389709442854 2.087915182114 -0.212685972452 -0.212342 0.908593 -0.359681
-0.308005243540 2.112665176392 -0.194171309471 -0.165469 0.942218 -0.291281
-0.200290590525 2.118539571762 -0.225125953555 -0.118184 0.949453 -0.290812
-0.218907505274 2.136329650879 -0.150900393724 -0.068702 0.968070 -0.241081
0.114457339048 2.058621644974 -0.024078162387 0.001377 0.756234 0.654300
0.600134611130 1.980393886566 0.080802276731 0.516145 0.852700 -0.080603
0.690520763397 1.923004031181 0.061832692474 0.788330 0.614082 -0.037941
0.794547736645 1.761031627655 0.009849444032 0.974443 0.157575 0.160096
0.807140290737 1.622179389000 0.064749263227 0.972895 0.130310 0.191037
0.773131430149 1.644273877144 0.215009063482 0.972499 0.106661 0.207048
0.787501513958 1.571937203407 0.187877729535 0.961555 0.183342 0.204446
0.801220059395 1.441953778267 0.190372750163 0.960092 0.093824 0.263479
0.822751641273 1.445029139519 0.111188076437 0.960092 0.093824 0.263479
0.803460597992 1.385883688927 0.202929258347 0.956649 0.075761 0.281216
0.870315730572 1.331797719002 -0.001595593989 0.959249 -0.001213 0.282560
0.851408004761 1.421556949615 0.029842803255 0.942927 0.130850 0.306215
0.852521777153 1.452432036400 0.012651864439 0.937442 0.172578 0.302356
0.837027251720 1.486271381378 0.040574826300 0.933412 0.185013 0.307428
0.820462286472 1.678120493889 -0.111531913280 0.879049 0.438791 0.186376
0.793288350105 1.812280416489 -0.156452491879 0.981810 0.187957 0.026851
0.793857872486 1.787999987602 -0.138778865337 0.972440 0.223082 0.067787
0.800582289696 1.750452160835 -0.110921412706 0.972440 0.223082 0.067787
0.810764670372 1.670304179192 -0.001690456877 0.979042 0.154716 0.132437
0.741895556450 1.866491913795 -0.053891610354 0.718567 0.553379 0.421229
0.740810692310 1.901467680931 -0.185416236520 0.762773 0.549906 -0.340265
0.775202512741 1.825241565704 -0.258008360863 0.920496 0.382526 0.079749
0.698389232159 1.869602203369 -0.382625579834 0.663964 0.654127 -0.362311
0.717063248158 1.858764767647 -0.367858767509 0.663964 0.654127 -0.362311
0.668149411678 1.865420222282 -0.420689254999 0.492330 0.731036 -0.472438
0.621910035610 1.958952069283 -0.319340944290 0.455226 0.751041 -0.478234
0.662021338940 1.949446320534 -0.263000488281 0.514240 0.857066 0.031540
0.383515387774 2.078038692474 -0.282577961683 0.199600 0.978879 -0.044223
0.313487082720 2.095508575439 -0.245503276587 0.219337 0.971350 -0.091495
0.111772969365 2.125507354736 -0.289681345224 0.065340 0.997237 0.035348
0.040232796222 2.136601686478 -0.167000919580 -0.058927 0.997475 -0.039642
-0.025521343574 2.135645151138 -0.167178466916 0.058927 0.997475 -0.039642
-0.111060261726 2.131834745407 -0.204886138439 -0.070279 0.972806 -0.220700
0.030552580953 2.081028938293 -0.344046443701 0.021033 0.688487 -0.724944
0.160950601101 1.956360936165 -0.457818746567 0.026690 0.686915 -0.726248
0.173522651196 2.012803316116 -0.403983145952 0.026690 0.686915 -0.726248
0.132957994938 1.972246170044 -0.443777501583 0.026690 0.686915 -0.726248
0.187811717391 2.064143419266 -0.351134806871 0.133264 0.708247 -0.693273
0.211750239134 2.032576560974 -0.378827393055 0.133264 0.708247 -0.693273
0.270334720612 2.011421203613 -0.391917914152 0.070797 0.723865 -0.686299
0.384083896875 2.006482124329 -0.379070669413 0.159256 0.747743 -0.644606
0.463048815727 2.040132045746 -0.312235474586 0.284213 0.773251 -0.566839
0.559074044228 1.914684057236 -0.432422697544 0.337859 0.758163 -0.557710
0.345745593309 1.999699354172 -0.396373063326 0.159256 0.747743 -0.644606
0.358062982559 1.965938687325 -0.431528866291 0.107921 0.734748 -0.669700
-0.314978837967 1.983208537102 -0.416960328817 -0.055795 0.736777 -0.673829
-0.242744177580 1.986555695534 -0.420428872108 -0.070945 0.722485 -0.687737
-0.210813879967 2.031726121902 -0.379671573639 -0.133541 0.709718 -0.691713
-0.064143948257 2.010971546173 -0.409469991922 -0.026690 0.686915 -0.726248
-0.140771210194 2.083842277527 -0.337637335062 -0.026690 0.686915 -0.726248
-0.102592349052 2.076074361801 -0.346427589655 -0.026690 0.686915 -0.726248
-0.016936250031 2.048057079315 -0.375806629658 -0.023836 0.688443 -0.724899
0.209931790829 2.119154691696 -0.219192564487 0.118184 0.949453 -0.290812
0.270276397467 2.119474411011 -0.193637326360 0.165044 0.942524 -0.290532
0.183976531029 2.112771034241 -0.080416478217 0.046769 0.619334 0.783734
0.310347408056 2.038855075836 0.017273478210 0.050399 0.998716 -0.005143
0.269592970610 2.032832384109 0.033610627055 -0.541402 0.780960 0.311426
0.426697224379 2.029691934586 0.009803500026 0.208369 0.976803 -0.049382
0.605470716953 1.967394590378 -0.017097726464 0.510309 0.838472 -0.191178
0.578978955746 1.993245363235 0.046262580901 0.466829 0.883592 0.036534
0.606430232525 1.976953744888 0.081470206380 0.469987 0.881054 0.053439
0.710558533669 1.894716978073 0.027814798057 0.777140 0.622587 -0.091857
0.474187582731 2.035882949829 -0.055139616132 0.217742 0.863458 0.455005
0.447633802891 2.051868677139 -0.066709689796 0.159679 0.701069 0.694986
0.537626504898 2.037332534790 -0.086985051632 0.300699 0.702704 0.644815
0.611683249474 1.993556857109 -0.075750350952 0.293612 0.620917 0.726810
0.691124200821 1.994026660919 -0.127063944936 0.528459 0.809056 0.257214
0.393378168344 2.092617034912 -0.198914200068 0.209581 0.909147 -0.359901
0.484373480082 2.045224428177 -0.229872584343 0.336368 0.798675 -0.498973
0.676214694977 2.003872394562 -0.160038724542 0.410218 0.669303 -0.619479
0.762851655483 1.612924218178 0.244355246425 0.811564 0.085048 0.578041
0.748965740204 1.679257154465 0.253916412592 0.811564 0.085048 0.578041
-0.446990400553 2.019413232803 -0.348369300365 -0.287644 0.773938 -0.564164
-0.499361902475 1.988894224167 -0.363568902016 -0.287644 0.773938 -0.564164
-0.432356625795 1.925266981125 -0.461494117975 -0.145827 0.750184 -0.644948
-0.568973779678 1.928770542145 -0.406921178102 -0.337859 0.758163 -0.557710
-0.586510658264 1.947936654091 -0.370160579681 -0.337859 0.758163 -0.557710
-0.626509010792 1.964352250099 -0.306342482567 -0.455941 0.752220 -0.475693
-0.645911812782 1.948053479195 -0.313472181559 -0.455941 0.752220 -0.475693
-0.653796315193 1.956205487251 -0.287036120892 -0.514193 0.856989 0.034280
-0.695780575275 1.918931365013 -0.232852280140 -0.742366 0.669667 0.020971
-0.725598394871 1.865332007408 -0.341391235590 -0.666577 0.653474 -0.358674
-0.651842236519 1.859816193581 -0.446609944105 -0.492330 0.731036 -0.472438
0.851516723633 0.856976866722 -0.300772339106 0.950833 -0.301421 0.071151
0.880685925484 0.157314077020 0.060125991702 0.951902 -0.065516 0.299316
0.866217374802 0.134190335870 0.084856107831 0.527907 -0.612237 0.588625
0.851779520512 0.010588395409 0.138939917088 0.924882 -0.130945 0.356996
0.896112561226 0.204381778836 -0.066073544323 0.998115 -0.051864 -0.032812
0.895824790001 0.208864688873 -0.081947214901 0.998115 -0.051864 -0.032812
0.898275554180 0.234511137009 -0.030680134892 0.999426 0.005073 -0.033483
0.879205286503 -0.418376147747 -0.200774088502 0.988549 -0.005585 -0.150796
0.878139197826 -0.523316860199 -0.190310999751 0.988183 -0.033130 -0.149655
0.867554008961 -0.485096871853 -0.268211126328 0.988183 -0.033130 -0.149655
0.859699130058 -0.384711325169 -0.327616631985 0.988665 0.001112 -0.150135
0.869277596474 -0.408655077219 -0.264213681221 0.990955 0.007750 -0.133973
0.882604598999 -0.179788306355 -0.186960458755 0.985809 -0.001127 -0.167869
0.878189325333 -0.237809538841 -0.212573602796 0.985809 -0.001127 -0.167869
0.868801653385 -0.046783804893 -0.263457775116 0.985961 0.007942 -0.166785
0.879787504673 -0.145759135485 -0.203417554498 0.985961 0.007942 -0.166785
0.870601177216 -0.005376611836 -0.250946342945 0.985961 0.007942 -0.166785
0.878740251064 0.777427911758 -0.372029989958 0.989988 0.016817 0.140146
-0.880559027195 -0.351359754801 -0.365047186613 -0.921675 -0.016852 0.387596
-0.880863845348 0.547250390053 -0.349910706282 -0.841304 0.004064 0.540548
-0.871440351009 0.773533761501 -0.337381333113 -0.841304 0.004064 0.540548
-0.883308172226 0.659999430180 -0.376002877951 -0.989628 0.016850 0.142659
-0.885228455067 0.605745553970 -0.382750332355 -0.989261 0.016882 0.145182
-0.880067586899 0.902017652988 -0.421761482954 -0.997713 0.020102 -0.064539
-0.882499635220 0.743723154068 -0.435525715351 -0.997410 0.020182 -0.069043
-0.891602933407 0.339271873236 -0.425513148308 -0.997410 0.020182 -0.069043
-0.891822516918 0.287947416306 -0.425019532442 -0.997384 -0.003140 -0.072214
-0.892945349216 0.242040842772 -0.407649606466 -0.997384 -0.003140 -0.072214
-0.892442345619 0.248542934656 -0.402583599091 -0.988483 -0.007836 0.151127
-0.886272430420 0.317569106817 -0.357047319412 -0.989559 -0.007809 0.143916
-0.898751318455 0.235402688384 -0.039579845965 -0.999558 0.005053 -0.029310
-0.865467905998 0.084414497018 0.128816589713 -0.796033 -0.017997 0.604985
-0.894592642784 0.146810919046 -0.043900091201 -0.998070 -0.053978 -0.030694
-0.896214663982 0.065837658942 -0.131037086248 -0.737067 -0.026675 0.675293
-0.869269371033 -0.750508725643 -0.118915244937 -0.998004 -0.041363 0.047726
-0.870122790337 -0.677894353867 -0.037764068693 -0.998439 -0.055065 0.009351
-0.864758074284 -0.776000142097 -0.036767154932 -0.998439 -0.055065 0.009351
-0.853563845158 -0.753086566925 0.040760941803 -0.984425 -0.062634 0.164268
-0.847698211670 -0.733867406845 0.083506919444 -0.984425 -0.062634 0.164268
-0.854821681976 -0.464493453503 0.096391506493 -0.972258 -0.035113 0.231259
-0.846931040287 -0.709931612015 0.091037452221 -0.972258 -0.035113 0.231259
-0.852204620838 -0.547822356224 0.094314299524 -0.972258 -0.035113 0.231259
-0.880042076111 -0.331693053246 0.010839678347 -0.972258 -0.035113 0.231259
-0.873209297657 -0.442037075758 0.022798553109 -0.972258 -0.035113 0.231259
-0.885556221008 -0.290317714214 -0.063203267753 -0.999668 -0.023248 -0.011119
-0.887309312820 -0.192356750369 -0.107496343553 -0.999668 -0.023248 -0.011119
-0.884728670120 -0.356119185686 -0.128942131996 -0.999855 -0.012985 0.010987
-0.883564054966 -0.420322716236 -0.093064740300 -0.999855 -0.012985 0.010987
-0.888667225838 -0.109960258007 -0.092320367694 -0.999904 -0.004965 -0.012908
-0.888606190681 -0.149907499552 -0.078555852175 -0.999904 -0.004965 -0.012908
-0.892377972603 0.027282819152 -0.000702977180 -0.999444 -0.015313 -0.029606
-0.889796257019 -0.110771238804 -0.014676254243 -0.999444 -0.015313 -0.029606
-0.839077174664 -0.593965232372 0.134587049484 -0.877526 -0.053558 0.476528
-0.827391326427 -0.486388325691 0.166692554951 -0.864530 -0.045502 0.500517
-0.816800832748 -0.715507209301 0.157293230295 -0.810163 -0.090981 0.579101
-0.840149879456 -0.823486626148 0.094082467258 -0.984120 -0.070209 0.163028
-0.745412945747 -0.812013328075 0.230373889208 -0.782269 -0.234836 0.576982
-0.666774153709 1.940630555153 -0.048091761768 -0.454044 0.890978 -0.001316
-0.682648479939 1.045938372612 0.430980592966 -0.881095 0.127095 0.455542
-0.748206079006 1.031050205231 0.303745418787 -0.755354 0.012520 0.655197
-0.774294853210 0.915553152561 0.278729021549 -0.666978 0.044086 0.743772
-0.773240208626 0.865809917450 0.281420767307 -0.711214 -0.012526 0.702864
-0.756008982658 0.792774796486 0.297157585621 -0.704184 -0.018200 0.709784
-0.792801141739 0.720443487167 0.258667379618 -0.704184 -0.018200 0.709784
-0.745059370995 0.238267362118 0.327296584845 -0.899604 0.027988 0.435808
-0.751815140247 0.331280440092 0.309673458338 -0.909655 0.001294 0.415362
-0.715787172318 0.269940048456 0.388489007950 -0.909655 0.001294 0.415362
0.572809398174 0.605693161488 0.628227293491 0.631743 0.029416 0.774620
0.557610332966 0.458657860756 0.646309256554 0.631743 0.029416 0.774620
0.551941514015 0.624394118786 0.644710958004 0.636169 0.029491 0.770986
0.560840725899 0.661752402782 0.635969996452 0.636169 0.029491 0.770986
0.572134017944 0.748360157013 0.625358164310 0.636234 -0.004140 0.771485
0.565955758095 0.907751679420 0.629934251308 0.534712 0.037306 0.844210
0.537008762360 1.053549528122 0.638807177544 0.534445 0.060318 0.843048
0.529633879662 1.124618887901 0.636750698090 0.637115 0.104469 0.763656
0.070447206497 1.211069226265 0.677890241146 0.026457 0.058205 0.997954
-0.286930054426 1.196508526802 0.665267646313 -0.078585 0.060876 0.995047
-0.319505453110 1.170899629593 0.664063453674 -0.077133 0.040196 0.996210
-0.272772908211 1.085732340813 0.671118974686 -0.077133 0.040196 0.996210
-0.380762517452 1.080032944679 0.663623869419 -0.066016 0.046536 0.996733
-0.267714530230 0.952457368374 0.677033841610 -0.066016 0.046536 0.996733
-0.306936085224 0.797327399254 0.679206967354 -0.065071 0.030935 0.997401
-0.346920371056 0.865653693676 0.674514651299 -0.065071 0.030935 0.997401
-0.289834141731 0.654677867889 0.684583365917 -0.067343 0.028861 0.997312
-0.336972385645 0.702909886837 0.679980516434 -0.067343 0.028861 0.997312
-0.407082855701 0.881674051285 0.670117437840 -0.053755 0.028458 0.998149
-0.427510052919 0.913364589214 0.668106019497 -0.053755 0.028458 0.998149
-0.469379365444 0.712367832661 0.671440124512 -0.060314 0.026454 0.997829
-0.456589102745 0.752585768700 0.671133875847 -0.060314 0.026454 0.997829
-0.488328635693 0.688562333584 0.670895338058 -0.063875 0.009424 0.997913
-0.452048182487 0.603461682796 0.674148321152 -0.063875 0.009424 0.997913
-0.501486599445 0.477770566940 0.673026084900 -0.048742 0.015556 0.998690
-0.445266902447 0.325128644705 0.678059220314 -0.048742 0.015556 0.998690
-0.488024026155 0.546446442604 0.672613203526 -0.048742 0.015556 0.998690
-0.555432736874 0.632541656494 0.642204701900 -0.634793 0.029428 0.772122
-0.446390420198 0.189389020205 0.672886252403 -0.073562 -0.053799 0.995838
-0.494206249714 0.273703306913 0.673941791058 -0.073562 -0.053799 0.995838
-0.514344692230 0.126938924193 0.664634287357 -0.066569 -0.053473 0.996348
-0.563526272774 0.185195416212 0.644229173660 -0.677534 0.001380 0.735490
-0.445709556341 0.028631187975 0.663819789886 -0.057598 -0.059771 0.996549
-0.339931607246 0.245419681072 0.682961463928 -0.062333 -0.060146 0.996241
-0.263622313738 0.098589025438 0.678429543972 -0.055424 -0.061944 0.996540
-0.222199335694 0.082781910896 0.679731905460 -0.055424 -0.061944 0.996540
-0.233785137534 0.167454823852 0.684351980686 -0.057715 -0.062071 0.996402
-0.233216762543 0.145833715796 0.683023691177 -0.057715 -0.062071 0.996402
-0.108560413122 0.141449287534 0.689821600914 -0.055544 -0.062079 0.996525
-0.014373199083 0.091370925307 0.691723883152 -0.053365 -0.064256 0.996506
-0.093022286892 0.077087774873 0.686567962170 -0.053365 -0.064256 0.996506
0.043035283685 0.034622274339 0.686466813087 0.055657 -0.064388 0.996372
0.086091473699 0.043470658362 0.684609830379 0.055657 -0.064388 0.996372
0.167758062482 -0.066673405468 0.666355788708 0.056895 -0.142818 0.988112
0.124130845070 0.152106642723 0.689366698265 0.057841 -0.062206 0.996386
0.114264383912 0.094089791179 0.686283469200 0.057841 -0.062206 0.996386
0.045635450631 0.465045332909 0.701475620270 0.057020 -0.005184 0.998360
0.067637376487 0.296959102154 0.699381887913 0.057020 -0.005184 0.998360
0.030384045094 0.380254864693 0.701945126057 0.057020 -0.005184 0.998360
-0.042076617479 0.302895098925 0.700938940048 -0.054839 -0.005173 0.998482
-0.064057007432 0.283477425575 0.699627399445 -0.054839 -0.005173 0.998482
-0.056927859783 0.624103665352 0.700968325138 -0.069839 0.001042 0.997558
-0.107256390154 0.558450877666 0.697472274303 -0.069839 0.001042 0.997558
-0.160627558827 0.359723567963 0.693858981133 -0.069839 0.001042 0.997558
-0.165924638510 0.620621323586 0.693315148354 -0.069839 0.001042 0.997558
-0.129496753216 0.573890388012 0.695899307728 -0.069839 0.001042 0.997558
-0.208222255111 0.359051913023 0.691026985645 -0.054726 0.005163 0.998488
-0.220101088285 0.489151060581 0.689734280109 -0.054726 0.005163 0.998488
-0.183303713799 0.272016316652 0.692825794220 -0.054726 0.005163 0.998488
-0.281381160021 0.442219465971 0.686512053013 -0.070130 0.005234 0.997524
-0.337530940771 0.580950379372 0.681756615639 -0.070130 0.005234 0.997524
-0.315289050341 0.529089391232 0.683621168137 -0.070130 0.005234 0.997524
-0.380500853062 0.523305356503 0.679425776005 -0.052882 0.011406 0.998536
-0.339152872562 0.289412975311 0.684083700180 -0.052882 0.011406 0.998536
-0.238480627537 0.676624119282 0.687423467636 -0.069614 0.031059 0.997090
-0.229980856180 0.739172935486 0.686120092869 -0.069614 0.031059 0.997090
-0.208819121122 0.887792885303 0.683042705059 -0.067338 0.030997 0.997249
-0.192377522588 0.881548047066 0.684339404106 -0.067338 0.030997 0.997249
-0.213254109025 0.973523378372 0.679842233658 -0.067897 0.039876 0.996895
-0.250200241804 0.974031448364 0.677339255810 -0.067897 0.039876 0.996895
0.120492585003 0.379502892494 0.696431159973 0.072214 0.001047 0.997389
0.100480437279 0.609553277493 0.697733044624 0.072214 0.001047 0.997389
0.630580902100 -0.806999802589 0.289834231138 0.234967 -0.514470 0.824688
0.566847622395 -0.848523139954 0.282024979591 0.234967 -0.514470 0.824688
0.523490190506 -0.844340503216 0.296738594770 0.219537 -0.479953 0.849381
0.692222476006 -0.733327269554 0.315585613251 0.219537 -0.479953 0.849381
0.663307428360 -0.676789820194 0.355016857386 0.219537 -0.479953 0.849381
0.484138786793 -0.745187044144 0.364262819290 0.236541 -0.486818 0.840867
0.549164474010 -0.666183948517 0.391658902168 0.236541 -0.486818 0.840867
0.531122565269 -0.730718970299 0.359476655722 0.236541 -0.486818 0.840867
0.586755216122 -0.600498974323 0.418823540211 0.216910 -0.450274 0.866143
0.439139544964 -0.584741711617 0.458968997002 0.172499 -0.418926 0.891485
0.470078557730 -0.562003612518 0.463634073734 0.172499 -0.418926 0.891485
0.486794292927 -0.480859249830 0.501152336597 0.191380 -0.458421 0.867885
0.439587175846 -0.508028090000 0.497221946716 0.191380 -0.458421 0.867885
0.344301015139 -0.494342058897 0.518420875072 0.103536 -0.477967 0.872254
0.372711330652 -0.507867157459 0.507606983185 0.103536 -0.477967 0.872254
0.375118702650 -0.428646445274 0.550489783287 0.091401 -0.468253 0.878854
0.388456642628 -0.423342555761 0.551915466785 0.091401 -0.468253 0.878854
0.218556120992 -0.434034854174 0.559681773186 0.062572 -0.374103 0.925274
0.308070063591 -0.407586276531 0.564383983612 0.062572 -0.374103 0.925274
0.203317850828 -0.365309625864 0.588722825050 0.065385 -0.374963 0.924731
0.210177481174 -0.338768601418 0.599035918713 0.065385 -0.374963 0.924731
-0.672324895859 -0.204704001546 0.482767730951 -0.899842 0.006549 0.436168
-0.686609983444 0.053109541535 0.449964821339 -0.899842 0.006549 0.436168
-0.675166904926 -0.042208630592 0.474817961454 -0.899842 0.006549 0.436168
-0.671562433243 0.012278124690 0.481450438499 -0.894671 0.006588 0.446677
-0.632201492786 0.231696426868 0.556851863861 -0.894671 0.006588 0.446677
-0.645779132843 0.085998401046 0.531944751740 -0.894671 0.006588 0.446677
-0.654607117176 0.413024693727 0.508291244507 -0.893617 0.006580 0.448783
-0.667162656784 0.888316869736 0.477543950081 -0.893617 0.006580 0.448783
-0.657686293125 0.562798559666 0.500354170799 -0.893617 0.006580 0.448783
-0.698668897152 0.490595340729 0.419370025396 -0.893617 0.006580 0.448783
-0.667346298695 0.762929916382 0.478673636913 -0.893617 0.006580 0.448783
-0.602428495884 0.740766644478 0.588518977165 -0.852849 0.012203 0.522014
-0.654939174652 0.821960270405 0.500669658184 -0.852849 0.012203 0.522014
-0.637687563896 0.906072318554 0.526846289635 -0.852849 0.012203 0.522014
-0.650570988655 0.669164419174 0.511516809464 -0.852849 0.012203 0.522014
-0.611268103123 0.715201258659 0.574681282043 -0.852849 0.012203 0.522014
-0.635297775269 1.037091016769 0.516079187393 -0.851645 0.077679 0.518331
-0.600023090839 1.221562623978 0.546354591846 -0.862718 0.092080 0.497231
-0.494614571333 1.535558104515 0.578592300415 -0.224517 0.511654 0.829338
-0.432847321033 1.602744221687 0.553963065147 -0.224517 0.511654 0.829338
-0.532631754875 1.637183547020 0.504842162132 -0.240747 0.545176 0.803009
-0.128278657794 1.857265949249 0.412416458130 -0.055666 0.629454 0.775042
-0.082693710923 1.900233864784 0.380801618099 -0.055666 0.629454 0.775042
-0.226475343108 1.819997072220 0.435520946980 -0.055666 0.629454 0.775042
-0.164899945259 1.774756908417 0.476871609688 -0.055666 0.629454 0.775042
-0.160590678453 1.795537352562 0.460276544094 -0.055666 0.629454 0.775042
-0.309264481068 1.806717634201 0.437132507563 -0.091726 0.612964 0.784768
-0.295044332743 1.776879549026 0.462071359158 -0.091726 0.612964 0.784768
-0.284729182720 1.777722120285 0.462609320879 -0.091726 0.612964 0.784768
-0.451709419489 1.882769227028 0.347786486149 -0.181903 0.612967 0.768884
-0.362712472677 1.821792960167 0.417350053787 -0.181903 0.612967 0.768884
-0.512309432030 1.870038270950 0.343122243881 -0.198454 0.601516 0.773818
-0.509932458401 1.780178070068 0.411227285862 -0.254721 0.545385 0.798544
-0.542951345444 1.770037531853 0.408021330833 -0.234836 0.576982 0.782269
-0.194082602859 1.579531311989 0.602578520775 -0.074830 0.523809 0.848543
-0.214975461364 1.629514813423 0.569898307323 -0.074830 0.523809 0.848543
-0.305959463120 1.655474543571 0.545608699322 -0.121993 0.480797 0.868304
-0.358346968889 1.557867407799 0.592183172703 -0.121993 0.480797 0.868304
-0.397850841284 1.610771179199 0.556453466415 -0.147309 0.479849 0.864896
-0.600448310375 0.523476839066 0.595584630966 -0.749912 -0.004143 0.661525
-0.618713974953 0.563375174999 0.566354334354 -0.861665 0.014880 0.507260
-0.638525366783 0.395219147205 0.538011193275 -0.861665 0.014880 0.507260
-0.597210824490 0.171791255474 0.612451553345 -0.844879 -0.001347 0.534955
-0.608068406582 -0.011763103306 0.592502832413 -0.858167 -0.009430 0.513284
-0.625299751759 0.007323296741 0.565195322037 -0.833075 -0.006795 0.553118
-0.641957700253 -0.160222873092 0.538230121136 -0.833075 -0.006795 0.553118
0.345521479845 -0.336144834757 0.589819371700 0.086922 -0.351699 0.932069
0.431508958340 -0.355905115604 0.571348845959 0.176414 -0.345771 0.921586
0.562168121338 -0.280262589455 0.574966907501 0.174708 -0.367882 0.913313
0.607058525085 1.226528644562 0.532737374306 0.864649 0.091984 0.493883
0.645130217075 1.110697031021 0.487564921379 0.864649 0.091984 0.493883
0.637793660164 1.069048166275 0.506531059742 0.852891 0.077793 0.516261
0.601543128490 1.002394676208 0.576041042805 0.848694 0.086717 0.521726
0.648354709148 0.513992607594 0.518195927143 0.854788 0.012192 0.518834
0.607089221478 0.782613396645 0.579534292221 0.854788 0.012192 0.518834
0.638598024845 0.854399025440 0.525960087776 0.854788 0.012192 0.518834
0.643035948277 0.766484916210 0.520799875259 0.854788 0.012192 0.518834
0.618913948536 0.601252555847 0.564498066902 0.854788 0.012192 0.518834
0.613483786583 0.425751954317 0.579292476177 0.863536 0.014865 0.504067
0.629333198071 0.365581393242 0.554110348225 0.863536 0.014865 0.504067
0.599501311779 0.409265220165 0.602876842022 0.864264 0.028582 0.502226
0.467880666256 -0.375593811274 0.556634068489 0.209757 -0.397512 0.893301
0.483358860016 -0.414046108723 0.535882413387 0.209757 -0.397512 0.893301
0.529292583466 -0.379988670349 0.540190517902 0.209757 -0.397512 0.893301
0.502888202667 -0.872322082520 0.285810053349 0.249660 -0.437283 0.863975
0.497839808464 -0.924233019352 0.261069774628 0.249660 -0.437283 0.863975
0.303644418716 -0.936626732349 0.285832554102 0.130231 -0.456522 0.880129
0.429823607206 -0.889536857605 0.291507065296 0.130231 -0.456522 0.880129
0.410634249449 -0.799052417278 0.347779124975 0.141885 -0.507569 0.849849
0.419949889183 -0.711667478085 0.398378759623 0.141885 -0.507569 0.849849
0.271689027548 -0.771604239941 0.382724970579 0.100841 -0.481478 0.870638
0.236683413386 -0.906736552715 0.311786741018 0.100841 -0.481478 0.870638
0.433505058289 -0.636352896690 0.435528129339 0.090069 -0.433718 0.896536
0.310659885406 -0.688784718513 0.422427833080 0.090069 -0.433718 0.896536
0.232594758272 -0.655703783035 0.446657359600 0.096162 -0.438998 0.893327
0.095965400338 -0.746169030666 0.408378243446 0.036237 -0.444234 0.895178
0.192192599177 -0.662329852581 0.446063399315 0.036237 -0.444234 0.895178
0.071462027729 -0.682441115379 0.441704541445 0.056179 -0.464503 0.883788
0.042420856655 -0.684854149818 0.442253291607 0.056179 -0.464503 0.883788
0.154194444418 -0.513167202473 0.526630461216 0.056307 -0.471053 0.880306
0.164220914245 -0.533280014992 0.515209078789 0.056307 -0.471053 0.880306
0.006308835000 -0.533058106899 0.524529576302 0.050526 -0.465658 0.883521
0.025684330612 -0.434562116861 0.569522321224 0.035820 -0.409936 0.911411
0.043929103762 -0.463887125254 0.555600464344 0.035820 -0.409936 0.911411
-0.009659713134 -0.400847375393 0.585322499275 -0.035733 -0.408947 0.911858
-0.110950991511 -0.437145620584 0.565154254436 -0.035733 -0.408947 0.911858
-0.139550164342 -0.365633934736 0.593408167362 -0.062510 -0.376390 0.924350
-0.102328047156 -0.387535333633 0.587040305138 -0.062510 -0.376390 0.924350
-0.360492289066 -0.409678131342 0.560882151127 -0.059713 -0.375527 0.924886
-0.240378499031 -0.418510526419 0.565069258213 -0.059713 -0.375527 0.924886
-0.319898635149 -0.314485877752 0.601045489311 -0.084057 -0.350904 0.932631
-0.422620087862 -0.357539594173 0.573367178440 -0.173226 -0.345043 0.922463
-0.507060408592 -0.360755264759 0.555117785931 -0.209209 -0.396472 0.893891
-0.463426709175 -0.409234225750 0.543749928474 -0.209209 -0.396472 0.893891
-0.712493300438 -0.320797413588 0.385363996029 -0.954369 0.013616 0.298318
-0.705804169178 -0.380973756313 0.409372419119 -0.954369 0.013616 0.298318
-0.720058858395 -0.383613198996 0.367024987936 -0.905831 -0.006517 0.423590
-0.703867793083 0.013032183051 0.407574057579 -0.905831 -0.006517 0.423590
-0.702652096748 -0.014005318284 0.409763544798 -0.905831 -0.006517 0.423590
-0.710848748684 0.106890216470 0.392440289259 -0.913437 -0.001292 0.406977
-0.727261126041 -0.024822413921 0.355098366737 -0.913437 -0.001292 0.406977
-0.722940981388 0.013363733888 0.364942997694 -0.913437 -0.001292 0.406977
-0.751607298851 0.095429897308 0.305390417576 -0.906763 -0.022438 0.421044
-0.745360195637 0.011304538697 0.314102917910 -0.906763 -0.022438 0.421044
-0.717706739902 1.238443493843 0.342058539391 -0.892387 0.039152 0.449569
-0.675291657448 1.251264452934 0.411213099957 -0.851798 0.095595 0.515074
-0.671747505665 1.375589847565 0.394052416086 -0.851798 0.095595 0.515074
-0.664502501488 1.215708613396 0.435607761145 -0.851798 0.095595 0.515074
-0.652578711510 1.270617604256 0.445916712284 -0.862718 0.092080 0.497231
-0.651511371136 1.399500250816 0.424024760723 -0.862718 0.092080 0.497231
-0.705162942410 1.355883359909 0.342631727457 -0.848724 0.092718 0.520645
0.273205280304 1.912236332893 0.356332778931 0.058641 0.630745 0.773771
0.127494469285 1.905535221100 0.372882157564 0.058641 0.630745 0.773771
0.204112350941 1.908825755119 0.364369899035 0.058641 0.630745 0.773771
0.042505837977 1.935031652451 0.355343014002 0.058641 0.630745 0.773771
0.107317917049 1.773967504501 0.481490015984 0.058511 0.629351 0.774915
0.071760967374 1.751478552818 0.502471804619 0.058511 0.629351 0.774915
-0.021361412480 1.916498064995 0.372069299221 -0.055666 0.629454 0.775042
-0.080064631999 1.758554935455 0.496252208948 -0.055666 0.629454 0.775042
-0.159944280982 1.719290018082 0.518611133099 -0.042974 0.525391 0.849775
-0.137274265289 1.717133045197 0.521106123924 -0.042974 0.525391 0.849775
-0.069516576827 1.638497471809 0.573939383030 -0.063412 0.536889 0.841267
-0.009681969881 1.585830807686 0.612024068832 -0.063412 0.536889 0.841267
0.459441632032 1.544875860214 0.581453502178 0.150541 0.480853 0.863781
0.373649626970 1.595488786697 0.568285405636 0.150541 0.480853 0.863781
0.352800309658 1.524123072624 0.610858976841 0.125304 0.479613 0.868488
0.296688258648 1.583567738533 0.586057424545 0.125304 0.479613 0.868488
0.218370601535 1.597278118134 0.589001119137 0.077939 0.522898 0.848824
0.282328993082 1.712394237518 0.512159168720 0.077939 0.522898 0.848824
0.170127674937 1.633754372597 0.570446670055 0.045741 0.525326 0.849670
0.052781786770 1.699518442154 0.536209225655 0.045741 0.525326 0.849670
0.025121083483 1.647063255310 0.571790933609 0.066218 0.536791 0.841113
0.007913271897 1.579821467400 0.616032898426 0.066218 0.536791 0.841113
0.329136669636 1.906671762466 0.355993330479 0.091726 0.612964 0.784768
0.295971453190 1.851297974586 0.403158336878 0.091726 0.612964 0.784768
0.299851000309 1.830171585083 0.419194251299 0.091726 0.612964 0.784768
0.367992252111 1.793966293335 0.437358677387 0.184857 0.612624 0.768453
0.414863795042 1.804596543312 0.417658776045 0.184857 0.612624 0.768453
0.372976243496 1.755671977997 0.466602861881 0.184857 0.612624 0.768453
0.375136256218 1.719040393829 0.495146334171 0.201407 0.601147 0.773342
0.492175787687 1.836865186691 0.372933328152 0.201407 0.601147 0.773342
0.524495840073 1.807011365891 0.386939406395 0.258284 0.546309 0.796766
0.483013927937 1.734334826469 0.451193332672 0.238198 0.574477 0.783095
0.506389439106 1.638872742653 0.510473728180 0.243670 0.544766 0.802405
0.427265375853 1.683397054672 0.504274845123 0.243670 0.544766 0.802405
0.530584812164 1.564937829971 0.549507081509 0.227991 0.512598 0.827807
0.534333467484 1.624029159546 0.511996328831 0.227991 0.512598 0.827807
0.653838813305 1.140579700470 0.466799288988 0.864649 0.091984 0.493883
0.659352421761 1.157641291618 0.453984260559 0.864649 0.091984 0.493883
0.637418448925 1.336030125618 0.459382206202 0.864649 0.091984 0.493883
0.677114903927 1.269780158997 0.403525710106 0.853050 0.095736 0.512973
0.691139280796 1.266260385513 0.380892157555 0.853050 0.095736 0.512973
0.671380639076 1.079506158829 0.447161495686 0.894013 0.039105 0.446332
0.727969586849 0.883434295654 0.342795014381 0.913018 0.014327 0.407667
0.706384599209 0.888182759285 0.390977203846 0.913018 0.014327 0.407667
0.698147237301 0.908109009266 0.408781468868 0.913018 0.014327 0.407667
0.704165995121 0.898126065731 0.395625114441 0.913018 0.014327 0.407667
0.722228586674 0.387520462275 0.371617287397 0.913018 0.014327 0.407667
0.707282841206 0.634210884571 0.397142589092 0.913018 0.014327 0.407667
0.677737414837 0.924424111843 0.453959614038 0.913018 0.014327 0.407667
0.725299179554 0.497887969017 0.361187756062 0.913018 0.014327 0.407667
0.704344868660 0.394895911217 0.407978028059 0.895195 0.006573 0.445626
0.662772893906 0.734275281429 0.487457692623 0.895195 0.006573 0.445626
0.699943840504 0.481402397156 0.415785431862 0.895195 0.006573 0.445626
0.664403140545 0.493933349848 0.487064242363 0.895195 0.006573 0.445626
0.680533170700 0.583313524723 0.453574270010 0.895195 0.006573 0.445626
0.707814574242 0.388869196177 0.401076912880 0.895195 0.006573 0.445626
0.645096421242 0.053907871246 0.533407509327 0.896243 0.006580 0.443515
0.665154695511 0.039473257959 0.493194431067 0.896243 0.006580 0.443515
0.656671166420 0.191805809736 0.507887125015 0.896243 0.006580 0.443515
0.642804026604 -0.056778654456 0.537379562855 0.835152 -0.006790 0.549978
0.647860050201 -0.141402006149 0.528784215450 0.835152 -0.006790 0.549978
0.616051912308 -0.039829485118 0.578248023987 0.859353 -0.009443 0.511295
0.623345315456 0.226340889931 0.570756494999 0.846861 -0.001346 0.531813
0.684108316898 -0.380599170923 0.459827572107 0.901361 0.006541 0.433019
0.686606943607 -0.201264992356 0.452325880527 0.901361 0.006541 0.433019
0.681807339191 0.115331977606 0.458227783442 0.901361 0.006541 0.433019
0.694803655148 -0.147895395756 0.433653920889 0.955289 0.013594 0.295361
0.719675660133 -0.462897390127 0.367449045181 0.955289 0.013594 0.295361
0.703341662884 -0.413879454136 0.417917281389 0.955289 0.013594 0.295361
0.704846978188 -0.146071240306 0.401895850897 0.906829 -0.006524 0.421447
0.717612564564 -0.186485812068 0.373839557171 0.906829 -0.006524 0.421447
0.717362046242 -0.125714659691 0.375297784805 0.906829 -0.006524 0.421447
0.752186000347 -0.420814067125 0.290697097778 0.937611 -0.026862 0.346647
0.765668332577 -0.449277997017 0.260643690825 0.860179 -0.020383 0.509585
0.777328193188 -0.260209739208 0.239031717181 0.944548 0.024025 0.327494
0.764209270477 -0.037761732936 0.268773764372 0.908232 -0.022409 0.417866
0.735768973827 0.099752157927 0.338062077761 0.907230 -0.022384 0.420038
0.253909111023 -0.966828167439 0.275828957558 0.116010 -0.485522 0.866493
0.324837446213 -1.000640273094 0.247390002012 0.116010 -0.485522 0.866493
0.225176393986 -1.045584678650 0.233708515763 0.036939 -0.493884 0.868743
0.224220737815 -1.060925722122 0.225057572126 0.036939 -0.493884 0.868743
0.040699660778 -1.016451239586 0.259125411510 0.051226 -0.508108 0.859769
0.018160670996 -1.001016020775 0.269580662251 0.051226 -0.508108 0.859769
0.217316195369 -0.774777233601 0.386903643608 0.050916 -0.488514 0.871069
0.155922412872 -0.883840978146 0.329329371452 0.050916 -0.488514 0.871069
0.080324366689 -0.863851845264 0.344924628735 0.050916 -0.488514 0.871069
0.066657707095 -0.848628222942 0.353901773691 0.039556 -0.478764 0.877052
0.024819821119 -0.849102914333 0.355535417795 0.039556 -0.478764 0.877052
-0.029710441828 -0.794321894646 0.385305434465 -0.036696 -0.479767 0.876628
-0.039266906679 -0.850289881229 0.354325979948 -0.036696 -0.479767 0.876628
-0.203652560711 -0.758004724979 0.397600144148 -0.048170 -0.488581 0.871188
-0.219517439604 -0.814471781254 0.365069359541 -0.048170 -0.488581 0.871188
-0.305100500584 -0.765519440174 0.382929772139 -0.100703 -0.483656 0.869446
-0.281466603279 -0.862353265285 0.331881433725 -0.100703 -0.483656 0.869446
-0.410916268826 -0.833806157112 0.328018277884 -0.139017 -0.507777 0.850198
-0.350763678551 -0.824786901474 0.343247741461 -0.139017 -0.507777 0.850198
-0.296873182058 -0.906550645828 0.303297460079 -0.139017 -0.507777 0.850198
-0.560197353363 -0.690800368786 0.375737100840 -0.233058 -0.485918 0.842359
-0.487003982067 -0.717152535915 0.380804687738 -0.233058 -0.485918 0.842359
-0.503397107124 -0.769407331944 0.346147537231 -0.233058 -0.485918 0.842359
-0.509042680264 -0.822520017624 0.314086794853 -0.218974 -0.478721 0.850221
-0.639293253422 -0.725149631500 0.335543096066 -0.218974 -0.478721 0.850221
-0.577187716961 -0.798657059669 0.310033619404 -0.218974 -0.478721 0.850221
-0.754190802574 -0.316359341145 0.294944971800 -0.936463 -0.026903 0.349733
-0.745998859406 -0.258722990751 0.312365949154 -0.898824 -0.003925 0.438291
-0.760811924934 -0.089777030051 0.276674509048 -0.943486 0.024062 0.330537
0.694241702557 1.407796144485 0.349752932787 0.848724 0.092718 0.520645
0.743814826012 0.444459944963 0.323004543781 0.874622 0.009347 0.484714
0.740371048450 0.431265294552 0.329955458641 0.911608 0.014346 0.410810
0.753881633282 0.508631825447 0.298909723759 0.931498 0.003802 0.363728
0.760137259960 0.498543024063 0.284067094326 0.911608 0.014346 0.410810
-0.771146774292 -0.295208245516 0.260012626648 -0.858273 -0.020403 0.512788
-0.597723186016 -0.842810273170 0.278347283602 -0.232062 -0.514840 0.825280
-0.545215547085 -0.939067542553 0.241365104914 -0.246174 -0.436469 0.865386
-0.520094692707 -0.936763942242 0.249689400196 -0.246174 -0.436469 0.865386
-0.482395946980 -0.913545012474 0.272145956755 -0.246174 -0.436469 0.865386
-0.274651944637 -0.918882548809 0.300028294325 -0.127415 -0.456691 0.880454
-0.457092344761 -0.910194933414 0.277913361788 -0.127415 -0.456691 0.880454
-0.420846551657 -1.004021048546 0.233812242746 -0.113025 -0.487867 0.865570
-0.296439439058 -0.970569729805 0.268830657005 -0.113025 -0.487867 0.865570
-0.189912930131 -0.985873281956 0.269574671984 -0.036851 -0.492712 0.869412
-0.241863772273 -1.011346340179 0.252993881702 -0.036851 -0.492712 0.869412
-0.212780311704 -0.929949760437 0.300503224134 -0.048464 -0.508178 0.859887
-0.035011962056 -1.004503130913 0.266611605883 -0.048464 -0.508178 0.859887
-0.585711956024 -0.540461122990 0.451550573111 -0.213502 -0.449398 0.867443
-0.564760148525 -0.553099572659 0.450164288282 -0.213502 -0.449398 0.867443
-0.432818114758 -0.590196907520 0.458650887012 -0.172054 -0.417845 0.892078
-0.596221566200 -0.491240471601 0.473766505718 -0.172054 -0.417845 0.892078
-0.391805827618 -0.664498507977 0.427049160004 -0.087103 -0.432749 0.897297
-0.341354370117 -0.660662293434 0.433776348829 -0.087103 -0.432749 0.897297
-0.283218115568 -0.605717539787 0.466455787420 -0.093167 -0.438023 0.894123
-0.063049659133 -0.731673896313 0.416976690292 -0.033475 -0.443210 0.895793
-0.175357565284 -0.730792164803 0.413311481476 -0.033475 -0.443210 0.895793
-0.044747278094 -0.682241320610 0.443574070930 -0.053446 -0.464572 0.883921
-0.126942455769 -0.560761094093 0.503154993057 -0.053568 -0.471124 0.880439
-0.153049856424 -0.592485547066 0.484549939632 -0.053568 -0.471124 0.880439
-0.249661386013 -0.495094835758 0.528841018677 -0.088392 -0.467216 0.879713
-0.273533701897 -0.507700979710 0.519699275494 -0.088392 -0.467216 0.879713
-0.250590324402 -0.596072435379 0.474607139826 -0.103536 -0.477967 0.872254
-0.444176495075 -0.518335402012 0.491778820753 -0.188034 -0.457500 0.869101
-0.403256148100 -0.435732543468 0.544314026833 -0.188034 -0.457500 0.869101
-0.002202212811 -0.520735383034 0.531226456165 -0.047801 -0.465721 0.883640
-0.103896059096 -0.533388316631 0.519069373608 -0.047801 -0.465721 0.883640
0.718666672707 0.087526716292 0.373482197523 0.913864 -0.001289 0.406019
0.738717079163 -0.245555490255 0.326797366142 0.913864 -0.001289 0.406019
0.745995342731 -0.061423610896 0.311835289001 0.900351 -0.003920 0.435148
-0.731100440025 0.874973297119 0.337661832571 -0.911608 0.014346 0.410810
-0.714876472950 0.918210446835 0.372361987829 -0.911608 0.014346 0.410810
-0.713708341122 0.805218279362 0.378577202559 -0.911608 0.014346 0.410810
-0.706530392170 0.704534292221 0.397765427828 -0.911608 0.014346 0.410810
-0.722874641418 0.429461419582 0.370219886303 -0.911608 0.014346 0.410810
-0.690631449223 0.884812533855 0.427355498075 -0.911608 0.014346 0.410810
-0.737025141716 0.346697151661 0.341731339693 -0.910183 0.014364 0.413957
-0.736448824406 0.598654866219 0.335216075182 -0.872855 0.009357 0.487890
-0.743068873882 0.950021088123 0.312721699476 -0.848460 0.023227 0.528750
-0.749959886074 0.486267268658 0.310889363289 -0.930297 0.003807 0.366788
-0.598356425762 0.401817172766 0.605421006680 -0.862386 0.028610 0.505443
-0.454309284687 1.998134016991 0.238295421004 -0.198040 0.958300 0.206014
-0.487106859684 1.997369647026 0.206087812781 -0.198887 0.971634 0.127947
-0.655925214291 1.951013922691 0.120002724230 -0.512508 0.848340 -0.132872
-0.557771921158 1.983417749405 0.198180839419 -0.255354 0.965363 0.053562
-0.761065363884 1.802048683167 0.144948706031 -0.893109 0.260057 0.367051
-0.764475584030 1.756268501282 0.178252100945 -0.921492 0.280329 0.268828
0.495285749435 1.985330820084 0.252610504627 0.301927 0.830691 0.467753
0.720282673836 1.804538249969 0.255956500769 0.696589 0.411997 0.587385
0.754986643791 1.761437892914 0.202548220754 0.921492 0.280329 0.268828
0.579851031303 1.950273513794 0.257343858480 0.531157 0.750157 0.393873
-0.639941990376 1.963470935822 0.137858569622 -0.512508 0.848340 -0.132872
-0.546812772751 1.892658472061 0.269094735384 -0.031557 0.181161 -0.982947
-0.458196371794 1.918868303299 0.263094484806 -0.106560 0.132901 -0.985384
-0.491321206093 1.822390556335 0.253591030836 -0.106560 0.132901 -0.985384
-0.439917147160 1.732359290123 0.235797554255 -0.106560 0.132901 -0.985384
-0.421651631594 1.837600469589 0.215859204531 -0.905361 -0.006532 -0.424592
-0.440041065216 1.974657535553 0.217279762030 0.991465 -0.001096 0.130369
-0.546421587467 1.829393506050 0.142376556993 -0.659767 -0.098451 0.744993
-0.511810243130 1.904222130775 0.159743785858 -0.015648 0.055290 0.998348
-0.589932858944 1.854125857353 0.263419091702 -0.031557 0.181161 -0.982947
-0.463864356279 1.906259298325 0.243537977338 0.383066 -0.003843 0.923713
-0.489829152822 1.868676424026 0.177630543709 -0.383066 0.003843 -0.923713
-0.495430380106 1.814654111862 0.180698931217 -0.610700 0.004117 -0.791851
-0.550150930882 1.758317112923 0.174932450056 0.001377 0.758770 0.651358
-0.597879230976 1.793198347092 0.134390220046 0.001377 0.758770 0.651358
-0.589950025082 1.809715867043 0.148584529757 0.923189 0.001277 -0.384343
-0.532147765160 1.739996910095 0.240100756288 -0.001208 0.271689 -0.962384
-0.618905901909 1.815562248230 0.181541651487 -0.979871 0.154068 -0.126952
-0.738350629807 1.745821356773 0.177632808685 -0.179677 0.853839 0.488544
-0.709982872009 1.835390925407 0.125744253397 -0.610700 0.004117 -0.791851
-0.661855399609 1.799027681351 0.144442871213 0.129160 0.148842 0.980389
-0.696951508522 1.816911578178 0.180653735995 0.973627 0.187672 -0.129733
-0.731755435467 1.768215179443 0.198084518313 -0.991141 -0.001098 0.132811
-0.551879465580 1.791404962540 0.250532180071 -0.029197 0.185691 -0.982174
-0.495031177998 1.782763838768 0.247116088867 -0.031557 0.181161 -0.982947
-0.633402884007 1.776374101639 0.157755345106 -0.783778 0.141827 0.604629
0.420332223177 1.844485163689 0.212292402983 0.904355 -0.006525 -0.426730
0.427324265242 1.979988574982 0.224764049053 0.904355 -0.006525 -0.426730
0.519832313061 1.964361429214 0.154938384891 0.017771 0.055403 0.998306
0.509710371494 1.852444052696 0.211704492569 0.991465 -0.001096 0.130369
0.466478675604 1.963048934937 0.174304485321 -0.131223 0.005514 -0.991338
0.445536792278 1.960750699043 0.188609987497 -0.794195 0.004115 -0.607649
0.455966740847 1.763494014740 0.240623161197 0.103947 0.132622 -0.985701
0.503541946411 1.936425805092 0.269125461578 0.103947 0.132622 -0.985701
0.596204638481 1.918697118759 0.274024665356 0.029155 0.180759 -0.983095
-0.666931211948 -1.917817234993 -0.340721309185 -0.392363 -0.003859 0.919802
-0.697753787041 -1.890703201294 -0.402282565832 -0.989771 0.001106 -0.142660
0.637665092945 -1.908193469048 -0.335822373629 -0.116398 -0.005439 0.993188
0.697008132935 -1.922430872917 -0.392288953066 0.993261 -0.001083 0.115898
0.581101894379 -1.922379851341 -0.387563765049 -0.989410 -0.001108 0.145143
0.629876613617 -1.807462334633 -0.039099972695 -0.383066 0.003843 -0.923713
0.505264401436 -1.894076347351 -0.062648080289 0.991465 -0.001096 0.130369
0.599513173103 1.863473057747 0.104642152786 -0.024000 -0.046957 0.998609
0.530659198761 1.858668327332 0.158589899540 0.661422 -0.098260 0.743550
0.600072085857 1.799320459366 0.125746980309 0.001377 0.758770 0.651358
0.609515070915 1.813291072845 0.121259145439 -0.610700 0.004117 -0.791851
0.732112169266 1.803170919418 0.191799670458 0.991465 -0.001096 0.130369
0.711341142654 1.837646126747 0.154336422682 0.000981 0.999987 0.004907
0.716927170753 1.804473400116 0.116555854678 -0.044915 0.461401 0.886054
0.731543779373 1.773443102837 0.161899372935 0.991141 0.001098 -0.132811
0.600941896439 1.837575674057 0.168905109167 0.000981 0.999987 0.004907
0.585757970810 1.779204010963 0.201664716005 -0.923189 -0.001277 0.384343
0.576370179653 1.745651602745 0.188249409199 0.001377 0.758770 0.651358
0.552278041840 1.749288678169 0.184046164155 0.001377 0.758770 0.651358
0.593695044518 1.761416196823 0.244599491358 0.026801 0.185278 -0.982321
0.527236342430 1.779423236847 0.246206671000 0.026801 0.185278 -0.982321
0.508390128613 1.784237504005 0.246546909213 0.029155 0.180759 -0.983095
0.693533182144 1.804087758064 0.183964684606 -0.974071 0.187273 -0.126943
0.668752968311 1.764085769653 0.150262773037 -0.376925 0.153876 0.913373
0.622354149818 1.811599612236 0.193331390619 0.911615 0.160206 -0.378540
0.467276722193 1.939581632614 0.194427549839 0.381260 0.108735 0.918051
0.492110908031 1.799915790558 0.174585327506 0.589281 0.075990 0.804347
-0.657047390938 -1.899854063988 -0.348317921162 0.392363 0.003859 -0.919802
-0.617016553879 -1.899056673050 -0.433625102043 -0.392363 -0.003859 0.919802
-0.687263965607 -1.922437429428 -0.386794418097 0.992979 0.001085 -0.118289
0.684932589531 -1.925437688828 -0.404132097960 -0.989410 -0.001108 0.145143
0.043159078807 -2.092778205872 -0.403550177813 0.000983 -0.004916 0.999987
-0.741672515869 1.824437379837 0.186878591776 -0.954741 0.244360 0.169583
0.673178613186 1.938291549683 0.176064923406 0.737165 0.655089 0.165672
0.536078572273 -1.037374138832 0.233108118176 -0.114462 0.277604 0.953852
0.407658636570 -1.078433156013 0.239251971245 -0.042312 0.324394 0.944975
0.350039541721 -1.075688481331 0.235375180840 -0.070767 0.372531 0.925318
-0.744331538677 -0.575479269028 0.320414215326 -0.863918 0.034228 0.502469
0.097148656845 -1.119988083839 0.243721842766 -0.021696 0.345861 0.938035
-0.014142449945 -1.098236203194 0.233772978187 0.024247 0.345840 0.937980
-0.119619183242 -1.081008553505 0.228742405772 0.011552 0.378658 0.925465
-0.382196336985 -1.056101918221 0.230876430869 0.070767 0.372531 0.925318
-0.553398013115 -1.017254114151 0.230692118406 0.117058 0.277519 0.953562
-0.646933019161 -0.939499020576 0.222174182534 0.074558 0.150300 0.985825
-0.619054555893 0.343169897795 -0.503445208073 -0.000991 0.012883 -0.999917
0.475692331791 0.428216069937 -0.503751099110 -0.000991 0.012883 -0.999917
-0.149863600731 0.557402431965 -0.501318454742 -0.000991 0.012883 -0.999917
0.198730856180 0.483767867088 -0.502694964409 -0.000991 0.012883 -0.999917
-0.346298366785 0.648788988590 -0.499909073114 -0.000991 0.012883 -0.999917
0.584892749786 0.415051817894 -0.504056572914 -0.000991 0.012883 -0.999917
-0.589215278625 0.580588936806 -0.500467658043 -0.000991 0.012883 -0.999917
-0.487140953541 0.435343503952 -0.502441585064 -0.000991 0.012883 -0.999917
-0.850023388863 0.751125395298 -0.497971594334 -0.000991 0.012883 -0.999917
-0.234017029405 0.498336076736 -0.501962006092 -0.000991 0.012883 -0.999917
-0.508397102356 0.488059639931 -0.501745164394 -0.000991 0.012883 -0.999917
-0.618973374367 0.341903358698 -0.503461360931 -0.000991 0.012883 -0.999917
-0.429246604443 0.624574422836 -0.500111579895 -0.000991 0.012883 -0.999917
-0.179563149810 0.358320951462 -0.503809213638 -0.000991 0.012883 -0.999917
0.493422806263 0.378724157810 -0.504402160645 -0.000991 0.012883 -0.999917
-0.106675460935 0.575584411621 -0.501142203808 -0.000991 0.012883 -0.999917
-0.635084390640 0.448673188686 -0.502084970474 -0.000991 0.012883 -0.999917
-0.705857813358 0.430932909250 -0.502220690250 -0.000991 0.012883 -0.999917
-0.598932743073 0.681343138218 -0.499175786972 -0.000991 0.012883 -0.999917
-0.326105624437 0.598017275333 -0.500579476357 -0.000991 0.012883 -0.999917
-0.321894288063 0.520124197006 -0.501574039459 -0.000991 0.012883 -0.999917
-0.739210247993 0.612828969955 -0.499868303537 -0.000991 0.012883 -0.999917
-0.707977652550 0.602181434631 -0.500043094158 -0.000991 0.012883 -0.999917
0.484529197216 0.411769866943 -0.503971219063 -0.000991 0.012883 -0.999917
-0.567360281944 0.396959006786 -0.502827525139 -0.000991 0.012883 -0.999917
-0.273642957211 0.336511880159 -0.503967046738 -0.000991 0.012883 -0.999917
-0.845069289207 0.720719337463 -0.498364031315 -0.000991 0.012883 -0.999917
-0.540085315704 0.337901562452 -0.503612101078 -0.000991 0.012883 -0.999917
-0.813734710217 0.686225533485 -0.498841822147 -0.000991 0.012883 -0.999917
-0.801134943962 0.489422947168 -0.501357197762 -0.000991 0.012883 -0.999917
-0.822920382023 0.820468306541 -0.497125267982 -0.000991 0.012883 -0.999917
-0.195153117180 0.560843050480 -0.501217365265 -0.000991 0.012883 -0.999917
-0.221160128713 0.619897782803 -0.500434458256 -0.000991 0.012883 -0.999917
-0.138532117009 0.370573967695 -0.503705561161 -0.000991 0.012883 -0.999917
-0.052683316171 0.465527474880 -0.502608299255 -0.000991 0.012883 -0.999917
-0.077645845711 0.428333342075 -0.503049015999 -0.000991 0.012883 -0.999917
-0.442320525646 0.601639211178 -0.500386357307 -0.000991 0.012883 -0.999917
-0.767088592052 0.800748109818 -0.497446388006 -0.000991 0.012883 -0.999917
