-0.721909046173 0.875545203686 0.042106717825 0.990033 0.016780 -0.139835
-0.731892228127 0.890165984631 -0.026950478554 0.990033 0.016780 -0.139835
-0.730954468250 0.920211553574 -0.016663925722 0.990033 0.016780 -0.139835
-0.739748954773 0.963665306568 -0.082611560822 0.993065 0.009854 -0.117153
-0.735047101974 0.906530499458 -0.292926788330 0.999753 0.007033 0.021100
-0.739588856697 0.927204310894 -0.093381196260 0.999753 0.007033 0.021100
-0.738466620445 0.985121607780 -0.161954924464 0.999753 0.007033 0.021100
-0.731940150261 0.821570515633 -0.298626452684 0.998304 0.039004 0.043221
-0.716409504414 0.791336357594 -0.416146874428 0.988671 0.054348 0.139917
-0.721513390541 1.097118616104 0.250779777765 0.634377 -0.035165 0.772224
-0.736424684525 0.860665321350 0.244599029422 -0.007144 -0.039804 0.999182
-0.737971544266 0.499962329865 0.229753300548 -0.001016 -0.041673 0.999131
-0.731525659561 0.149045780301 0.215037912130 -0.001016 -0.041673 0.999131
-0.739450156689 -0.071009889245 0.205843642354 0.023907 -0.040538 0.998892
-0.733157396317 -0.327145874500 0.195145830512 0.023907 -0.040538 0.998892
-0.746510684490 -0.547572076321 0.186182036996 0.001016 -0.041673 0.999131
0.747597098351 -0.604326665401 0.183790087700 0.001016 -0.041673 0.999131
0.752857565880 0.229996681213 0.218507766724 -0.023907 -0.040538 0.998892
0.750996887684 0.388479232788 0.225080415606 0.007158 -0.041927 0.999095
0.742415964603 1.052852630615 0.252296894789 0.001014 -0.039563 0.999217
0.723470509052 0.862890422344 0.241661503911 -0.632691 -0.035228 0.773602
0.728569388390 0.031186543405 0.207576662302 -0.622081 -0.035106 0.782165
0.709675014019 -0.003027707338 0.175204500556 -0.976783 -0.008189 0.214073
0.707667768002 0.401370495558 0.182675749063 -0.979315 -0.012840 0.201933
0.707144141197 0.683276236057 0.199423611164 -0.979868 -0.012816 0.199236
0.702750205994 1.055937170982 0.202718526125 -0.979960 -0.012787 0.198782
0.708308756351 1.054862976074 0.230481088161 -0.980945 -0.012770 0.193867
0.707613945007 0.996925950050 0.169807732105 -0.988229 0.001117 -0.152980
0.706167995930 0.957538127899 0.178616791964 -0.988229 0.001117 -0.152980
0.715714573860 0.770194828510 0.075499691069 -0.994848 0.011908 -0.100676
0.711848378181 0.943319439888 0.133999690413 -0.994848 0.011908 -0.100676
0.722364783287 0.940516352654 0.046912226826 -0.990340 0.016785 -0.137640
0.722094893456 1.024226903915 0.059311594814 -0.990340 0.016785 -0.137640
0.722168922424 0.765196919441 0.026916816831 -0.990033 0.016780 -0.139835
0.730528295040 1.059340000153 0.003186759539 -0.990033 0.016780 -0.139835
0.730943739414 0.791606247425 -0.032141935080 -0.990033 0.016780 -0.139835
0.739235401154 1.009717106819 -0.074355721474 -0.993065 0.009854 -0.117153
0.736919879913 0.893102765083 -0.203933730721 -0.999753 0.007033 0.021100
0.738514602184 0.881279051304 -0.128034129739 -0.999753 0.007033 0.021100
0.736423432827 0.872227549553 -0.220054239035 -0.999753 0.007033 0.021100
0.734055221081 0.850339174271 -0.275608509779 -0.998304 0.039004 0.043221
0.736329972744 0.815461397171 -0.189601182938 -0.998304 0.039004 0.043221
0.727140486240 0.826625525951 -0.351621925831 -0.991663 0.039396 0.122692
0.731869399548 0.580689430237 -0.322760671377 -0.989903 -0.019101 0.140452
0.731015324593 0.534535527229 -0.335204899311 -0.989903 -0.019101 0.140452
0.727437257767 0.334620833397 -0.396615982056 -0.992058 -0.023382 0.123590
0.726835012436 0.437609046698 -0.382116079330 -0.992058 -0.023382 0.123590
0.727416396141 0.236156076193 -0.396492868662 -0.991959 0.007690 0.126329
0.723154067993 0.077672541142 -0.419753730297 -0.991959 0.007690 0.126329
0.731933772564 -0.043824747205 -0.348665803671 -0.990023 0.005543 0.140798
0.736074209213 0.157528072596 -0.326216280460 -0.990023 0.005543 0.140798
0.725965917110 -0.159671485424 -0.386948734522 -0.990023 0.005543 0.140798
0.731483697891 -0.160210385919 -0.347855567932 -0.990023 0.005543 0.140798
0.730203330517 -0.460217237473 -0.352107554674 -0.987081 0.001120 0.160219
0.726114034653 -0.480047345161 -0.377277702093 -0.987081 0.001120 0.160219
0.729670226574 -0.703983783722 -0.353077590466 -0.986950 0.005627 0.160928
0.717898011208 -0.874835848808 -0.411098897457 -0.983446 0.014953 0.180586
0.734688520432 -0.714226961136 -0.296779453754 -0.997645 0.007343 0.068188
0.732766985893 -0.725109100342 -0.323631018400 -0.997645 0.007343 0.068188
0.743412256241 -0.358121395111 -0.169135689735 -0.997701 -0.001043 0.067764
0.746094286442 -0.571707963943 -0.133001476526 -0.997701 -0.001043 0.067764
0.736405432224 -0.563577830791 -0.274639517069 -0.997701 -0.001043 0.067764
0.738577783108 -0.516473174095 -0.242169946432 -0.997701 -0.001043 0.067764
0.737515091896 -0.536210358143 -0.258005112410 -0.997701 -0.001043 0.067764
0.739286065102 -0.521817088127 -0.231884822249 -0.997701 -0.001043 0.067764
0.736504077911 -0.393924772739 -0.279573529959 -0.998375 0.003104 0.056902
0.736167311668 -0.495274841785 -0.279272109270 -0.998375 0.003104 0.056902
0.735332429409 -0.529722213745 -0.291589975357 -0.998375 0.003104 0.056902
0.741973817348 -0.211381524801 -0.196273967624 -0.998375 0.003104 0.056902
0.736669063568 -0.494068861008 -0.270693182945 -0.998375 0.003104 0.056902
0.736827909946 -0.083378925920 -0.285470247269 -0.998375 -0.003104 0.056902
0.745866656303 0.220245659351 -0.107436046004 -0.998375 -0.003104 0.056902
0.739918589592 0.010131333023 -0.225313231349 -0.998375 -0.003104 0.056902
0.743406295776 0.078942589462 -0.159991130233 -0.998375 -0.003104 0.056902
0.739395618439 0.238480120897 -0.264251172543 -0.999264 0.007130 0.037689
0.736305236816 -0.071167886257 -0.294995576143 -0.999264 0.007130 0.037689
0.735694646835 -0.017001092434 -0.319824963808 -0.999264 0.007130 0.037689
0.741169333458 0.135586932302 -0.200980961323 -0.999264 0.007130 0.037689
0.740985095501 0.186922341585 -0.214161425829 -0.999264 0.007130 0.037689
0.737690031528 0.459039032459 -0.241097182035 -0.999080 -0.019590 0.038149
0.744780600071 0.326812684536 -0.120023712516 -0.999080 -0.019590 0.038149
0.736322402954 0.525377452374 -0.243166789412 -0.999080 -0.019590 0.038149
0.737155020237 0.348710536957 -0.312934577465 -0.999080 -0.019590 0.038149
0.737936794758 0.491149634123 -0.217749297619 -0.999080 -0.019590 0.038149
0.732996940613 0.602638185024 -0.292003452778 -0.999080 -0.019590 0.038149
0.733843624592 0.764594018459 -0.201089978218 -0.998948 -0.017562 0.042355
0.738260507584 0.716375827789 -0.116397187114 -0.998948 -0.017562 0.042355
0.741371750832 0.501390695572 -0.129136353731 -0.998948 -0.017562 0.042355
0.736633121967 0.586735486984 -0.206555113196 -0.998948 -0.017562 0.042355
0.743154704571 0.452010542154 -0.106913618743 -0.998948 -0.017562 0.042355
0.734378576279 0.565304160118 -0.046242006123 -0.987042 -0.014732 -0.159785
0.735945463181 0.358557373285 -0.038130834699 -0.987042 -0.014732 -0.159785
0.729474127293 0.399002313614 -0.001427404583 -0.987042 -0.014732 -0.159785
0.738775432110 0.425833851099 -0.061514504254 -0.987042 -0.014732 -0.159785
0.721598625183 0.545028150082 0.042874567211 -0.990272 -0.007780 -0.138927
0.719924688339 0.749497473240 0.043626323342 -0.990272 -0.007780 -0.138927
0.721746623516 0.661212861538 0.035503540188 -0.990272 -0.007780 -0.138927
0.722038209438 0.712448179722 0.030647218227 -0.990272 -0.007780 -0.138927
0.713964521885 0.339653700590 0.113616414368 -0.991923 -0.007706 -0.126605
0.713884651661 0.418991774321 0.109264448285 -0.991923 -0.007706 -0.126605
0.706849753857 0.492979764938 0.167819947004 -0.994789 -0.001073 -0.101947
0.706981182098 0.357170760632 0.169330060482 -0.994789 -0.001073 -0.101947
0.710437059402 0.559070825577 0.131110876799 -0.994789 -0.001073 -0.101947
0.718855261803 0.119037032127 0.077624320984 -0.992057 0.001094 -0.125785
0.719407141209 -0.023424714804 0.073146358132 -0.992057 0.001094 -0.125785
0.720861673355 0.056449890137 0.061848789454 -0.992057 0.001094 -0.125785
0.732729732990 0.083477236331 -0.018799496815 -0.988665 0.001112 -0.150135
0.727140605450 0.184375047684 0.018777819350 -0.988665 0.001112 -0.150135
0.743348956108 -0.134639114141 -0.090327978134 -0.988665 0.001112 -0.150135
0.740520954132 -0.138682439923 -0.071590527892 -0.988665 0.001112 -0.150135
0.746098101139 -0.004934519529 -0.104903027415 -0.987362 0.005616 -0.158382
0.727548658848 0.269786447287 0.018203370273 -0.987362 0.005616 -0.158382
0.739300668240 0.205986887217 -0.056637197733 -0.987362 0.005616 -0.158382
0.745769321918 -0.271294981241 -0.110156774521 -0.988929 0.005575 -0.148284
0.746037662029 -0.528998136520 -0.119689881802 -0.988929 0.005575 -0.148284
0.740006923676 -0.387539565563 -0.075394473970 -0.988929 0.005575 -0.148284
0.734050273895 -0.261995941401 -0.032068904489 -0.988929 0.005575 -0.148284
0.725728213787 -0.487529277802 0.024811113253 -0.990809 -0.001100 -0.135260
0.728260099888 -0.420938551426 0.006268413272 -0.990809 -0.001100 -0.135260
0.739396691322 -0.668682754040 -0.075217381120 -0.990809 -0.001100 -0.135260
0.728962481022 -0.637902975082 0.001157145947 -0.990809 -0.001100 -0.135260
0.744530200958 -0.714447200298 -0.114664606750 -0.990658 0.007748 -0.136146
0.744829714298 -0.768259882927 -0.119698323309 -0.990658 0.007748 -0.136146
0.743419170380 -0.840817034245 -0.162513628602 -0.997384 0.003140 0.072214
0.740498602390 -0.886834084988 -0.200723201036 -0.997384 0.003140 0.072214
0.745423972607 -0.747486591339 -0.139739841223 -0.997384 0.003140 0.072214
0.732861101627 -0.891853392124 -0.038405776024 -0.990658 0.007748 -0.136146
0.724951565266 -0.888349354267 0.019815070555 -0.990658 0.007748 -0.136146
0.723232388496 -0.737797617912 0.037912316620 -0.986876 0.007895 -0.161284
0.724742054939 -0.686233580112 0.031198099256 -0.986876 0.007895 -0.161284
0.711773037910 -0.529661118984 0.113311223686 -0.986960 0.003376 -0.160930
0.720314323902 -0.601420879364 0.059859279543 -0.986960 0.003376 -0.160930
0.719078779221 -0.611261248589 0.067220084369 -0.986960 0.003376 -0.160930
0.718180179596 -0.349267482758 0.075414523482 -0.988615 0.001115 -0.150466
0.718849122524 -0.364974349737 0.070999793708 -0.988615 0.001115 -0.150466
0.723418593407 -0.219746589661 0.041590653360 -0.988615 0.001115 -0.150466
0.717286884785 0.004631122574 0.089456051588 -0.988483 0.007836 -0.151127
0.713082075119 0.097179196775 0.121371299028 -0.988483 0.007836 -0.151127
0.710292100906 0.057761058211 0.137723013759 -0.988483 0.007836 -0.151127
0.708721041679 -0.275688350201 0.158262878656 -0.977010 -0.012933 0.212802
0.709762871265 -0.553105711937 0.147518560290 -0.983189 -0.008031 0.182412
0.709680020809 -0.752036988735 0.138940766454 -0.983281 -0.005723 0.182004
0.708321392536 -0.768914520741 0.126401111484 -0.985877 0.010234 -0.167156
0.719357967377 -0.678652763367 0.170594617724 -0.579562 -0.034913 0.814180
0.526584446430 0.880817770958 0.679680466652 -0.281795 -0.081064 -0.956044
0.543931186199 0.476029813290 0.686265170574 -0.276796 0.001209 -0.960928
0.534595072269 0.490862429142 0.688955485821 -0.265966 0.003610 -0.963976
0.566169619560 0.297001242638 0.666368901730 -0.655442 0.006929 -0.755214
0.554649174213 0.429473102093 0.677884638309 -0.635584 0.015299 -0.771880
0.573914051056 0.590059638023 0.662182033062 -0.615571 -0.018064 -0.787875
0.570297598839 0.947057008743 0.641895771027 -0.775924 -0.032272 -0.630000
0.562716007233 -0.075929589570 0.650365293026 -0.587557 0.064020 -0.806646
0.593768715858 -0.220477566123 0.609840750694 -0.616374 0.129216 -0.776780
0.641996741295 -0.618878424168 0.436693131924 -0.655334 0.275846 -0.703169
0.681697726250 -0.703712642193 0.361803054810 -0.693456 0.261831 -0.671240
0.700621783733 -0.875098347664 0.269977778196 -0.757017 0.242935 -0.606554
0.668373763561 1.431479811668 0.376105785370 -0.728905 -0.318391 -0.606074
0.670523405075 1.506866931915 0.334350228310 -0.726789 -0.314244 -0.610761
0.732858240604 1.334385037422 0.282535701990 -0.923832 -0.051544 -0.379313
0.743874788284 1.204285264015 0.273392200470 -0.921175 -0.051692 -0.385701
0.691511631012 1.385192632675 0.352095574141 -0.883081 -0.148381 -0.445142
0.676168382168 1.410984873772 0.373543500900 -0.877700 -0.148934 -0.455479
0.689814686775 1.269567251205 0.389313995838 -0.906214 -0.069291 -0.417103
0.709057807922 1.212077856064 0.356118381023 -0.914568 -0.068897 -0.398520
0.673747003078 1.136721014977 0.443578660488 -0.896851 -0.069831 -0.436787
0.665365040302 1.209217309952 0.448646366596 -0.875696 -0.079609 -0.476256
0.616687297821 1.165817260742 0.537273168564 -0.825562 -0.130971 -0.548903
0.606628060341 1.164408326149 0.551535785198 -0.800268 -0.141574 -0.582690
0.595256984234 0.999306619167 0.603009462357 -0.827260 -0.075464 -0.556728
0.655793190002 1.111796259880 0.482303321362 -0.876860 -0.079715 -0.474092
-0.587419033051 0.901112973690 0.623113930225 0.778406 -0.032258 -0.626932
-0.572268247604 0.582791030407 0.663568437099 0.618487 0.001371 -0.785794
-0.577134668827 1.041489243507 0.619001269341 0.761468 -0.142681 -0.632304
-0.682920992374 1.274315714836 0.403456151485 0.906214 -0.069291 -0.417103
-0.722239434719 1.259981751442 0.316701650620 0.908886 -0.055206 -0.413375
-0.700521349907 1.502888202667 0.293417364359 0.907747 -0.163879 -0.386185
-0.704458236694 1.340754747391 0.341170549393 0.883081 -0.148381 -0.445142
-0.679231047630 1.376894950867 0.378743380308 0.877700 -0.148934 -0.455479
-0.673634767532 1.258880138397 0.424544662237 0.857458 -0.135388 -0.496423
-0.644041717052 1.221267819405 0.482495248318 0.844326 -0.126868 -0.520595
-0.610420465469 1.203003168106 0.536922633648 0.800268 -0.141574 -0.582690
-0.617994546890 1.298661708832 0.486983031034 0.523632 -0.371243 -0.766804
-0.651430606842 1.354295492172 0.434751033783 0.658199 -0.359465 -0.661482
-0.671738505363 1.503429055214 0.334675252438 0.726789 -0.314244 -0.610761
-0.688203871250 1.532776832581 0.296259969473 0.768976 -0.336931 -0.543281
-0.558023691177 1.042874336243 0.638788759708 0.438485 -0.299037 -0.847530
-0.534221827984 1.050828099251 0.647885024548 0.366288 -0.223275 -0.903317
-0.525003731251 0.381111234426 0.690569460392 0.271947 0.015853 -0.962182
-0.558247923851 0.259407222271 0.672520875931 0.662692 0.009725 -0.748829
-0.550264596939 0.207476809621 0.677604556084 0.654145 0.107794 -0.748649
-0.560451686382 -0.122176080942 0.647959113121 0.597578 0.085368 -0.797253
-0.584179282188 -0.281401187181 0.606145858765 0.625935 0.175140 -0.759955
-0.601743400097 -0.346367180347 0.574241459370 0.629938 0.219312 -0.745037
-0.611023545265 -0.458611905575 0.527553141117 0.629547 0.278913 -0.725174
-0.643490672112 -0.526072561741 0.472555905581 0.641241 0.294103 -0.708740
-0.662709891796 -0.626082062721 0.413563966751 0.671747 0.298017 -0.678190
-0.665899395943 -0.758210003376 0.356136500835 0.741665 0.233632 -0.628768
-0.821434557438 -0.356564044952 0.033476050943 -0.969441 -0.020473 0.244468
-0.818455636501 0.188650935888 0.002485895529 -0.119187 0.992481 -0.027847
-0.803652465343 0.115970179439 -0.373508900404 -0.974705 0.001170 -0.223492
-0.807522058487 0.069273285568 -0.356841772795 -0.974588 0.001173 -0.224003
-0.801402091980 -0.038104914129 -0.383199423552 -0.974588 -0.001173 -0.224003
-0.806344687939 -0.180998563766 -0.360635697842 -0.974464 -0.003526 -0.224515
-0.763500988483 -0.783551275730 0.157123878598 -0.883302 -0.028320 0.467948
-0.769815206528 -0.612870633602 0.154696047306 -0.887323 -0.025506 0.460442
-0.771822154522 -0.546833753586 0.154498815536 -0.888984 -0.025476 0.457230
-0.767134964466 -0.403338372707 0.171516850591 -0.888984 -0.025476 0.457230
-0.767390608788 -0.166172698140 0.183633685112 -0.891785 -0.022661 0.451891
-0.780213356018 -0.030164197087 0.164959356189 -0.900111 -0.027921 0.434765
-0.773504197598 0.202382743359 0.189932391047 -0.891836 -0.019996 0.451917
-0.770438134670 0.205361887813 0.166583850980 -0.132342 0.986010 -0.101343
-0.812790036201 -0.753182888031 0.035126447678 -0.965562 -0.020699 0.259350
-0.795433819294 -0.774973034859 0.088358961046 -0.950986 -0.018745 0.308664
-0.808450520039 -0.795900702477 0.047267168760 -0.948718 -0.021362 0.315402
-0.798037290573 -0.554890930653 0.094904392958 -0.948968 -0.021311 0.314651
-0.801409900188 -0.548228561878 0.085236892104 -0.947708 -0.021396 0.318420
-0.802407085896 -0.443114548922 0.089017100632 -0.948012 -0.018835 0.317678
-0.806483089924 -0.135609731078 0.095448628068 -0.945917 -0.021412 0.323702
-0.781061887741 0.150149822235 0.171545341611 -0.906319 -0.017100 0.422247
-0.794538676739 0.063761852682 0.092359349132 -0.645353 -0.571213 0.507183
-0.801697194576 0.045694701374 0.078470014036 -0.580051 -0.128408 0.804396
-0.783314168453 -0.088654398918 0.155692860484 -0.916251 -0.019550 0.400127
-0.794711410999 -0.267388552427 0.119360402226 -0.921632 -0.019444 0.387578
-0.785088777542 -0.250240445137 0.143068745732 -0.921190 -0.022088 0.388485
-0.784946084023 -0.363163203001 0.137279167771 -0.920795 -0.022141 0.389417
-0.778843522072 -0.661581158638 0.134299352765 -0.919458 -0.022171 0.392563
-0.811429977417 -0.805453836918 0.035998970270 -0.965726 -0.020651 0.258742
-0.823743820190 -0.158056557178 0.038303684443 -0.982491 -0.012700 0.185877
-0.828756809235 0.029589772224 0.012852343731 -0.997818 -0.005224 0.065825
-0.831692457199 0.042664386332 -0.044965989888 -0.999852 -0.002991 0.016947
-0.832163274288 0.182729169726 -0.041972581297 -0.999852 -0.002991 0.016947
-0.831553936005 0.166893392801 -0.098739355803 -0.998623 -0.001028 -0.052451
-0.831978499889 0.062016375363 -0.219188630581 -0.992394 -0.001089 -0.123096
-0.825278699398 0.127683430910 -0.268406122923 -0.984462 0.001133 -0.175594
-0.812309741974 0.039231453091 -0.335021525621 -0.978290 0.001158 -0.207235
-0.806236684322 -0.380666971207 -0.357198119164 -0.979109 -0.005807 -0.203255
-0.812413513660 -0.595821797848 -0.317756742239 -0.980079 -0.010439 -0.198335
-0.807884097099 -0.787875115871 -0.328239887953 -0.980411 -0.012793 -0.196547
-0.813377797604 -0.800781190395 -0.295217812061 -0.987802 -0.014710 -0.155016
-0.811889171600 -0.753528654575 -0.308984756470 -0.987454 -0.014704 -0.157223
-0.815699279308 -0.448152661324 -0.308093965054 -0.985961 -0.007942 -0.166785
-0.824088573456 -0.193124979734 -0.270495921373 -0.986024 -0.007924 -0.166413
-0.827062427998 -0.046595919877 -0.256033897400 -0.992313 -0.005470 -0.123629
-0.826841115952 -0.176930412650 -0.251956045628 -0.992827 -0.007662 -0.119314
-0.831362962723 -0.265588104725 -0.188875973225 -0.999050 -0.011294 -0.042098
-0.822846472263 -0.722588002682 -0.167381584644 -0.987671 -0.019277 0.155351
-0.823688328266 -0.523794472218 -0.148405373096 -0.987671 -0.019277 0.155351
-0.828550100327 -0.369219243526 -0.161881387234 -0.987712 -0.017010 0.155358
-0.829828202724 -0.086894609034 -0.144541010261 -0.987967 -0.010139 0.154335
-0.832817614079 -0.017668263987 -0.158927291632 -0.988360 -0.010120 0.151796
-0.822379708290 -0.643398642540 -0.122786402702 -0.998575 -0.015619 -0.051022
-0.821886003017 -0.609994590282 -0.142544582486 -0.998575 -0.015619 -0.051022
-0.825977385044 -0.390176087618 -0.125445306301 -0.998611 -0.013509 -0.050918
-0.827587246895 -0.255102515221 -0.125978708267 -0.998643 -0.011407 -0.050814
-0.830590367317 -0.150831669569 -0.088614791632 -0.998693 -0.007229 -0.050606
-0.831266760826 -0.015885438770 -0.094657920301 -0.998586 -0.007229 -0.052666
-0.828935146332 -0.253997981548 -0.043750453740 -0.999769 -0.013062 0.017081
-0.827140927315 -0.415417134762 -0.067414462566 -0.999739 -0.015102 0.017115
-0.820552647114 -0.844938158989 -0.095283418894 -0.999769 -0.017081 0.013062
-0.829925835133 -0.079940892756 -0.019535643980 -0.997768 -0.009443 0.066098
-0.826088070869 -0.395601719618 -0.022343574092 -0.997807 -0.015805 0.064273
-0.824128806591 -0.464506089687 -0.008554825559 -0.997949 -0.015774 0.062043
-0.820005118847 -0.873344600201 -0.087998203933 -0.999847 -0.015013 0.009008
-0.826962232590 -0.098030246794 -0.210670500994 -0.998086 -0.007285 -0.061405
0.382991969585 -0.418305218220 0.129504844546 0.515191 0.083736 -0.852975
0.320156604052 -0.409172743559 0.113583147526 -0.139419 0.071467 -0.987651
0.318444073200 -0.480191409588 0.187493890524 -0.052462 -0.415664 0.908004
0.292160570621 -0.472173035145 0.096373446286 0.001282 0.919277 0.393609
0.338518977165 -0.533491909504 0.009965784848 0.001287 0.402911 -0.915238
0.306046307087 -0.572129487991 -0.007116287947 0.001287 0.402911 -0.915238
0.323236137629 -0.632834792137 -0.033954743296 0.001287 0.402911 -0.915238
0.377124130726 -0.572790563107 0.141832739115 0.851389 -0.157883 0.500210
0.329855620861 -0.622405052185 0.135299876332 0.001246 -0.332624 0.943059
0.300964891911 -0.568763196468 0.154226571321 0.001246 -0.332624 0.943059
0.256604373455 -0.704679965973 0.021513465792 -0.999562 0.027399 0.011163
0.261717200279 -0.549873769283 0.098875597119 -0.999562 0.027399 0.011163
0.395797967911 -0.696858942509 0.065953627229 0.999562 0.027399 0.011163
0.396110534668 -0.683987855911 0.006301041692 0.999564 0.027344 0.011140
0.377486765385 -0.542350947857 0.014458326623 0.773050 0.270330 -0.573859
0.340182483196 -0.499138981104 0.159061655402 0.001282 0.919277 0.393609
0.420056313276 -0.429422676563 0.181154906750 0.041487 -0.980280 -0.193211
0.424347579479 -0.416277289391 0.198546767235 0.064996 -0.468803 0.880908
0.196386456490 -0.420650839806 0.164004296064 -0.070437 -0.786307 -0.613808
0.180253550410 -0.424956947565 0.182363823056 0.913711 -0.328704 -0.238926
0.174723580480 -0.374840050936 0.100126549602 -0.718680 0.625429 -0.303871
0.247549012303 -0.354512333870 0.077854320407 0.494963 0.095022 0.863703
0.206437855959 -0.386037141085 0.078274637461 -0.279902 -0.708552 -0.647773
0.250427126884 -0.373500019312 0.068061955273 0.497900 -0.707717 0.501230
0.212822899222 -0.351435840130 0.078119777143 -0.279412 0.953675 0.111503
0.154231294990 -0.396037638187 0.137706309557 -0.869938 -0.280870 -0.405364
0.160461366177 -0.384242624044 0.128278762102 -0.808688 0.556826 -0.189655
0.496895611286 -0.436339765787 0.197160378098 0.369269 -0.860598 -0.350729
0.294479012489 -0.335252821445 0.037863612175 -0.240399 0.727481 -0.642635
0.468387544155 -0.410728126764 0.176824226975 -0.913941 0.325890 0.241883
0.355515390635 -0.460113406181 0.314340353012 -0.093639 0.994772 0.040760
0.339053511620 -0.461035817862 0.322091311216 -0.032225 0.998961 0.032225
0.454800069332 -0.436244308949 0.272942423820 0.324679 0.731740 0.599283
0.430841594934 -0.471577972174 0.271761447191 -0.279902 -0.708552 -0.647773
0.372830986977 -0.363845914602 0.034925438464 0.104599 -0.676210 -0.729246
-0.013824342750 1.489334583282 0.365235954523 0.000978 0.000978 0.999999
-0.092856489122 1.523034453392 0.365235954523 0.000978 0.000978 0.999999
-0.102859824896 1.535772919655 0.318138509989 0.999941 0.000987 -0.010858
-0.113019801676 1.642397284508 0.323069095612 -0.273259 0.432024 0.859468
-0.119892463088 1.529934525490 0.324322223663 -0.999999 0.000978 0.000978
-0.110920235515 1.460195422173 0.342847913504 -0.344295 -0.795883 0.498027
-0.082294203341 1.441346764565 0.309654235840 0.001251 -0.939829 0.341642
0.090822726488 1.540124058723 0.348555207253 0.000978 0.999999 0.000978
0.010204575956 1.540124058723 0.343702137470 0.000978 0.999999 0.000978
0.002319328487 -0.410206317902 0.557384073734 0.001207 -0.961751 0.273924
-0.061574589461 -0.387712866068 0.572788357735 0.000978 0.999999 0.000978
0.813080608845 -0.779053986073 0.031964033842 0.965562 -0.020699 0.259350
0.796425461769 -0.863420903683 0.079614505172 0.950986 -0.018745 0.308664
0.794077575207 -0.732692599297 0.094519659877 0.919860 -0.022118 0.391623
0.779841184616 -0.848081707954 0.121088743210 0.917155 -0.022179 0.397912
0.816957175732 -0.781784057617 0.012479986995 0.993988 -0.016402 0.108256
0.819336712360 -0.657984554768 0.010667110793 0.993723 -0.016434 0.110657
0.817962765694 -0.610670328140 0.026615815237 0.970713 -0.020449 0.239370
0.812365829945 -0.692205429077 0.041593831033 0.965726 -0.020651 0.258742
0.802715182304 -0.652108311653 0.074392609298 0.948968 -0.021311 0.314651
0.774415314198 -0.503664970398 0.151856303215 0.888984 -0.025476 0.457230
0.766886651516 -0.333236426115 0.175810590386 0.889544 -0.025416 0.456142
0.781226456165 -0.463557869196 0.140341997147 0.919860 -0.022118 0.391623
0.814121246338 -0.459550023079 0.053141482174 0.964995 -0.018253 0.261632
0.822213649750 -0.498860687017 0.009817626327 0.993451 -0.016466 0.113067
0.818873226643 -0.822227776051 -0.135010212660 0.998575 -0.015619 -0.051022
0.818847060204 -0.878267407417 -0.119299732149 0.998348 -0.015648 -0.055290
0.823760747910 -0.492903083563 -0.009632531554 0.997949 -0.015774 0.062043
0.787331283092 -0.303052812815 0.134940862656 0.921190 -0.022088 0.388485
0.807164192200 -0.099475249648 0.095735847950 0.945917 -0.021412 0.323702
0.825478792191 -0.186937153339 0.023377288133 0.992982 -0.014264 0.117402
0.826324284077 -0.364308565855 -0.018308352679 0.997807 -0.015805 0.064273
0.824087262154 -0.613878369331 -0.071667551994 0.999739 -0.017115 0.015102
0.817891120911 -0.825148820877 -0.259938180447 0.994014 -0.016367 -0.108021
0.816899955273 -0.719081282616 -0.280496358871 0.987802 -0.014710 -0.155016
0.803336739540 -0.805534541607 -0.349576264620 0.980411 -0.012793 -0.196547
0.810916304588 -0.619148790836 -0.323918133974 0.980079 -0.010439 -0.198335
0.815147638321 -0.553445875645 -0.304743796587 0.987130 -0.012438 -0.159433
0.818577706814 -0.670459747314 -0.274180561304 0.987540 -0.012415 -0.156878
0.825659573078 -0.528671562672 -0.228672295809 0.993783 -0.014213 -0.110420
0.824631690979 -0.511649608612 -0.240224048495 0.993839 -0.012000 -0.110184
0.817256033421 -0.474155843258 -0.297231644392 0.987156 -0.010177 -0.159438
0.820120692253 -0.390098929405 -0.284877628088 0.985961 -0.007942 -0.166785
0.810503363609 -0.487687170506 -0.332631886005 0.979646 -0.008115 -0.200567
0.812397241592 -0.371302396059 -0.327846437693 0.979109 -0.005807 -0.203255
0.821237027645 -0.186225444078 -0.287136405706 0.985154 -0.005681 -0.171578
0.820774495602 -0.257426321507 -0.287351369858 0.986024 -0.007924 -0.166413
0.825516581535 -0.253537148237 -0.257593691349 0.992827 -0.007662 -0.119314
0.822712659836 0.010094542056 -0.282830387354 0.984387 -0.003406 -0.175986
0.801508426666 -0.247435271740 -0.380483359098 0.974464 -0.003526 -0.224515
0.801537871361 -0.026804514229 -0.382675021887 0.974588 -0.001173 -0.224003
0.810976505280 0.064801417291 -0.341211795807 0.978290 0.001158 -0.207235
0.812615454197 0.032087028027 -0.333612859249 0.978290 0.001158 -0.207235
0.824466586113 0.099376402795 -0.273010283709 0.984462 0.001133 -0.175594
0.806264102459 0.173101440072 -0.361939549446 0.974705 0.001170 -0.223492
0.831612765789 0.076485604048 -0.032936833799 0.999852 -0.002991 0.016947
0.831695795059 0.175481081009 -0.020468089730 0.997827 -0.005213 0.065688
0.812198281288 0.113705389202 0.091057814658 0.953692 -0.011133 0.300580
0.808855473995 0.097810514271 0.100149810314 0.940474 -0.013886 0.339581
0.799711465836 0.193081185222 0.128960698843 0.930887 -0.016646 0.364928
0.821911811829 0.188127905130 -0.001080526854 0.132939 0.990897 -0.021226
0.786213755608 0.123097434640 0.158856540918 0.919416 -0.016858 0.392924
0.827595174313 -0.278487324715 -0.019764628261 0.997711 -0.013667 0.066234
0.828430056572 -0.314134180546 -0.057922296226 0.999769 -0.013062 0.017081
0.826468288898 -0.477329343557 -0.083584889770 0.999739 -0.015102 0.017115
0.826110124588 -0.357240051031 -0.131897822022 0.998611 -0.013509 -0.050918
0.827061116695 -0.581268429756 -0.176998585463 0.987671 -0.019277 0.155351
0.817456603050 -0.790288627148 -0.215517506003 0.998789 -0.015557 -0.046672
0.819962263107 -0.647491574287 -0.211086511612 0.998341 -0.015681 -0.055405
0.826972126961 -0.379953950644 -0.199323207140 0.514097 0.004027 -0.857723
0.834253251553 0.094916827977 -0.184663474560 0.999032 -0.003061 -0.043880
0.833746016026 -0.014330980368 -0.164693206549 0.988360 -0.010120 0.151796
0.829745829105 -0.152615219355 -0.104878000915 0.998693 -0.007229 -0.050606
0.831239879131 -0.078170202672 -0.069361418486 0.999814 -0.009025 0.017048
0.829921960831 -0.210337445140 -0.068876311183 0.999768 -0.013089 0.017116
0.828084409237 -0.258236885071 -0.115588389337 0.998643 -0.011407 -0.050814
0.831452250481 -0.179816618562 -0.161918103695 0.988200 -0.014682 0.152465
0.830709159374 -0.248840078712 -0.163788378239 0.987857 -0.014677 0.154670
0.822629332542 -0.839996814728 -0.187770932913 0.999122 -0.017492 -0.038072
0.828792214394 -0.438443362713 -0.195717811584 0.999156 -0.015435 -0.038073
0.829846203327 -0.385329097509 -0.188719451427 0.998987 -0.015464 -0.042269
0.833267331123 -0.054474979639 -0.191323071718 0.999003 -0.007172 -0.044059
-0.287266612053 0.255969107151 0.343352675438 0.001213 -0.959249 -0.282560
-0.229464441538 0.341260194778 0.325289368629 0.999999 0.000978 -0.000978
-0.403735339642 0.360731720924 0.316222995520 0.001147 0.981019 -0.193909
-0.415947020054 0.285037159920 0.297992646694 0.001379 -0.743362 -0.668888
-0.425919979811 0.362855732441 0.367245674133 0.000987 0.999941 0.010858
-0.361955374479 0.363147497177 0.338545084000 0.000987 0.999941 0.010858
-0.229463651776 0.276977747679 0.415888011456 0.999999 -0.000978 -0.000978
-0.382104486227 0.257935434580 0.436340153217 0.001279 -0.921899 0.387428
-0.429891169071 0.355765223503 0.408262193203 0.001164 0.976541 0.215328
-0.469916015863 0.326143831015 0.452583640814 -0.999999 0.000978 0.000978
-0.415410876274 0.345358699560 0.438064754009 0.001323 0.879960 0.475046
-0.340708911419 0.277555644512 0.476977765560 0.001273 -0.378186 0.925729
-0.426268279552 0.250116497278 0.384310424328 0.001067 -0.995277 0.097074
-0.403988897800 0.328032821417 0.291385829449 0.001034 0.061026 -0.998136
-0.315157681704 0.220040410757 0.155203506351 0.006492 -0.910169 0.414185
-0.279153615236 0.328409016132 0.281357884407 0.000995 -0.018902 0.999821
-0.481972366571 0.114622823894 -0.165102183819 -0.973333 -0.218352 0.070317
-0.479468524456 0.074430234730 -0.244902819395 0.045913 0.177764 0.983001
-0.431900113821 -0.085112921894 -0.204083085060 -0.199226 0.215271 0.956017
-0.457829266787 -0.179284334183 -0.198884978890 -0.180921 0.065898 0.981287
-0.449239492416 -0.270213842392 -0.191015675664 -0.197981 0.069233 0.977758
-0.399407833815 -0.220444113016 -0.188564047217 -0.026717 0.071601 0.997075
-0.354534775019 -0.311947256327 -0.180072858930 -0.037951 0.074817 0.996475
-0.342610388994 -0.156104221940 -0.191829904914 0.026827 0.074043 0.996894
-0.296054780483 -0.211246788502 -0.189392790198 0.057715 0.062071 0.996402
-0.249548107386 -0.145846545696 -0.198484390974 0.180551 0.060981 0.981673
-0.237908482552 -0.268247425556 -0.193775683641 0.225291 0.049929 0.973011
-0.212461978197 -0.272244632244 -0.201207727194 0.652222 0.041029 0.756917
-0.220244467258 -0.363219052553 -0.214676111937 0.001259 -0.353743 0.935342
-0.484816879034 -0.345565676689 -0.204480946064 -0.074430 -0.498539 0.863666
-0.477984726429 -0.290580153465 -0.198049262166 -0.551599 0.054739 0.832311
-0.241553366184 0.097679056227 -0.198839187622 0.128197 -0.970998 0.201815
-0.253744840622 0.119858168066 -0.100981473923 0.227927 -0.948559 0.219738
-0.267693877220 0.228868916631 0.169080466032 0.067025 -0.895944 0.439081
-0.372929155827 0.181269764900 0.043855801225 -0.016247 -0.948558 0.316186
-0.377566546202 0.225903511047 0.169682472944 -0.009038 -0.918036 0.396395
-0.444994688034 0.243941932917 0.194958046079 -0.482668 -0.789380 0.379355
-0.435713440180 0.160807847977 0.003681084141 -0.139846 -0.831715 0.537302
-0.316523671150 0.146254837513 -0.014329070225 0.030497 -0.905626 0.422979
-0.401796489954 0.140116691589 -0.028887946159 -0.027703 -0.911547 0.410262
-0.387219637632 0.110256016254 -0.114266507328 -0.039682 -0.975220 0.217651
-0.360762447119 0.115325354040 -0.086755029857 -0.017588 -0.979053 0.202846
-0.430337429047 0.087269566953 -0.232476919889 -0.024461 -0.981953 0.187538
-0.391540646553 0.031838383526 -0.228997334838 0.010590 0.220032 0.975435
-0.374810338020 -0.089639566839 -0.199343830347 -0.042820 0.238569 0.970181
-0.328395694494 -0.019758732989 -0.215346932411 -0.008339 0.239443 0.970875
-0.299435645342 -0.080449968576 -0.201903939247 0.032366 0.221764 0.974563
-0.244729310274 0.052275665104 -0.236190691590 0.124261 0.221620 0.967184
-0.344584882259 0.105875559151 -0.133173912764 0.056777 -0.977291 0.204156
-0.144861191511 -0.360623925924 -0.191978394985 0.427682 -0.871870 0.238601
-0.180162906647 -0.348770886660 -0.264995574951 0.001319 -0.885003 -0.465583
-0.341762602329 -0.357865899801 -0.247687235475 0.001319 -0.885003 -0.465583
-0.371289521456 -0.350675821304 -0.261370390654 0.001319 -0.885003 -0.465583
-0.566032052040 -0.343675702810 -0.229423746467 -0.812088 -0.541904 -0.216455
-0.577032148838 -0.291516453028 -0.258531242609 -0.965897 -0.025643 -0.257654
-0.590417623520 -0.291603505611 -0.206104531884 -0.949714 0.031531 0.311526
-0.569993317127 0.059566795826 -0.223647564650 0.231545 0.097426 0.967933
-0.555001199245 0.031901016831 -0.223241150379 0.073087 0.124131 0.989570
-0.512402713299 -0.203891113400 -0.183825090528 0.302211 0.175255 0.936992
-0.507620513439 -0.260661363602 -0.176880344748 0.655354 0.139469 0.742334
-0.495828628540 0.085124574602 -0.229700297117 0.281075 -0.893788 0.349485
-0.481235146523 0.230323508382 0.211040675640 0.266184 -0.865479 0.424373
-0.482093423605 0.164790004492 0.049691256136 0.793604 -0.549418 0.261404
-0.494538813829 0.119004800916 -0.018559981138 0.928193 -0.368914 0.048576
-0.501475989819 0.086027309299 -0.131235644221 0.884839 -0.441700 0.148193
-0.233855366707 0.381903827190 0.228876382113 0.005133 0.998822 -0.048247
-0.280600517988 0.364343851805 0.167738020420 0.003772 0.939235 -0.343255
-0.260536730289 0.352598160505 0.135926604271 0.003772 0.939235 -0.343255
-0.298943310976 0.299071729183 -0.009150180966 0.001256 0.938428 -0.345472
-0.252159118652 0.345821917057 0.117587707937 0.001256 0.938428 -0.345472
-0.262675106525 0.344193190336 0.113141834736 0.001256 0.938428 -0.345472
-0.249011456966 0.277658075094 -0.065860591829 0.001260 0.936173 -0.351537
-0.170707032084 0.250259965658 -0.138320952654 0.001260 0.936173 -0.351537
-0.316786706448 0.277508318424 -0.066323578358 0.001259 0.935342 -0.353743
-0.292384803295 0.266717791557 -0.094840973616 0.001259 0.935342 -0.353743
-0.143045485020 0.224977493286 -0.201375141740 0.001323 0.879960 -0.475046
-0.144732862711 0.210855424404 -0.227602168918 0.001323 0.879960 -0.475046
-0.109621241689 0.167357057333 -0.218760430813 0.990726 -0.016716 -0.134846
-0.100529536605 0.117341600358 -0.192901328206 0.978984 0.086776 -0.184553
-0.097956769168 0.138207927346 -0.162736237049 0.998178 0.037048 -0.047633
-0.111022897065 0.075825899839 -0.089433819056 0.968902 -0.247303 0.008363
-0.103124797344 0.116324357688 -0.046409986913 0.978598 -0.129902 0.159594
-0.098436444998 0.177060365677 -0.086999878287 0.991595 0.126325 0.027948
-0.110810801387 0.251945614815 -0.059003408998 0.974056 0.226057 -0.010652
-0.117027133703 0.280917972326 -0.051940105855 0.980945 0.193867 0.012770
-0.116065427661 0.243315368891 0.104540124536 0.987829 0.116840 0.102678
-0.117934495211 0.220290049911 0.105167329311 0.941315 -0.188814 0.279776
-0.175788938999 0.276021927595 0.259079605341 0.394626 -0.462276 0.794085
-0.267633527517 0.372747182846 0.266226470470 0.009723 0.751422 0.659751
-0.239033237100 0.267236053944 0.246424034238 -0.571775 -0.781687 0.249075
-0.219053760171 0.179786607623 0.019571237266 -0.797416 -0.584971 0.148113
-0.204645887017 0.152366489172 0.004357298836 -0.946372 -0.307538 0.098993
-0.200299665332 0.091277584434 -0.151096343994 -0.922481 -0.375223 0.090758
-0.202457040548 0.090619489551 -0.172253787518 -0.932452 -0.337212 0.129697
-0.182476729155 0.084186211228 -0.043312303722 -0.727420 -0.666675 0.162493
-0.181180626154 0.147475928068 0.065139740705 -0.417706 -0.798318 0.433833
-0.188708409667 0.211100488901 0.176548764110 -0.419363 -0.801771 0.425790
-0.163191691041 0.068203285336 -0.188488543034 -0.086593 -0.936535 -0.339711
-0.167969644070 0.043705843389 -0.224771007895 0.163838 0.095876 0.981817
-0.157596752048 -0.276173442602 -0.160296499729 -0.428244 0.222329 0.875886
-0.142368450761 -0.146404236555 -0.190804898739 -0.103706 0.244540 0.964077
-0.126323997974 -0.311804234982 -0.157587707043 0.243251 0.181430 0.952844
-0.102945849299 -0.180008247495 -0.214023306966 0.940976 0.034566 0.336703
-0.107849270105 -0.261328369379 -0.225363239646 0.919289 -0.038249 -0.391720
-0.128879785538 -0.140073567629 -0.287089288235 0.719269 -0.035328 -0.693833
-0.202271044254 -0.317905098200 -0.313413828611 0.001350 -0.840871 -0.541234
-0.239357069135 -0.344413876534 -0.272138535976 0.001350 -0.840871 -0.541234
-0.589354515076 0.075058542192 -0.236735060811 -0.927252 0.029911 0.373242
-0.584997236729 0.088987633586 -0.045063436031 -0.725785 -0.674905 0.133185
-0.576178789139 0.137539654970 0.031552076340 -0.556169 -0.667067 0.495679
-0.549643039703 0.208405226469 0.151188045740 -0.512395 -0.673674 0.532555
-0.560035943985 0.236168056726 0.151287361979 -0.945820 -0.121739 0.301004
-0.578913390636 0.219764158130 0.085422560573 -0.876480 -0.329629 0.350896
-0.417719036341 0.340628057718 0.104005590081 -0.003778 0.938121 -0.346286
-0.482998490334 0.366150736809 0.173765063286 -0.003778 0.938121 -0.346286
-0.527185022831 0.335673451424 0.091568827629 -0.003769 0.938422 -0.345470
-0.411502033472 0.307534337044 0.014277771115 -0.003769 0.938422 -0.345470
-0.427345812321 0.287929773331 -0.038041505963 -0.003786 0.935020 -0.354576
-0.379104673862 0.276629894972 -0.068323031068 -0.003786 0.935020 -0.354576
-0.371764868498 0.244174733758 -0.154175594449 -0.003786 0.935020 -0.354576
-0.444519102573 0.256416976452 -0.121296763420 0.001257 0.936483 -0.350710
-0.553296029568 0.242379769683 -0.158798992634 0.001257 0.936483 -0.350710
-0.391777336597 0.202517673373 -0.243086755276 0.001323 0.879960 -0.475046
-0.257829785347 0.201076775789 -0.245762735605 0.001323 0.879960 -0.475046
-0.319994360209 0.124796956778 -0.306001156569 0.001251 0.341642 -0.939829
-0.515500903130 0.175054922700 -0.287713289261 0.001251 0.341642 -0.939829
-0.469494163990 0.107254028320 -0.312384665012 0.001251 0.341642 -0.939829
-0.567059040070 0.162509471178 -0.289140522480 -0.943803 -0.050353 -0.326651
-0.581059336662 0.175425827503 -0.220438122749 -0.970633 0.172642 -0.167527
-0.584079504013 0.202039495111 -0.188032642007 -0.988559 -0.003351 -0.150797
-0.588488519192 0.206385746598 -0.141683802009 -0.979766 0.200117 -0.003470
-0.553399503231 0.342343777418 0.193472325802 -0.943838 0.330406 -0.001247
-0.555446803570 0.318863123655 0.215541452169 -0.990977 0.100367 0.088830
-0.540128171444 -0.039247162640 -0.315473347902 0.000978 0.000978 -0.999999
-0.500312983990 -0.039741024375 -0.315473347902 0.000978 0.000978 -0.999999
-0.414201438427 -0.093946754932 -0.315473347902 0.000978 0.000978 -0.999999
-0.410673826933 -0.065120898187 -0.315473347902 0.000978 0.000978 -0.999999
-0.415895581245 -0.025859825313 -0.315473347902 0.000978 0.000978 -0.999999
-0.401657819748 -0.013380687684 -0.315473347902 0.000978 0.000978 -0.999999
-0.237899541855 -0.040349490941 -0.315473347902 0.000978 0.000978 -0.999999
-0.296363234520 -0.119714982808 -0.315473347902 0.000978 0.000978 -0.999999
-0.200310051441 -0.040660515428 -0.315473347902 0.000978 0.000978 -0.999999
-0.291938424110 0.044618546963 -0.315473347902 0.000978 0.000978 -0.999999
-0.168677121401 0.090878121555 -0.315473347902 0.000978 0.000978 -0.999999
-0.109175734222 -0.022249110043 -0.247848242521 0.894643 -0.036324 -0.445303
-0.113794229925 -0.094850786030 -0.253774046898 0.920747 -0.016835 -0.389796
-0.106624424458 -0.114315673709 -0.216402724385 0.841614 0.043124 0.538355
-0.114424355328 -0.012639142573 -0.213219955564 0.815920 0.055149 0.575528
-0.101075395942 0.108978889883 -0.206227213144 0.976450 0.173342 -0.128447
-0.218831956387 -0.239267081022 -0.315473347902 0.000978 0.000978 -0.999999
-0.198993489146 -0.189298570156 -0.315473347902 0.000978 0.000978 -0.999999
-0.280386358500 -0.286783069372 -0.315473347902 0.000978 0.000978 -0.999999
-0.293284922838 -0.224210202694 -0.315473347902 0.000978 0.000978 -0.999999
-0.372404873371 -0.209898889065 -0.315473347902 0.000978 0.000978 -0.999999
-0.505880057812 -0.240672737360 -0.315473347902 0.000978 0.000978 -0.999999
-0.511862874031 -0.259665489197 -0.315473347902 0.000978 0.000978 -0.999999
-0.569248855114 -0.118724405766 -0.288454830647 -0.880723 -0.020108 -0.473204
-0.581289410591 0.068139784038 -0.266160398722 -0.939071 -0.013940 -0.343439
-0.563684999943 0.206151545048 -0.236338049173 0.001323 0.879960 -0.475046
-0.186806112528 -0.328464508057 -0.181913718581 -0.833080 -0.507158 0.220835
-0.203098237514 -0.243814960122 -0.205067396164 -0.881493 0.088289 0.463870
-0.524656057358 -0.061185762286 -0.208129629493 -0.096130 0.100763 0.990255
0.411685764790 0.265969961882 0.319133937359 0.001379 -0.743362 -0.668888
0.328755915165 0.249320104718 0.365854352713 0.001213 -0.959249 -0.282560
0.415241837502 0.251182109118 0.395167261362 0.001067 -0.995277 0.097074
0.253669410944 0.253434360027 0.418114453554 0.001067 -0.995277 0.097074
0.461666077375 0.256942093372 0.433972418308 0.001279 -0.921899 0.387428
0.434343636036 0.273823291063 0.474210351706 0.001279 -0.921899 0.387428
0.469916999340 0.335199683905 0.370398640633 0.999999 0.000978 0.000978
0.444878786802 0.287206351757 0.295586377382 0.001379 -0.743362 -0.668888
0.300972312689 0.290967911482 0.294629067183 0.001156 -0.204554 -0.978855
0.248931467533 0.363129585981 0.340305924416 0.000987 0.999941 0.010858
0.316115200520 0.362628519535 0.325773090124 0.001147 0.981019 -0.193909
0.444695025682 0.362845420837 0.368187099695 0.000987 0.999941 0.010858
0.373175442219 0.344873070717 0.438967525959 0.001323 0.879960 0.475046
0.290254682302 0.353655576706 0.417824953794 0.001164 0.976541 0.215328
0.425297290087 0.342882573605 0.442667752504 0.001323 0.879960 0.475046
0.458196640015 0.310597211123 0.480464339256 0.001337 0.506611 0.862174
0.342726975679 0.292954713106 0.482095479965 0.001052 0.081042 0.996710
0.225021272898 -0.258197247982 -0.197265371680 -0.225291 0.049929 0.973011
0.224816396832 -0.110460430384 -0.205237835646 -0.180551 0.060981 0.981673
0.295359700918 -0.285504579544 -0.184759035707 -0.057715 0.062071 0.996402
0.297913670540 -0.159267768264 -0.192794680595 -0.026827 0.074043 0.996894
0.369051694870 -0.249686032534 -0.185288712382 0.037951 0.074817 0.996475
0.388045728207 -0.196071773767 -0.189978212118 0.026717 0.071601 0.997075
0.362566560507 -0.317078799009 -0.180339381099 0.034360 -0.515404 0.856258
0.284411370754 -0.342467665672 -0.198875933886 -0.020324 -0.499971 0.865804
0.209663599730 -0.321321576834 -0.199924886227 -0.637827 0.212609 0.740252
0.478985399008 0.115071229637 -0.145826607943 0.559511 -0.795095 0.234034
0.374105721712 0.274333328009 0.264415115118 0.012413 -0.605456 0.795782
0.276260048151 0.334966719151 0.281474471092 -0.000995 -0.018902 0.999821
0.264178097248 0.035540338606 -0.229896813631 -0.124261 0.221620 0.967184
0.295508921146 -0.041389793158 -0.210948079824 -0.032366 0.221764 0.974563
0.315302670002 0.071586318314 -0.237796097994 0.008339 0.239443 0.970875
0.385511398315 -0.098288387060 -0.197691306472 0.042820 0.238569 0.970181
0.425215035677 0.175612896681 0.029489714652 0.083235 -0.864796 0.495177
0.399914026260 0.189756244421 0.068023301661 0.013726 -0.949587 0.313202
0.360469996929 0.228296831250 0.175600886345 0.009038 -0.918036 0.396395
0.230158239603 0.126607984304 -0.096327379346 -0.227927 -0.948559 0.219738
0.251012980938 0.137161076069 -0.046768382192 -0.136427 -0.907171 0.398030
0.276534080505 0.159689694643 0.005492921919 -0.090231 -0.834991 0.542816
0.284939020872 0.203354418278 0.106475070119 -0.085262 -0.945752 0.313502
0.336764425039 0.200678259134 0.102319031954 -0.016260 -0.949306 0.313934
0.340294182301 0.177461251616 0.036700848490 -0.026106 -0.839505 0.542724
0.331431716681 0.138785228133 -0.029326699674 -0.030497 -0.905626 0.422979
0.298201978207 0.099362179637 -0.170682221651 -0.027545 -0.973657 0.226348
0.186559572816 -0.326237410307 -0.175877109170 0.833080 -0.507158 0.220835
0.187118649483 -0.202111959457 -0.187564745545 0.017395 0.186711 0.982261
0.190770179033 -0.078149579465 -0.210308700800 0.686299 0.070797 0.723865
0.210104376078 0.100097447634 -0.202435374260 0.932452 -0.337212 0.129697
0.199857831001 0.092307381332 -0.142326071858 0.922481 -0.375223 0.090758
0.185501992702 0.065860807896 -0.131938576698 0.716044 -0.679558 0.159628
0.129553496838 0.144592612982 0.062711261213 -0.562642 -0.656696 0.502179
0.156491652131 0.211554139853 0.167157575488 -0.381931 -0.735995 0.558963
0.195332944393 0.149455741048 0.055126894265 0.417706 -0.798318 0.433833
0.197682127357 0.124983482063 -0.014073032886 0.946372 -0.307538 0.098993
0.206013023853 0.180636465549 0.092777036130 0.797416 -0.584971 0.148113
0.218607813120 0.214237228036 0.143912151456 0.797947 -0.573002 0.186948
0.244673997164 0.328898638487 0.280871987343 0.015679 -0.057489 0.998223
0.133362829685 0.304464042187 0.006048485171 -0.003772 0.939235 -0.343255
0.252934008837 0.368759334087 0.180077373981 -0.003772 0.939235 -0.343255
0.326007634401 0.346720397472 0.119767360389 -0.001256 0.938428 -0.345472
0.322349369526 0.337721616030 0.095415368676 -0.001256 0.938428 -0.345472
0.180671244860 0.313436329365 0.030147613958 -0.001256 0.938428 -0.345472
0.150250345469 0.285236567259 -0.045413918793 -0.001260 0.936173 -0.351537
0.166681289673 0.272861301899 -0.078316658735 -0.001260 0.936173 -0.351537
0.247702747583 0.230485871434 -0.190595194697 0.001259 0.935342 -0.353743
0.265908271074 0.250270843506 -0.138307154179 0.001259 0.935342 -0.353743
0.155241757631 0.221505776048 -0.207822680473 0.001323 0.879960 -0.475046
0.166681915522 0.217473804951 -0.215310737491 0.001323 0.879960 -0.475046
0.197489932179 0.193833515048 -0.259214669466 0.001323 0.879960 -0.475046
0.150962620974 0.151759877801 -0.296189904213 0.001251 0.341642 -0.939829
0.117465727031 0.282716900110 -0.016421280801 -0.974056 0.226057 -0.010652
0.143045559525 0.353906214237 0.171443656087 -0.936056 0.351181 -0.021709
0.107573002577 0.220839515328 0.018862739205 -0.992890 0.108825 0.048242
0.100261703134 0.194423198700 -0.101615786552 -0.991595 0.126325 0.027948
0.097250573337 0.148090213537 -0.140349209309 -0.998178 0.037048 -0.047633
0.117116264999 0.074547074735 -0.217762231827 -0.815920 0.055149 0.575528
0.127870947123 0.012276113033 -0.213608235121 0.251376 0.093150 0.963397
0.147798418999 -0.227656722069 -0.170825049281 0.103706 0.244540 0.964077
0.102338142693 -0.235830098391 -0.210105717182 -0.940976 0.034566 0.336703
0.125478953123 -0.139160811901 -0.279163271189 -0.919289 -0.038249 -0.391720
0.134078115225 -0.062117990106 -0.293844312429 -0.571901 -0.034787 -0.819585
0.222455471754 0.006086446345 -0.315473347902 0.000978 0.000978 -0.999999
0.221320569515 0.081384509802 -0.315473347902 0.000978 0.000978 -0.999999
0.198381364346 0.109150141478 -0.311694711447 0.001251 0.341642 -0.939829
0.370449274778 0.162036374211 -0.292450487614 0.001251 0.341642 -0.939829
0.427074551582 0.193679243326 -0.259501188993 0.001323 0.879960 -0.475046
0.593031108379 0.151316955686 -0.129251867533 0.994943 0.018445 -0.098735
0.596888840199 0.135947197676 -0.104152984917 0.981470 0.168633 -0.090989
0.580438733101 0.072978116572 -0.101913429797 0.725785 -0.674905 0.133185
0.551862418652 0.056298870593 -0.055051397532 -0.504847 -0.849262 0.154545
0.507170915604 0.087535180151 -0.038987766951 -0.570376 -0.724887 0.386278
0.531558215618 0.141307070851 0.076813317835 -0.256187 -0.768561 0.586244
0.557285130024 0.102116458118 0.017738316208 0.748539 -0.465575 0.472155
0.584960639477 0.207963958383 0.004682131112 0.986138 0.164165 0.024108
0.581717967987 0.242199540138 -0.030990775675 0.979766 0.200117 -0.003470
0.552218139172 0.282152354717 -0.052541479468 0.001257 0.936483 -0.350710
0.552171766758 0.246276468039 -0.148388445377 0.001257 0.936483 -0.350710
