0.272174656391 -0.428597122431 0.229489073157 0.115359 0.468555 0.875870
0.248675435781 -0.420028001070 0.227928444743 -0.097455 0.470326 0.877095
0.189167484641 -0.389794200659 0.206769883633 0.054234 0.376994 0.924627
0.058641847223 -0.330993622541 0.184839367867 0.020177 0.477529 0.878384
0.080166742206 -0.364287525415 0.202302426100 0.017428 0.473228 0.880767
0.156302288175 -0.336457818747 0.266503751278 -0.363465 -0.143436 0.920499
0.153483450413 -0.370397299528 0.258213520050 -0.840403 -0.072277 0.537121
0.306178331375 -0.439612984657 0.257830947638 -0.034741 -0.557248 0.829619
0.171961352229 -0.485364407301 0.233723670244 0.026038 0.040620 0.998835
0.125445976853 -0.549347281456 0.237557291985 0.026038 0.040620 0.998835
0.009797669947 -0.548452734947 0.240540266037 0.026038 0.040620 0.998835
0.141699373722 -0.560980916023 0.237609118223 0.026038 0.040620 0.998835
-0.039804194123 -0.580610156059 0.242168456316 0.001016 0.041673 0.999131
-0.067719876766 -0.663599789143 0.245605006814 0.001016 0.041673 0.999131
-0.166802406311 -0.737548768520 0.248772531748 0.001016 0.041673 0.999131
-0.143337607384 -0.792491495609 0.250988155603 0.001016 0.041673 0.999131
-0.010409754701 -0.717655539513 0.247736275196 0.001016 0.041673 0.999131
0.178580209613 -0.575439393520 0.238138303161 -0.003103 0.058964 0.998255
0.216823294759 -0.572037935257 0.238063335419 -0.003103 0.058964 0.998255
0.081042006612 -0.728947937489 0.246816545725 -0.003103 0.058964 0.998255
0.176087737083 -0.672102093697 0.243794500828 -0.003103 0.058964 0.998255
0.327258020639 -0.523710906506 0.234541490674 0.005194 0.059208 0.998232
0.242090865970 -0.698727130890 0.245436787605 0.005194 0.059208 0.998232
0.435326725245 -0.473887145519 0.226137012243 0.059375 0.095223 0.993684
0.486167907715 -0.474577367306 0.221595585346 0.275879 0.362371 0.890269
0.589353859425 -0.463637828827 0.183930426836 0.295671 0.383614 0.874882
0.676475405693 -0.414541870356 0.037976250052 0.353846 0.916590 0.186160
0.714654326439 -0.494140744209 0.102864369750 0.896653 0.417678 0.146829
0.743674755096 -0.581033170223 0.112726181746 0.737880 0.185621 0.648905
0.620039880276 -0.530731797218 0.203063592315 0.119258 -0.051111 0.991547
0.678780615330 -0.562161982059 0.190126538277 0.671386 0.708772 0.216526
0.678955256939 -0.630728900433 0.216564491391 0.766490 0.533140 0.358127
0.584829330444 -0.662346959114 0.233967661858 -0.052608 0.226335 0.972628
0.588852465153 -0.670518815517 0.236101314425 -0.052608 0.226335 0.972628
0.516304433346 -0.568842053413 0.224561512470 0.172630 0.083297 0.981458
0.555021405220 -0.579319357872 0.218638747931 0.172630 0.083297 0.981458
0.391683489084 -0.569824099541 0.237281188369 0.059148 0.088163 0.994348
0.423264652491 -0.503556430340 0.229499474168 0.059148 0.088163 0.994348
0.317861080170 -0.730038225651 0.247436538339 -0.005203 0.063479 0.997970
0.333028674126 -0.730683743954 0.247541561723 -0.005203 0.063479 0.997970
0.339642256498 -0.581656455994 0.238178372383 -0.005203 0.063479 0.997970
0.345996230841 -0.762066006660 0.249574184418 -0.005203 0.063479 0.997970
0.776264548302 -0.601229250431 0.019108857960 0.904787 0.409741 0.116070
0.765825092793 -0.577384293079 -0.017874483019 0.910622 0.412481 -0.025039
0.742455959320 -0.530831992626 -0.090749025345 0.909111 0.415631 -0.027709
0.787269055843 -0.630172193050 -0.107329629362 0.909111 0.415631 -0.027709
0.763317644596 -0.589541435242 -0.248678207397 0.904372 0.424720 -0.041534
0.778429985046 -0.620258569717 -0.234055548906 0.904372 0.424720 -0.041534
0.704320847988 -0.507415354252 -0.416924983263 0.869290 0.487308 -0.082856
0.696379959583 -0.461560487747 -0.228317067027 0.869290 0.487308 -0.082856
0.711215674877 -0.500433743000 -0.301826089621 0.869290 0.487308 -0.082856
0.670674622059 -0.450341612101 -0.245695680380 0.337182 0.928290 -0.156796
0.642372071743 -0.407167404890 -0.045392256230 0.323923 0.933174 -0.155759
0.637687623501 -0.405016034842 -0.042458552867 0.337327 0.928691 -0.154088
0.620194852352 -0.457350283861 -0.396521687508 0.337327 0.928691 -0.154088
0.540896117687 -0.401813954115 -0.235741123557 0.337327 0.928691 -0.154088
0.503864645958 -0.404956012964 -0.336028844118 0.337327 0.928691 -0.154088
0.531297087669 -0.416515439749 -0.345493346453 0.337327 0.928691 -0.154088
0.503581762314 -0.369701772928 -0.115667857230 0.325824 0.933479 -0.149852
0.533769130707 -0.363024622202 -0.007621817291 0.325824 0.933479 -0.149852
0.518324255943 -0.380655348301 -0.152370721102 0.325824 0.933479 -0.149852
0.548405349255 -0.374345451593 -0.046868357807 0.325824 0.933479 -0.149852
0.472208052874 -0.397939950228 -0.362018555403 0.325824 0.933479 -0.149852
0.611616194248 -0.391146451235 0.047187734395 0.352553 0.918903 0.176984
0.553865849972 -0.370590209961 0.055730342865 0.352553 0.918903 0.176984
0.448541849852 -0.390153855085 -0.357104629278 0.121756 0.980194 -0.156191
0.440099000931 -0.356979638338 -0.154963269830 0.121756 0.980194 -0.156191
0.409015715122 -0.375827521086 -0.298114746809 0.121756 0.980194 -0.156191
0.308466970921 -0.368508994579 -0.331372290850 0.121756 0.980194 -0.156191
0.452488899231 -0.373265028000 -0.247691020370 0.121756 0.980194 -0.156191
0.383074045181 -0.327985525131 -0.017457213253 0.121756 0.980194 -0.156191
0.332603096962 -0.340723484755 -0.137446731329 0.121756 0.980194 -0.156191
0.251941293478 -0.340055197477 -0.196872919798 0.121756 0.980194 -0.156191
0.302584141493 -0.311981946230 0.019774189219 0.121756 0.980194 -0.156191
0.273006886244 -0.354872345924 -0.273515552282 0.121756 0.980194 -0.156191
0.207363858819 -0.335649520159 -0.183000326157 0.042902 0.986740 -0.156533
0.216145768762 -0.367643415928 -0.381949126720 0.042902 0.986740 -0.156533
0.152479737997 -0.359473437071 -0.348090946674 0.042902 0.986740 -0.156533
0.116256833076 -0.345943838358 -0.272927999496 0.042902 0.986740 -0.156533
0.155635744333 -0.327018439770 -0.142946526408 0.042902 0.986740 -0.156533
0.242292851210 -0.305081546307 0.019032541662 0.042902 0.986740 -0.156533
0.099320001900 -0.340903788805 -0.245878309011 0.042902 0.986740 -0.156533
0.057304888964 -0.328710049391 -0.180721163750 0.042902 0.986740 -0.156533
0.093157216907 -0.303117871284 -0.009751670063 0.042902 0.986740 -0.156533
0.023180618882 -0.319516003132 -0.132267609239 0.042902 0.986740 -0.156533
0.060349166393 -0.312782108784 -0.079630017281 0.042902 0.986740 -0.156533
0.143287748098 -0.324226558208 -0.128780767322 0.042902 0.986740 -0.156533
-0.006703926716 -0.309904754162 -0.076315596700 -0.042902 0.986740 -0.156533
-0.151126295328 -0.315939247608 -0.074278756976 -0.042902 0.986740 -0.156533
-0.044139806181 -0.348165094852 -0.306753128767 -0.042902 0.986740 -0.156533
-0.015146106482 -0.345974057913 -0.300996690989 -0.042902 0.986740 -0.156533
-0.128459706903 -0.315209448338 -0.075966089964 -0.042902 0.986740 -0.156533
-0.011854118668 -0.321768939495 -0.149561509490 -0.042902 0.986740 -0.156533
-0.211571723223 -0.316429346800 -0.060614511371 -0.042902 0.986740 -0.156533
-0.074292726815 -0.352815926075 -0.327670484781 -0.042902 0.986740 -0.156533
-0.157777547836 -0.363350927830 -0.370844870806 -0.042902 0.986740 -0.156533
-0.205885604024 -0.338514149189 -0.201191961765 -0.042902 0.986740 -0.156533
-0.242654100060 -0.342222571373 -0.214344635606 -0.042902 0.986740 -0.156533
-0.232261881232 -0.374049901962 -0.417545735836 -0.042902 0.986740 -0.156533
-0.374163568020 -0.337386637926 -0.083210065961 -0.124178 0.979897 -0.156144
-0.336010485888 -0.328116655350 -0.055010635406 -0.124178 0.979897 -0.156144
-0.256388127804 -0.342748433352 -0.210013628006 -0.124178 0.979897 -0.156144
-0.249448999763 -0.346930384636 -0.241817295551 -0.124178 0.979897 -0.156144
-0.330186665058 -0.346423864365 -0.174836948514 -0.124178 0.979897 -0.156144
-0.343491107225 -0.368084192276 -0.300653904676 -0.124178 0.979897 -0.156144
-0.437577992678 -0.398354977369 -0.416836291552 -0.124178 0.979897 -0.156144
-0.340138584375 -0.359443485737 -0.248918473721 -0.124178 0.979897 -0.156144
-0.417151957750 -0.362320423126 -0.206175982952 -0.124178 0.979897 -0.156144
-0.437902629375 -0.360717415810 -0.179691165686 -0.124178 0.979897 -0.156144
-0.506716430187 -0.388957798481 -0.229394003749 -0.325957 0.933860 -0.147162
-0.517121732235 -0.381591051817 -0.160260409117 -0.325957 0.933860 -0.147162
-0.532250285149 -0.379358202219 -0.113102845848 -0.325957 0.933860 -0.147162
-0.495096296072 -0.393383860588 -0.282678186893 -0.325957 0.933860 -0.147162
-0.587759017944 -0.388418793678 -0.048663288355 -0.325957 0.933860 -0.147162
-0.639796853065 -0.447256803513 -0.292153865099 -0.337327 0.928691 -0.154088
-0.616983473301 -0.438383162022 -0.288781911135 -0.337327 0.928691 -0.154088
-0.500472366810 -0.408159732819 -0.362381219864 -0.337327 0.928691 -0.154088
-0.522340416908 -0.403012603521 -0.283470869064 -0.337327 0.928691 -0.154088
-0.578706324100 -0.411737740040 -0.212389707565 -0.337327 0.928691 -0.154088
-0.656635284424 -0.415852874517 -0.067018166184 -0.323923 0.933174 -0.155759
-0.669114589691 -0.441627502441 -0.196298703551 -0.323923 0.933174 -0.155759
-0.685503721237 -0.444867670536 -0.180078387260 -0.337182 0.928290 -0.156796
-0.724375426769 -0.490574955940 -0.074063286185 -0.886486 0.456422 -0.076302
-0.745597422123 -0.563892602921 -0.265839934349 -0.886486 0.456422 -0.076302
-0.698708653450 -0.466386944056 -0.226254329085 -0.886486 0.456422 -0.076302
-0.756952643394 -0.583069026470 -0.248996332288 -0.886486 0.456422 -0.076302
-0.722163617611 -0.536617219448 -0.398172020912 -0.853625 0.520370 -0.023219
-0.729515910149 -0.535470485687 -0.430835038424 -0.326917 0.351246 0.877355
-0.782446384430 -0.618780851364 -0.091895893216 -0.910107 0.413445 -0.027739
-0.743062436581 -0.526032149792 0.006227004342 -0.910622 0.412481 -0.025039
-0.781435132027 -0.617194890976 0.034286268055 -0.904787 0.409741 0.116070
-0.713659286499 -0.466605424881 0.029977271333 -0.896653 0.417678 0.146829
-0.694056391716 -0.508967041969 0.148482188582 -0.737880 0.185621 0.648905
-0.748503983021 -0.616225719452 0.120542109013 -0.755411 0.338075 0.561301
-0.700825512409 -0.632585406303 0.198349520564 -0.828458 0.394429 0.397597
-0.685889542103 -0.640553176403 0.231394052505 -0.319340 0.399561 0.859287
-0.652089655399 -0.524451434612 0.190462589264 -0.312598 0.379692 0.870699
-0.623272240162 -0.428898155689 0.157715827227 -0.317963 0.388621 0.864797
-0.485818028450 -0.447935998440 0.216199144721 -0.299037 0.438485 0.847530
-0.382656544447 -0.341759741306 0.176976174116 -0.059120 0.468837 0.881304
-0.445653080940 -0.344687759876 0.145460486412 -0.123926 0.980367 0.153374
-0.363133430481 -0.318951219320 0.047912977636 -0.123926 0.980367 0.153374
-0.381070017815 -0.322383671999 0.055403120816 -0.123926 0.980367 0.153374
-0.566962838173 -0.387594461441 0.119866348803 -0.373537 0.916355 0.144099
-0.469887077808 -0.336853086948 0.048215731978 -0.373537 0.916355 0.144099
-0.634378731251 -0.412004172802 0.109084457159 -0.352553 0.918903 0.176984
-0.636445999146 -0.419647246599 0.144503936172 -0.352553 0.918903 0.176984
-0.677047848701 -0.411423951387 0.020789928734 -0.353846 0.916590 0.186160
-0.301254451275 -0.378628015518 0.202119290829 -0.062161 0.471040 0.879919
-0.379161804914 -0.477358311415 0.236929088831 -0.005143 0.048346 0.998817
-0.283139169216 -0.453897565603 0.236399352551 -0.005143 0.048346 0.998817
-0.450976550579 -0.626551926136 0.243620783091 -0.005143 0.048346 0.998817
-0.495410025120 -0.543637156487 0.239570632577 -0.001024 0.048149 0.998840
-0.561403572559 -0.579276442528 0.241152465343 -0.001024 0.048149 0.998840
-0.523881137371 -0.609506964684 0.242656454444 -0.001024 0.048149 0.998840
-0.564517796040 -0.595074951649 0.241899028420 -0.001024 0.048149 0.998840
-0.483391463757 -0.481650084257 0.232701018453 -0.319340 0.399561 0.859287
-0.670254707336 -0.652724385262 0.242880091071 -0.319340 0.399561 0.859287
0.432038724422 -0.225020959973 0.237170606852 -0.001284 0.917945 0.396706
0.198890462518 -0.216779127717 0.218105167150 -0.001284 0.917945 0.396706
0.353309303522 -0.234665974975 0.209692910314 0.981461 0.073459 -0.177024
0.339013099670 -0.284220248461 0.207294866443 0.828276 -0.278164 0.486399
0.333684355021 -0.326614230871 0.189139515162 0.381680 -0.410187 0.828292
0.279742419720 -0.256926327944 0.225931063294 -0.381680 -0.410187 0.828292
0.264273315668 -0.251409590244 0.212269127369 -0.981168 -0.085898 0.173005
0.254741072655 -0.209393471479 0.178142338991 -0.970972 0.050202 -0.233866
0.268038362265 -0.281621873379 0.133009538054 -0.603414 0.264489 -0.752288
0.292206346989 -0.287800014019 0.118200309575 -0.193180 0.399431 -0.896179
0.264638930559 -0.266001611948 0.347992539406 -0.001300 0.903843 0.427862
0.339464992285 -0.258384138346 0.331956356764 -0.001300 0.903843 0.427862
0.439540565014 -0.179480522871 0.122913159430 0.706549 0.304186 -0.638952
0.253413677216 -0.137149423361 0.075761064887 -0.257761 0.414528 -0.872769
0.192197874188 -0.240611374378 0.294475376606 -0.001300 0.903843 0.427862
-0.226920425892 1.427093982697 0.236478134990 0.000978 0.000978 0.999999
-0.278773844242 1.387170910835 0.236478134990 0.000978 0.000978 0.999999
-0.253985434771 1.342612028122 0.236478134990 0.000978 0.000978 0.999999
-0.530021309853 1.503090023994 0.236478134990 0.000978 0.000978 0.999999
-0.408587634563 1.480974555016 0.236478134990 0.000978 0.000978 0.999999
-0.344064474106 1.327538371086 0.236478134990 0.000978 0.000978 0.999999
-0.597317755222 1.506230235100 0.236478134990 0.000978 0.000978 0.999999
-0.512277185917 1.378069281578 0.236478134990 0.000978 0.000978 0.999999
-0.165572345257 1.286316514015 0.236478134990 0.000978 0.000978 0.999999
0.369035720825 1.323706030846 0.236478134990 0.000978 0.000978 0.999999
-0.461803615093 1.326253056526 0.236478134990 0.000978 0.000978 0.999999
-0.514561891556 1.339880585670 0.236478134990 0.000978 0.000978 0.999999
-0.337464988232 1.445489168167 0.236478134990 0.000978 0.000978 0.999999
-0.474251389503 1.310289859772 0.236478134990 0.000978 0.000978 0.999999
-0.250919222832 1.449593544006 0.236478134990 0.000978 0.000978 0.999999
0.272308379412 1.348460793495 0.236478134990 0.000978 0.000978 0.999999
0.376608073711 1.413646578789 0.236478134990 0.000978 0.000978 0.999999
0.518334209919 1.388764977455 0.236478134990 0.000978 0.000978 0.999999
0.510295867920 1.329570055008 0.236478134990 0.000978 0.000978 0.999999
0.243068903685 1.487187027931 0.236478134990 0.000978 0.000978 0.999999
-0.074604928493 1.419962167740 0.236478134990 0.000978 0.000978 0.999999
0.402546077967 1.359151005745 0.236478134990 0.000978 0.000978 0.999999
0.396732300520 1.483940243721 0.236478134990 0.000978 0.000978 0.999999
0.556108653545 1.414969682693 0.236478134990 0.000978 0.000978 0.999999
-0.101999282837 1.462477922440 0.236478134990 0.000978 0.000978 0.999999
0.559375882149 1.415866017342 0.236478134990 0.000978 0.000978 0.999999
0.641045153141 1.362729549408 0.236478134990 0.000978 0.000978 0.999999
0.609277069569 1.309720993042 0.236478134990 0.000978 0.000978 0.999999
0.473285555840 1.409841299057 0.236478134990 0.000978 0.000978 0.999999
0.444000452757 1.327836275101 0.236478134990 0.000978 0.000978 0.999999
0.586278617382 1.326664090157 0.236478134990 0.000978 0.000978 0.999999
0.139282941818 1.399353861809 0.236478134990 0.000978 0.000978 0.999999
0.031784117222 1.538936972618 0.236478134990 0.000978 0.000978 0.999999
0.242795199156 1.553500175476 0.236478134990 0.000978 0.000978 0.999999
0.344148129225 1.579398155212 0.236478134990 0.000978 0.000978 0.999999
0.336907595396 1.530846595764 0.236478134990 0.000978 0.000978 0.999999
-0.312732875347 1.544876933098 0.236478134990 0.000978 0.000978 0.999999
-0.396595805883 1.599511265755 0.236478134990 0.000978 0.000978 0.999999
-0.341208815575 1.552070260048 0.236478134990 0.000978 0.000978 0.999999
-0.284031808376 1.589077115059 0.236478134990 0.000978 0.000978 0.999999
-0.156538546085 -0.121902436018 -0.359923630953 -0.000983 0.006883 -0.999976
-0.106022432446 -0.095603279769 -0.359827905893 -0.000983 0.006883 -0.999976
-0.161511629820 -0.129041731358 -0.359961986542 -0.000983 0.006883 -0.999976
-0.103588245809 0.172669991851 -0.349795520306 0.999999 0.000978 -0.000978
-0.103576101363 0.047023504972 -0.327531069517 0.999999 0.000978 -0.000978
-0.104219235480 0.345924913883 -0.305071175098 0.999626 0.017217 0.021269
-0.105965353549 0.342686623335 -0.160449549556 0.999573 0.029192 -0.001007
-0.106351926923 0.344831258059 -0.115154132247 0.999482 0.031392 0.007089
-0.108423955739 0.409119933844 -0.101231947541 0.999482 0.031392 0.007089
-0.121673859656 0.466152489185 0.135450020432 0.992997 0.114278 0.029956
-0.120575368404 0.463232070208 0.110192164779 0.992997 0.114278 0.029956
-0.143974721432 0.487387031317 0.265585064888 0.181075 -0.842525 0.507311
-0.148142486811 0.402942657471 0.121538445354 0.001316 -0.888291 0.459279
-0.211582690477 0.422750294209 0.148928701878 -0.433297 -0.800553 0.413968
-0.224045246840 0.468695402145 0.238380134106 0.001282 -0.919277 0.393609
-0.346272528172 0.416397690773 0.116640865803 0.001282 -0.919277 0.393609
-0.270922005177 0.425283074379 0.137311920524 0.001282 -0.919277 0.393609
-0.233434155583 0.463890790939 0.227195471525 0.001282 -0.919277 0.393609
-0.337582707405 0.474711328745 0.252413272858 0.001282 -0.919277 0.393609
-0.249265849590 0.478403389454 0.260989427567 0.001282 -0.919277 0.393609
-0.324395239353 0.487045615911 0.281128764153 0.001282 -0.919277 0.393609
-0.409106671810 0.479109793901 0.262670814991 0.001282 -0.919277 0.393609
-0.455865442753 0.444118052721 0.181208565831 0.001282 -0.919277 0.393609
-0.545332610607 0.486560374498 0.280049443245 0.001282 -0.919277 0.393609
-0.566319942474 0.408377528191 0.129921749234 0.344796 -0.832862 0.432962
-0.576337754726 0.388818055391 0.092098399997 -0.142908 -0.879101 0.454707
-0.623901546001 0.534813344479 0.270961374044 -0.294221 0.183715 0.937914
-0.526915431023 0.557238519192 0.294746935368 -0.275368 0.203413 0.939572
-0.604120254517 0.505241632462 0.070783168077 0.094464 0.940650 -0.325968
-0.608151853085 0.524186313152 0.124242067337 0.094464 0.940650 -0.325968
-0.655861675739 0.450360447168 -0.102637328207 0.094464 0.940650 -0.325968
-0.457423686981 0.445785552263 -0.116276696324 -0.001223 0.954848 -0.297091
-0.537096977234 0.464080572128 -0.057195767760 -0.001223 0.954848 -0.297091
-0.422247022390 0.504406452179 0.072940394282 -0.001223 0.954848 -0.297091
-0.358697652817 0.491719663143 0.031967453659 -0.001223 0.954848 -0.297091
-0.340859889984 0.453763067722 -0.090561732650 -0.001223 0.954848 -0.297091
-0.370923072100 0.481047213078 -0.002479255199 -0.001223 0.954848 -0.297091
-0.629710614681 0.433683037758 -0.155289798975 -0.001223 0.954848 -0.297091
-0.408014178276 0.518857002258 0.119581997395 -0.001223 0.954848 -0.297091
-0.524986505508 0.493620216846 0.038154333830 -0.001223 0.954848 -0.297091
-0.369988083839 0.484340190887 0.008150175214 -0.001223 0.954848 -0.297091
-0.387091428041 0.449266999960 -0.105060487986 -0.001223 0.954848 -0.297091
-0.395840555429 0.443814337254 -0.122658967972 -0.001223 0.954848 -0.297091
-0.397773921490 0.454321742058 -0.088740631938 -0.001223 0.954848 -0.297091
-0.251104772091 0.496605217457 0.047704324126 -0.001223 0.954848 -0.297091
-0.428431510925 0.553829133511 0.232478097081 -0.001223 0.954848 -0.297091
-0.264283597469 0.514499247074 0.105470061302 -0.001223 0.954848 -0.297091
-0.344262570143 0.546975672245 0.210328578949 -0.001223 0.954848 -0.297091
-0.262264311314 0.552980482578 0.229685947299 -0.001223 0.954848 -0.297091
-0.238208919764 0.493585228920 0.037951856852 -0.001223 0.954848 -0.297091
-0.496482253075 0.570524275303 0.286391198635 -0.001223 0.954848 -0.297091
-0.134527310729 0.573139309883 0.254603356123 -0.114498 0.938883 -0.324635
-0.212250947952 0.564161479473 0.256199955940 -0.114498 0.938883 -0.324635
-0.163072526455 0.521956861019 0.117217019200 -0.114498 0.938883 -0.324635
-0.249820545316 0.572327911854 0.297009319067 0.000985 -0.008867 0.999960
-0.287415385246 0.503884851933 0.296358436346 0.000985 -0.008867 0.999960
-0.331182241440 0.516420900822 0.296477705240 0.000985 -0.008867 0.999960
-0.123954586685 0.505238473415 0.159341126680 0.998885 0.009258 0.046292
-0.115452475846 0.474758505821 -0.021706223488 0.998885 0.009258 0.046292
-0.417849481106 0.411546558142 -0.231135100126 -0.001211 0.960094 -0.279674
-0.115108951926 0.378683656454 -0.344630539417 -0.001211 0.960094 -0.279674
-0.242438703775 0.406060963869 -0.250121742487 -0.001211 0.960094 -0.279674
-0.184679806232 0.405391782522 -0.252449959517 -0.001211 0.960094 -0.279674
-0.590252757072 0.426484644413 -0.179533287883 -0.001211 0.960094 -0.279674
-0.161254733801 0.401868164539 -0.264616131783 -0.001211 0.960094 -0.279674
-0.409224450588 0.382723033428 -0.330593228340 -0.001211 0.960094 -0.279674
-0.478728234768 0.404360562563 -0.255909979343 -0.001211 0.960094 -0.279674
-0.468572258949 0.390483498573 -0.303795814514 -0.001211 0.960094 -0.279674
-0.664252638817 0.407089412212 -0.246431112289 -0.001211 0.960094 -0.279674
-0.378233850002 0.389575690031 -0.306958824396 -0.001211 0.960094 -0.279674
-0.338344424963 0.384018391371 -0.326147645712 -0.001211 0.960094 -0.279674
-0.255142778158 0.217755526304 -0.357813030481 -0.000983 0.006883 -0.999976
-0.298437982798 0.274642556906 -0.357459753752 -0.000983 0.006883 -0.999976
-0.217140212655 0.300749152899 -0.357297658920 -0.000983 0.006883 -0.999976
-0.578199505806 -0.047374870628 -0.359459310770 -0.000983 0.006883 -0.999976
-0.565049350262 0.278652042150 -0.357434689999 -0.000983 0.006883 -0.999976
-0.660351455212 0.301436662674 -0.357293128967 -0.000983 0.006883 -0.999976
-0.396735548973 0.160892993212 -0.358166068792 -0.000983 0.006883 -0.999976
-0.493917196989 -0.033666003495 -0.359374254942 -0.000983 0.006883 -0.999976
-0.286095499992 0.251484751701 -0.357603549957 -0.000983 0.006883 -0.999976
-0.419485002756 0.049049284309 -0.358860611916 -0.000983 0.006883 -0.999976
-0.492541104555 0.238689541817 -0.357682883739 -0.000983 0.006883 -0.999976
-0.419256091118 0.139002889395 -0.358301997185 -0.000983 0.006883 -0.999976
-0.228415012360 0.320449590683 -0.357175320387 -0.000983 0.006883 -0.999976
-0.276527404785 0.340636909008 -0.357049942017 -0.000983 0.006883 -0.999976
-0.465575754642 0.326057553291 -0.357140362263 -0.000983 0.006883 -0.999976
-0.183401226997 0.284780144691 -0.357395946980 0.000983 0.006883 -0.999976
-0.348842561245 -0.103428736329 -0.359753668308 0.000983 0.006883 -0.999976
-0.476765334606 -0.062088102102 -0.359542697668 0.000983 0.006883 -0.999976
-0.487083852291 -0.097369492054 -0.359755694866 0.000983 0.006883 -0.999976
-0.466582983732 -0.097853511572 -0.359752923250 0.000983 0.006883 -0.999976
-0.295065313578 -0.037844017148 -0.359348237514 0.000983 0.006883 -0.999976
-0.242451280355 -0.026208676398 -0.359264433384 0.000983 0.006883 -0.999976
-0.327548623085 0.087655544281 -0.358609706163 0.000983 0.006883 -0.999976
-0.222630292177 0.157202780247 -0.358166575432 0.000983 0.006883 -0.999976
-0.525286376476 -0.141724273562 -0.279432564974 -0.046094 -0.992717 -0.111301
-0.564412772655 -0.132662236691 -0.343581348658 -0.046094 -0.992717 -0.111301
-0.633623123169 -0.121447511017 -0.245650544763 -0.108252 -0.993950 0.018589
-0.674490869045 -0.117663435638 -0.283652454615 -0.108252 -0.993950 0.018589
-0.680362880230 0.130187138915 -0.280425786972 -0.999999 -0.000978 0.000978
-0.680345416069 -0.047412909567 -0.296393632889 -0.999999 -0.000978 0.000978
-0.680349051952 -0.010344520211 -0.221471056342 -0.999999 -0.000978 0.000978
-0.680341243744 -0.089704334736 -0.265399187803 -0.999999 -0.000978 0.000978
-0.680363237858 0.133652150631 -0.357373058796 -0.999999 -0.000978 0.000978
-0.680369615555 0.198774993420 -0.322504937649 -0.999999 -0.000978 0.000978
-0.616543114185 -0.018316425383 -0.359294772148 0.000983 0.006883 -0.999976
-0.672406196594 0.064964592457 -0.358803719282 0.000983 0.006883 -0.999976
-0.614075064659 0.045651644468 -0.358885973692 0.000983 0.006883 -0.999976
-0.678531706333 0.364876270294 -0.273468732834 -0.999488 0.019358 0.025471
-0.680039107800 0.361937016249 -0.332551300526 -0.999488 0.019358 0.025471
-0.680316269398 0.261030912399 -0.222759783268 -0.999443 0.033348 -0.001011
-0.666171312332 0.258377254009 -0.240019232035 0.001028 -0.998513 0.054502
-0.628210127354 0.257234662771 -0.261343389750 0.001028 -0.998513 0.054502
-0.570069134235 0.036973297596 -0.220339521766 -0.001154 0.201881 0.979409
-0.617640852928 0.051129102707 -0.223241925240 -0.001154 0.201881 0.979409
-0.589448869228 -0.080825492740 -0.196034193039 0.022419 0.206494 0.978191
-0.647183179855 -0.086173273623 -0.193567782640 0.022419 0.206494 0.978191
-0.567093908787 -0.109466269612 -0.193951249123 0.882186 0.093969 0.461430
-0.536978781223 0.024014472961 -0.256338447332 0.338099 0.083530 0.937396
-0.515081822872 0.278294891119 -0.260685771704 0.483329 -0.867697 0.116171
-0.491197466850 0.279534935951 -0.285696268082 0.001100 -0.990809 0.135260
-0.443117350340 0.285337120295 -0.242929548025 0.001100 -0.990809 0.135260
-0.354974359274 0.083270370960 -0.267169952393 -0.001083 0.115898 0.993261
-0.381802409887 0.175459101796 -0.277867436409 -0.001083 0.115898 0.993261
-0.332577854395 0.129449591041 -0.272528141737 -0.001083 0.115898 0.993261
-0.367999017239 0.125106364489 -0.272024571896 -0.001083 0.115898 0.993261
-0.265124469995 0.121554598212 -0.271611273289 -0.001083 0.115898 0.993261
-0.239571154118 -0.086859710515 -0.247427508235 -0.001083 0.115898 0.993261
-0.231684356928 -0.082469291985 -0.247317209840 -0.890347 0.011942 0.455125
-0.358560621738 -0.145827397704 -0.290175497532 0.000983 -0.999976 0.006883
-0.460263729095 -0.037411462516 -0.253167718649 -0.001083 0.115898 0.993261
-0.396386831999 0.090622693300 -0.268023550510 -0.001083 0.115898 0.993261
-0.420650839806 -0.140583157539 -0.241195663810 -0.001083 0.115898 0.993261
-0.448470830917 -0.070751085877 -0.249298989773 -0.001083 0.115898 0.993261
-0.434785455465 0.167803719640 -0.276979744434 -0.001083 0.115898 0.993261
-0.431655585766 0.123805843294 -0.271874368191 -0.001083 0.115898 0.993261
-0.533973097801 -0.119209751487 -0.243677005172 -0.001083 0.115898 0.993261
-0.105051703751 -0.118598327041 -0.358837187290 0.218352 -0.973333 0.070317
-0.103581592441 0.104781329632 -0.284174233675 0.999999 0.000978 0.000978
-0.103562355042 -0.096580997109 -0.269295692444 0.999999 0.000978 0.000978
-0.103570945561 -0.006643190980 -0.310371935368 0.999999 0.000978 0.000978
-0.155209541321 0.207259818912 -0.254900455475 -0.001158 0.207235 0.978290
-0.139001041651 0.086062192917 -0.229246616364 -0.001158 0.207235 0.978290
-0.149770870805 0.258164137602 -0.244928091764 0.001028 -0.998513 0.054502
-0.239559575915 0.307592570782 -0.133018985391 -0.683659 -0.683659 0.255381
-0.257804661989 0.356790304184 -0.026436626911 0.001257 -0.936483 0.350710
-0.305095732212 0.360583662987 -0.016301997006 0.001257 -0.936483 0.350710
-0.389508038759 0.361611366272 -0.013537576422 0.001257 -0.936483 0.350710
-0.432012647390 0.341789543629 -0.066419214010 0.001257 -0.936483 0.350710
-0.358769774437 0.311858683825 -0.146306276321 0.001257 -0.936483 0.350710
-0.551330447197 0.362958163023 0.024494437501 0.262887 -0.903214 0.339256
-0.558975875378 0.280112802982 -0.133485883474 0.617768 -0.699700 0.358863
-0.650056838989 0.356114804745 0.031177490950 0.001316 -0.888291 0.459279
-0.656731903553 0.287452548742 -0.101956084371 0.001316 -0.888291 0.459279
-0.628686547279 0.270199656487 -0.135414391756 0.001316 -0.888291 0.459279
-0.675239384174 0.409760892391 -0.153030574322 -0.999322 0.035654 0.009168
-0.671332120895 0.396106272936 0.062357574701 -0.990944 0.129646 0.034948
-0.674469590187 0.385349333286 0.012129366398 -0.990944 0.129646 0.034948
-0.652520835400 0.524673104286 0.243399351835 -0.998670 0.009314 0.050710
-0.665261685848 0.457438915968 0.010738232173 -0.998670 0.009314 0.050710
-0.655321180820 0.471444785595 0.232558444142 0.001335 -0.864020 0.503455
-0.613719761372 0.404908806086 0.118349820375 0.001335 -0.864020 0.503455
-0.307971447706 0.285042762756 -0.245198875666 0.001100 -0.990809 0.135260
-0.230314686894 0.197706907988 -0.265472024679 -0.380507 0.185228 0.906038
-0.178430706263 -0.080108813941 -0.195752546191 -0.024688 0.201028 0.979274
-0.226584643126 0.348384648561 -0.010368537158 -0.432182 -0.801705 0.412902
-0.201052486897 0.325578480959 -0.028117433190 0.001316 -0.888291 0.459279
-0.136271402240 0.290817350149 -0.095530949533 0.001316 -0.888291 0.459279
0.644179046154 0.247760549188 -0.357603520155 -0.000983 0.006883 -0.999976
0.627475917339 0.091616779566 -0.358576357365 -0.000983 0.006883 -0.999976
0.658473610878 0.176228985190 -0.358076483011 -0.000983 0.006883 -0.999976
0.669148087502 -0.100112080574 -0.359848231077 -0.000983 0.006883 -0.999976
0.575098812580 -0.132632628083 -0.278791010380 0.190477 -0.979078 0.071581
0.554000258446 -0.135418727994 -0.253204137087 0.484725 -0.874641 0.006677
0.519057750702 0.205543398857 -0.278270512819 -0.863080 0.012118 0.504922
0.412571668625 0.184993401170 -0.278964817524 -0.001083 0.115898 0.993261
0.513782501221 0.019962871447 -0.259814172983 -0.001083 0.115898 0.993261
0.412437677383 0.202597722411 -0.281007528305 -0.001083 0.115898 0.993261
0.505586504936 0.058027140796 -0.264231085777 -0.001083 0.115898 0.993261
0.497675508261 0.215209394693 -0.282469958067 -0.001083 0.115898 0.993261
0.469074040651 0.287675738335 -0.226331278682 0.001100 -0.990809 0.135260
0.398165315390 0.289928525686 -0.209664419293 0.001100 -0.990809 0.135260
0.205329552293 0.261473506689 -0.226629570127 0.392159 -0.918582 0.049186
0.196742296219 0.260675460100 -0.198844715953 0.001028 -0.998513 0.054502
0.127487927675 0.261099725962 -0.190825775266 0.001028 -0.998513 0.054502
0.103472582996 0.296527385712 -0.219800949097 -0.999573 0.029192 -0.001007
0.105453617871 0.385299921036 -0.220284312963 -0.999626 0.017217 0.021269
0.193120181561 0.384065240622 -0.326165616512 -0.001211 0.960094 -0.279674
0.241811156273 0.422698378563 -0.192877009511 -0.001211 0.960094 -0.279674
0.604852318764 0.425151586533 -0.184535264969 -0.001211 0.960094 -0.279674
0.186832845211 0.409962385893 -0.236804381013 -0.001211 0.960094 -0.279674
0.411178678274 0.413675248623 -0.224068999290 -0.001211 0.960094 -0.279674
0.161238282919 0.414310932159 -0.221790999174 -0.001211 0.960094 -0.279674
0.666737616062 0.418808132410 -0.206444486976 -0.001211 0.960094 -0.279674
0.304958671331 0.385933309793 -0.319757610559 -0.001211 0.960094 -0.279674
0.503520965576 0.397912472486 -0.278490424156 -0.001211 0.960094 -0.279674
0.501292765141 0.394971132278 -0.288638889790 -0.001211 0.960094 -0.279674
0.582081973553 0.379546910524 -0.341888129711 -0.001211 0.960094 -0.279674
0.535975456238 0.414617866278 -0.220858782530 -0.001211 0.960094 -0.279674
0.677082359791 0.378381520510 -0.278204232454 0.999538 0.019359 0.023435
0.675833940506 0.403474628925 -0.245833456516 0.999538 0.019359 0.023435
0.678532958031 0.278105169535 -0.156870767474 0.999443 0.033348 -0.001011
0.675227701664 0.361949265003 -0.106394946575 0.999322 0.035654 0.009168
0.676926076412 0.318915873766 -0.128389701247 0.999322 0.035654 0.009168
0.661256432533 0.443346738815 0.139978989959 0.990944 0.129646 0.034948
0.661360621452 0.455906659365 0.089338049293 0.990944 0.129646 0.034948
0.647052347660 0.403476983309 0.122021093965 0.158364 -0.845101 0.510613
0.633765101433 0.376957118511 0.071288019419 0.001316 -0.888291 0.459279
0.602356255054 0.448639065027 0.209504246712 0.001316 -0.888291 0.459279
0.561171114445 0.421047598124 0.150357723236 -0.387374 -0.817789 0.425633
0.474596083164 0.380826443434 0.033631056547 0.001282 -0.919277 0.393609
0.378645956516 0.401744186878 0.082357145846 0.001282 -0.919277 0.393609
0.337320417166 0.396025359631 0.069051072001 0.001282 -0.919277 0.393609
0.452696204185 0.421495378017 0.128328204155 0.001282 -0.919277 0.393609
0.234060525894 0.485490620136 0.277382463217 0.001282 -0.919277 0.393609
0.395906805992 0.446873366833 0.187430411577 0.001282 -0.919277 0.393609
0.295008361340 0.417474478483 0.119002148509 0.001282 -0.919277 0.393609
0.259000420570 0.383019030094 0.038785457611 0.001282 -0.919277 0.393609
0.276918709278 0.474487513304 0.251753449440 0.001282 -0.919277 0.393609
0.401558518410 0.462426096201 0.223641604185 0.001282 -0.919277 0.393609
0.207889959216 0.385734677315 0.081049814820 0.386366 -0.818841 0.424525
0.186336085200 0.408365130424 0.127064958215 -0.161868 -0.876422 0.453523
0.212764114141 0.547880113125 0.288746744394 -0.310618 0.200988 0.929043
0.164859250188 0.544456064701 0.182220995426 0.108531 0.939261 -0.325592
0.116843372583 0.478405803442 -0.024303421378 0.108531 0.939261 -0.325592
0.145018711686 0.527399241924 0.126404449344 0.108531 0.939261 -0.325592
0.210929647088 0.522108078003 0.129882410169 -0.001223 0.954848 -0.297091
0.466596305370 0.559696793556 0.251137763262 -0.001223 0.954848 -0.297091
0.355094075203 0.553316950798 0.230579152703 -0.001223 0.954848 -0.297091
0.319316387177 0.560385644436 0.253408133984 -0.001223 0.954848 -0.297091
0.306016355753 0.537529051304 0.179631292820 -0.001223 0.954848 -0.297091
0.247747480869 0.528329491615 0.149953737855 -0.001223 0.954848 -0.297091
0.202217310667 0.494761407375 0.041610240936 -0.001223 0.954848 -0.297091
0.242524176836 0.436388760805 -0.146829336882 -0.001223 0.954848 -0.297091
0.243481248617 0.451583236456 -0.097782045603 -0.001223 0.954848 -0.297091
0.385015189648 0.504494428635 0.072970300913 -0.001223 0.954848 -0.297091
0.360541224480 0.516131103039 0.110541373491 -0.001223 0.954848 -0.297091
0.400218486786 0.453273952007 -0.092374011874 -0.001223 0.954848 -0.297091
0.633473396301 0.458599925041 -0.075255692005 -0.001223 0.954848 -0.297091
0.484065830708 0.514141201973 0.104078873992 -0.001223 0.954848 -0.297091
0.426218420267 0.531655311584 0.160632774234 -0.001223 0.954848 -0.297091
0.492044478655 0.487358629704 0.017622180283 -0.001223 0.954848 -0.297091
0.400690793991 0.449276953936 -0.105276495218 -0.001223 0.954848 -0.297091
0.563229501247 0.464887797832 -0.054936233908 -0.001223 0.954848 -0.297091
0.641290247440 0.446334809065 -0.114849984646 -0.001223 0.954848 -0.297091
0.409657359123 0.491881161928 0.032246977091 -0.001223 0.954848 -0.297091
0.427088588476 0.436836957932 -0.145441129804 -0.001223 0.954848 -0.297091
0.631098747253 0.543199002743 0.172037899494 -0.100236 0.939542 -0.327436
0.549073398113 0.544072031975 0.199959456921 -0.100236 0.939542 -0.327436
0.556373953819 0.546014130116 0.203294083476 -0.100236 0.939542 -0.327436
0.641004681587 0.535399496555 0.265076279640 0.290939 0.183388 0.939001
0.412023961544 0.544532716274 0.296744376421 0.000985 -0.008867 0.999960
0.226879030466 0.519919216633 0.296510457993 0.000985 -0.008867 0.999960
0.338998019695 0.508725821972 0.296403884888 0.000985 -0.008867 0.999960
0.667945027351 0.449819177389 -0.063552588224 0.998670 0.009314 0.050710
0.657160401344 0.498957812786 0.134710654616 0.998670 0.009314 0.050710
0.112546652555 0.447813093662 -0.054480630904 -0.998885 0.009258 0.046292
0.115493506193 0.480638653040 0.003996091895 -0.998885 0.009258 0.046292
0.108077809215 0.381048381329 0.046930775046 -0.992997 0.114278 0.029956
0.119160972536 0.467208832502 0.087351769209 -0.992997 0.114278 0.029956
0.104991555214 0.330086231232 -0.079426348209 -0.999463 0.031455 0.009132
0.104424141347 0.311851382256 -0.079936601222 -0.999463 0.031455 0.009132
0.150114521384 0.319330692291 -0.040298655629 0.001316 -0.888291 0.459279
0.181930020452 0.303722739220 -0.070568270981 0.001316 -0.888291 0.459279
0.210437491536 0.279082119465 -0.138908579946 0.667906 -0.661374 0.341302
0.282474786043 0.306947827339 -0.159578278661 0.001257 -0.936483 0.350710
0.310706704855 0.342737257481 -0.064084455371 0.001257 -0.936483 0.350710
0.363486200571 0.309830993414 -0.151905119419 0.001257 -0.936483 0.350710
0.339030921459 0.357514172792 -0.024661142379 0.001257 -0.936483 0.350710
0.392893165350 0.344637304544 -0.059035629034 0.001257 -0.936483 0.350710
0.416666269302 0.366785556078 0.000058079138 0.001257 -0.936483 0.350710
0.535847127438 0.294624626637 -0.139943361282 -0.634480 -0.723530 0.271920
0.555283546448 0.206455767155 -0.259612083435 -0.338468 0.188352 0.921935
0.604524552822 -0.027314413339 -0.206314802170 -0.022286 0.200577 0.979424
0.628128707409 -0.025712033734 -0.206113979220 -0.022286 0.200577 0.979424
0.672326207161 0.130709484220 -0.238680154085 -0.001158 0.207235 0.978290
0.674521267414 0.172454804182 -0.247516170144 -0.001158 0.207235 0.978290
0.651342391968 0.257883012295 -0.251621782780 0.001028 -0.998513 0.054502
0.586500465870 0.258709311485 -0.236132085323 0.001028 -0.998513 0.054502
0.657754480839 0.344793975353 0.008977459744 0.001316 -0.888291 0.459279
0.592176496983 0.328337222338 -0.022919379175 0.001316 -0.888291 0.459279
0.550942897797 0.346759498119 -0.002502769232 -0.386886 -0.819944 0.421913
0.679056465626 0.136784911156 -0.280994087458 0.999999 0.000978 -0.000978
0.679050624371 0.195989817381 -0.266079038382 0.999999 0.000978 -0.000978
0.679060637951 0.094060681760 -0.278366386890 0.999999 0.000978 -0.000978
0.674466013908 -0.117353431880 -0.281327903271 0.108252 -0.993950 0.018589
0.679044187069 0.261232942343 -0.304294735193 0.999999 0.000978 0.000978
0.679072737694 -0.029218494892 -0.349274665117 0.999999 0.000978 0.000978
0.184586077929 0.392190515995 0.096385970712 0.001335 -0.864020 0.503455
0.367120653391 0.208282336593 -0.357872247696 -0.000983 0.006883 -0.999976
0.184575170279 0.338089287281 -0.357066035271 -0.000983 0.006883 -0.999976
0.350414186716 0.194002896547 -0.357960909605 -0.000983 0.006883 -0.999976
0.221370190382 0.078792564571 -0.358676314354 -0.000983 0.006883 -0.999976
0.211839497089 0.251774787903 -0.357602059841 -0.000983 0.006883 -0.999976
0.210366412997 0.077773295343 -0.358682632446 -0.000983 0.006883 -0.999976
0.550758779049 0.353448748589 -0.356970876455 -0.000983 0.006883 -0.999976
0.140074849129 0.297290951014 -0.357319355011 -0.000983 0.006883 -0.999976
0.497914493084 0.333162635565 -0.357096821070 -0.000983 0.006883 -0.999976
0.506940543652 0.359684735537 -0.356932133436 -0.000983 0.006883 -0.999976
0.208913072944 -0.049141518772 -0.359470784664 -0.000983 0.006883 -0.999976
0.323586463928 0.354907900095 -0.356961667538 -0.000983 0.006883 -0.999976
0.254552990198 -0.005684016738 -0.359200924635 -0.000983 0.006883 -0.999976
0.643800079823 0.344926685095 -0.357023864985 -0.000983 0.006883 -0.999976
0.620770335197 0.184379041195 -0.357986658812 0.000983 0.006883 -0.999976
0.284067630768 -0.057083904743 -0.359516084194 0.000983 0.006883 -0.999976
0.325653553009 -0.040175765753 -0.359403967857 0.000983 0.006883 -0.999976
0.573387920856 0.200178712606 -0.357905924320 0.000983 0.006883 -0.999976
0.441084057093 0.038996621966 -0.358901113272 0.000983 0.006883 -0.999976
0.518288373947 0.169847011566 -0.358101606369 0.000983 0.006883 -0.999976
0.552594125271 -0.068825088441 -0.359511166811 0.000983 0.006883 -0.999976
0.592582523823 0.085307367146 -0.358583569527 0.000983 0.006883 -0.999976
0.307926118374 -0.029343277216 -0.359344512224 0.000983 0.006883 -0.999976
0.246806234121 -0.141911700368 -0.279558748007 -0.046186 -0.992432 -0.113775
0.472397893667 -0.145583227277 -0.339784711599 -0.046186 -0.992432 -0.113775
0.174295365810 -0.126249209046 -0.301481097937 -0.123058 -0.992221 0.018847
0.110371023417 -0.118643254042 -0.322334051132 -0.123058 -0.992221 0.018847
0.102394655347 -0.061449080706 -0.246975988150 -0.999999 -0.000978 0.000978
0.102379865944 0.089098565280 -0.278179049492 -0.999999 -0.000978 0.000978
0.102383993566 0.047129198909 -0.251223057508 -0.999999 -0.000978 0.000978
0.102380827069 0.079308122396 -0.249786317348 -0.999999 -0.000978 0.000978
0.102361530066 0.275667667389 -0.346750229597 -0.999999 -0.000978 0.000978
0.102381914854 0.068186238408 -0.323871582747 -0.999999 -0.000978 0.000978
0.102360665798 0.284479796886 -0.346627652645 -0.999999 -0.000978 0.000978
0.107972554862 -0.005064412951 -0.359250932932 0.000983 0.006883 -0.999976
0.165191352367 0.028645277023 -0.358990937471 0.000983 0.006883 -0.999976
0.127032592893 -0.110691994429 -0.188245028257 0.024835 0.206960 0.978034
0.196846827865 -0.037609428167 -0.205037295818 -0.001154 0.201881 0.979409
0.155514344573 0.176412910223 -0.248905345798 -0.001154 0.201881 0.979409
0.210704639554 0.068100273609 -0.250110596418 0.905156 0.086532 0.416179
0.222283989191 0.259724915028 -0.274882882833 0.379186 0.082314 0.921652
0.298516750336 0.041964020580 -0.262369543314 -0.001083 0.115898 0.993261
0.356239378452 -0.005209295079 -0.256895095110 -0.001083 0.115898 0.993261
0.342424720526 0.145987957716 -0.274439573288 -0.001083 0.115898 0.993261
0.315037906170 -0.102147184312 -0.245647296309 -0.001083 0.115898 0.993261
0.434749305248 -0.081676870584 -0.248021230102 -0.001083 0.115898 0.993261
0.396624714136 -0.026424359530 -0.254432946444 -0.001083 0.115898 0.993261
0.303711354733 -0.114845715463 -0.244173943996 -0.001083 0.115898 0.993261
0.328366458416 -0.145533680916 -0.258890151978 0.000983 -0.999976 0.006883
0.437940448523 -0.145681187510 -0.280739098787 0.000983 -0.999976 0.006883
0.622551023960 1.207536458969 0.245735153556 0.130244 -0.726072 0.675172
0.666115880013 1.048565983772 0.054124072194 -0.585262 -0.743267 0.324071
0.088457107544 1.172073245049 0.202803328633 0.001362 -0.815569 0.578659
-0.256290405989 1.204382777214 0.248562097549 0.001362 -0.815569 0.578659
0.276589810848 1.214432477951 0.262706816196 0.001362 -0.815569 0.578659
0.134256690741 1.147827863693 0.168494850397 0.001362 -0.815569 0.578659
0.189156174660 1.169802546501 0.199576944113 0.001362 -0.815569 0.578659
0.629646241665 1.068368434906 0.056008085608 0.001362 -0.815569 0.578659
0.072487592697 1.161861062050 0.188357442617 0.001362 -0.815569 0.578659
0.631863653660 1.079373359680 0.071577429771 0.001362 -0.815569 0.578659
0.546837627888 1.139577865601 0.156765863299 0.001362 -0.815569 0.578659
-0.149719446898 1.147939443588 0.168691843748 0.001362 -0.815569 0.578659
0.444393813610 1.154004454613 0.177190646529 0.001362 -0.815569 0.578659
0.598416328430 1.089649558067 0.086120858788 0.001362 -0.815569 0.578659
0.367192685604 1.042143702507 0.018941864371 0.001362 -0.815569 0.578659
0.425662636757 1.044785022736 0.022670820355 0.001362 -0.815569 0.578659
-0.200020164251 1.213801980019 0.261880457401 0.001362 -0.815569 0.578659
0.357597649097 1.207861185074 0.253398656845 0.001362 -0.815569 0.578659
0.538059473038 1.102421164513 0.104198068380 0.001362 -0.815569 0.578659
0.614881634712 1.005253076553 -0.033284932375 0.001362 -0.815569 0.578659
0.617105662823 1.112195730209 0.118016332388 0.001362 -0.815569 0.578659
0.116579830647 1.114341497421 0.121121123433 0.001362 -0.815569 0.578659
0.452562630177 1.116238951683 0.123759269714 0.001362 -0.815569 0.578659
0.353005468845 1.175653576851 0.207832217216 0.001362 -0.815569 0.578659
0.353035867214 1.150064587593 0.171629264951 0.001362 -0.815569 0.578659
-0.589881777763 1.050616621971 0.031062267721 0.001362 -0.815569 0.578659
-0.599122345448 1.138172388077 0.154935956001 0.001362 -0.815569 0.578659
-0.238320946693 1.064949750900 0.051291584969 0.001362 -0.815569 0.578659
-0.569739222527 1.086658477783 0.082050792873 0.001362 -0.815569 0.578659
-0.065617978573 1.070704936981 0.059410050511 0.001362 -0.815569 0.578659
0.225300073624 1.022227048874 -0.009216159582 0.001362 -0.815569 0.578659
-0.315949767828 1.109672069550 0.114574819803 0.001362 -0.815569 0.578659
0.401594340801 1.024578690529 -0.005913645029 0.001362 -0.815569 0.578659
-0.559763193130 1.148325800896 0.169295325875 0.001362 -0.815569 0.578659
-0.474233090878 1.153429508209 0.176504209638 0.001362 -0.815569 0.578659
-0.359692305326 1.173497676849 0.204880312085 0.001362 -0.815569 0.578659
-0.219834923744 1.137553811073 0.154008090496 0.001362 -0.815569 0.578659
-0.050258457661 1.019340634346 -0.013261541724 0.001362 -0.815569 0.578659
-0.128448724747 1.008213400841 -0.028993383050 0.001362 -0.815569 0.578659
-0.089127153158 1.110653042793 0.115931093693 0.001362 -0.815569 0.578659
-0.125997841358 1.079196929932 0.071432754397 0.001362 -0.815569 0.578659
-0.127805918455 1.035763978958 0.009984791279 0.001362 -0.815569 0.578659
0.186826646328 1.042796015739 0.019889816642 0.001362 -0.815569 0.578659
0.437727034092 1.020180463791 -0.012141078711 0.001362 -0.815569 0.578659
-0.177496075630 1.023426055908 -0.007463730872 0.001362 -0.815569 0.578659
-0.411498785019 0.986195266247 -0.060104861856 0.001362 -0.815569 0.578659
0.133407711983 1.043047428131 0.020252853632 0.001362 -0.815569 0.578659
-0.555673122406 1.141952991486 0.160278663039 0.001362 -0.815569 0.578659
0.289095997810 0.992089986801 -0.051862478256 0.001362 -0.815569 0.578659
0.088831841946 1.051433086395 0.032123059034 0.001362 -0.815569 0.578659
0.034879326820 1.063576579094 0.049310863018 0.001362 -0.815569 0.578659
-0.189676493406 1.008418202400 -0.028695017099 0.001362 -0.815569 0.578659
-0.152313917875 0.991017639637 -0.053318277001 0.001362 -0.815569 0.578659
-0.643206894398 1.122496843338 0.150101691484 -0.130244 -0.726072 0.675172
-0.645550727844 1.193336844444 0.084548987448 0.194463 0.788570 -0.583388
-0.643015682697 1.292341709137 0.219004854560 0.194463 0.788570 -0.583388
-0.482560902834 1.216274976730 0.135888293386 0.026287 0.825971 -0.563099
-0.287166059017 1.271592378616 0.226689413190 0.026287 0.825971 -0.563099
-0.534057676792 1.132573962212 0.010462175123 0.026287 0.825971 -0.563099
-0.639277279377 1.061869621277 -0.098513290286 0.026287 0.825971 -0.563099
-0.597351908684 1.176889538765 0.072431080043 0.026287 0.825971 -0.563099
-0.488128870726 1.283360719681 0.234120845795 0.026287 0.825971 -0.563099
-0.592299640179 1.107717752457 -0.028889833018 0.026287 0.825971 -0.563099
-0.338929891586 1.249244213104 0.191337674856 0.026287 0.825971 -0.563099
-0.419848561287 1.150441050529 0.039305895567 -0.001350 0.840871 -0.541234
-0.430626392365 1.141360402107 0.025209829211 -0.001350 0.840871 -0.541234
-0.259092152119 1.274042367935 0.231169953942 -0.001350 0.840871 -0.541234
-0.070005767047 1.263548254967 0.214849263430 -0.001350 0.840871 -0.541234
0.018705643713 1.256157279015 0.203361481428 -0.001350 0.840871 -0.541234
-0.297740072012 1.207100152969 0.127249434590 -0.001350 0.840871 -0.541234
0.055843502283 1.269292593002 0.223748207092 -0.001350 0.840871 -0.541234
-0.274128019810 1.223667502403 0.152966231108 -0.001350 0.840871 -0.541234
-0.227585256100 1.219839572906 0.147016555071 -0.001350 0.840871 -0.541234
0.040003240108 1.275562167168 0.233483940363 -0.001350 0.840871 -0.541234
0.148627310991 1.275599837303 0.233525946736 -0.001350 0.840871 -0.541234
-0.378646433353 1.138523936272 0.020798489451 -0.001350 0.840871 -0.541234
0.227254480124 1.081018686295 -0.068568810821 -0.001350 0.840871 -0.541234
0.367803812027 1.149045109749 0.037019319832 -0.001350 0.840871 -0.541234
0.305631697178 1.114316225052 -0.016887024045 -0.001350 0.840871 -0.541234
0.333223998547 1.067176580429 -0.090074479580 -0.001350 0.840871 -0.541234
0.235779017210 1.065252423286 -0.093046940863 -0.001350 0.840871 -0.541234
-0.182501733303 1.137629628181 0.019380360842 -0.001350 0.840871 -0.541234
-0.094004511833 1.193712830544 0.106434822083 -0.001350 0.840871 -0.541234
0.418736815453 1.169230103493 0.068348310888 -0.001350 0.840871 -0.541234
0.316759139299 1.105003595352 -0.031346485019 -0.001350 0.840871 -0.541234
-0.599653601646 1.056169390678 -0.107021629810 -0.001350 0.840871 -0.541234
0.273744076490 1.130286574364 0.007911294699 -0.001350 0.840871 -0.541234
0.183492213488 1.187838673592 0.097273223102 -0.001350 0.840871 -0.541234
0.363681793213 1.184384584427 0.091883808374 -0.001350 0.840871 -0.541234
0.371882319450 1.149665474892 0.037981905043 -0.001350 0.840871 -0.541234
-0.000681251287 1.101201176643 -0.037201493979 -0.001350 0.840871 -0.541234
