-0.728909075260 -1.713129162788 -0.693667054176 0.227787 -0.894982 -0.383564
-0.722847342491 -1.739228248596 -0.628994464874 0.227787 -0.894982 -0.383564
-0.578313827515 -1.693762660027 -0.639317750931 0.969369 0.245605 0.001186
-0.825054347515 -1.774701714516 -0.568321704865 0.243797 -0.960846 -0.131676
-0.666637361050 -1.737000823021 -0.549962520599 0.243797 -0.960846 -0.131676
-0.804788649082 -1.773290872574 -0.540851593018 0.243797 -0.960846 -0.131676
-0.587728679180 -1.656656384468 -0.386385649443 0.969369 0.245605 -0.001186
-0.598296701908 -1.615005016327 -0.344045728445 0.969369 0.245605 -0.001186
-0.610881090164 -1.565407037735 -0.292041450739 0.969369 0.245605 -0.001186
-0.609969854355 -1.568998456001 -0.259388715029 0.969369 0.245605 0.001186
-0.656487405300 -1.385661125183 -0.194775849581 0.969369 0.245605 0.001186
-0.855276226997 -1.345970869064 -0.202205002308 -0.032560 0.126870 0.991385
-0.907757937908 -1.412077307701 -0.195468485355 -0.032560 0.126870 0.991385
-0.857435107231 -1.707664132118 -0.387099921703 -0.969369 -0.245605 0.001186
-0.843213021755 -1.763717055321 -0.489923804998 -0.969369 -0.245605 -0.001186
-0.620697557926 -1.716003656387 -0.452167332172 0.243797 -0.960846 0.131676
-0.833032429218 -1.780658245087 -0.531531691551 0.243797 -0.960846 0.131676
-0.652719140053 -1.728573799133 -0.484896719456 0.243797 -0.960846 0.131676
-0.661228060722 -1.725449800491 -0.446251600981 0.227787 -0.894982 0.383564
-0.820789933205 -1.735773801804 -0.375672727823 0.227787 -0.894982 0.383564
-0.713004291058 -1.681014776230 -0.335379272699 0.194869 -0.768735 0.609157
-0.747582852840 -1.683968782425 -0.328028112650 0.194869 -0.768735 0.609157
-0.783701539040 -1.658422231674 -0.287425905466 0.148296 -0.591687 0.792411
-0.844282507896 -1.613541483879 -0.242613106966 0.148296 -0.591687 0.792411
-0.876727640629 -1.579226970673 -0.223119676113 0.093633 -0.370461 0.924117
-0.874224722385 -1.573913335800 -0.221241265535 0.093633 -0.370461 0.924117
-0.749043881893 -1.532363772392 -0.217311516404 0.093633 -0.370461 0.924117
-0.827969551086 -1.466922521591 -0.196634531021 0.032560 -0.126870 0.991385
-0.712782740593 -1.398693203926 -0.191657364368 0.032560 -0.126870 0.991385
-0.874160826206 -1.450260400772 -0.193012729287 0.032560 -0.126870 0.991385
-0.706894457340 -1.186994433403 -0.750059962273 0.969369 0.245605 -0.001186
-0.727874517441 -1.104306578636 -0.458860069513 0.969369 0.245605 -0.001186
-0.971998393536 -1.256141662598 -0.306774109602 -0.969369 -0.245605 0.001186
-0.614735424519 -1.550216078758 -0.769679248333 0.969369 0.245605 -0.001186
-0.657691121101 -1.423823595047 -0.806133747101 0.659729 0.262302 0.704241
-0.678219676018 -1.438300371170 -0.791720986366 -0.032560 0.126870 0.991385
-0.717794954777 -1.321388244629 -0.787214040756 0.093633 -0.370461 0.924117
-0.794792532921 -1.356508970261 -0.790649712086 0.032560 -0.126870 0.991385
-0.800564765930 -1.398261427879 -0.795790791512 0.032560 -0.126870 0.991385
-0.712730526924 -1.198266983032 -0.736363053322 0.788682 -0.245194 0.563791
-0.738027453423 -1.136077165604 -0.610015392303 0.842897 -0.463825 0.272747
-0.727518320084 -1.108726501465 -0.567513942719 0.856064 -0.508510 0.092586
-0.728869438171 -1.114639878273 -0.483394235373 0.856064 -0.508510 -0.092586
-0.741649210453 -1.145680665970 -0.455795407295 0.842897 -0.463825 -0.272747
-0.727892279625 -1.130594253540 -0.438723564148 0.842897 -0.463825 -0.272747
-0.701521992683 -1.208168625832 -0.293021321297 0.969369 0.245605 0.001186
-0.774099230766 -1.587445139885 -0.732791006565 -0.148296 0.591687 0.792411
-0.769313812256 -1.556547760963 -0.754868268967 -0.148296 0.591687 0.792411
-0.628748297691 -1.521464705467 -0.776023864746 0.576090 0.592984 0.562575
-0.647895455360 -1.511870265007 -0.765350282192 0.616087 0.435769 0.656157
-0.710931956768 -1.479529976845 -0.783620595932 -0.093633 0.370461 0.924117
-0.811920523643 -1.515362858772 -0.779521644115 -0.093633 0.370461 0.924117
-0.855748713017 -1.513404965401 -0.798600435257 -0.380892 0.281529 0.880718
-0.851409494877 -1.562765479088 -0.781030595303 -0.380892 0.281529 0.880718
-0.883338928223 -1.454146742821 -0.795855939388 0.188956 -0.738924 0.646751
-0.881659328938 -1.364024281502 -0.787149667740 -0.158905 0.625027 0.764258
-0.948832571507 -1.338647603989 -0.800456047058 -0.198678 -0.428262 0.881543
-0.948260784149 -1.242521524429 -0.727547824383 -0.103315 -0.807605 0.580603
-0.948947310448 -1.227834582329 -0.707258880138 -0.103315 -0.807605 0.580603
-0.869775593281 -1.167162299156 -0.556908249855 0.243797 -0.960846 0.131676
-0.819552958012 -1.159528017044 -0.476382255554 0.243797 -0.960846 -0.131676
-0.745588481426 -1.157353520393 -0.431444138288 0.227787 -0.894982 -0.383564
-0.871249079704 -1.237857341766 -0.357411921024 0.194869 -0.768735 -0.609157
-0.720309793949 -1.307439565659 -0.289545089006 0.093633 -0.370461 -0.924117
-0.790014028549 -1.327861785889 -0.288446456194 0.093633 -0.370461 -0.924117
-0.845824182034 -1.352892637253 -0.284082084894 0.093633 -0.370461 -0.924117
-0.737238585949 -1.365815639496 -0.277201950550 0.032560 -0.126870 -0.991385
-0.808348238468 -1.473407268524 -0.279448449612 -0.032560 0.126870 -0.991385
-0.785410165787 -1.542017221451 -0.304783165455 -0.093633 0.370461 -0.924117
-0.732727527618 -1.596879959106 -0.355269312859 -0.194869 0.768735 -0.609157
-0.683317124844 -1.619649529457 -0.399868130684 -0.194869 0.768735 -0.609157
-0.619994282722 -1.568823218346 -0.335709989071 0.576090 0.592984 -0.562575
-0.664387047291 -1.438539385796 -0.276550412178 0.659729 0.262302 -0.704241
-0.671641707420 -1.391788482666 -0.265879064798 0.659729 0.262302 -0.704241
-0.689469099045 -1.331659317017 -0.274928331375 0.706122 0.082988 -0.703210
-0.621032834053 -1.609934210777 -0.402843803167 0.521263 0.809289 -0.270806
-0.596244812012 -1.639894008636 -0.626439094543 0.521263 0.809289 0.270806
-0.724282145500 -1.655302047729 -0.615476727486 -0.227787 0.894982 0.383564
-0.780780076981 -1.643053531647 -0.668756544590 0.969369 0.245605 -0.001186
-0.814991891384 -1.614930987358 -0.730428099632 -0.431733 0.490830 0.756764
-0.860994160175 -1.326909899712 -0.549817860126 0.969369 0.245605 0.001186
-0.890443742275 -1.448815941811 -0.653522491455 -0.969369 -0.245605 -0.001186
-0.893108248711 -1.402087807655 -0.626169383526 -0.245820 0.967057 -0.066134
-0.913476228714 -1.267016291618 -0.594621658325 0.070255 -0.282299 -0.956751
-0.941316246986 -1.271330475807 -0.569104969501 -0.912552 -0.408351 0.022321
-0.894250392914 -1.433812975883 -0.574497699738 -0.969369 -0.245605 -0.001186
-0.853938937187 -1.514044404030 -0.492433279753 0.213824 -0.841648 -0.495890
-0.842965543270 -1.515072464943 -0.486412346363 0.208659 -0.820927 -0.531546
-0.891182422638 -1.445904850960 -0.476570665836 -0.969369 -0.245605 -0.001186
-0.975817143917 -1.180838227272 -0.451483249664 -0.073459 -0.928253 -0.364623
-0.928367614746 -1.214490056038 -0.385858565569 -0.103315 -0.807605 -0.580603
-0.869915187359 -1.291749596596 -0.570262491703 0.969369 0.245605 -0.001186
-0.860656201839 -1.574720382690 -0.602715373039 -0.989931 -0.133589 0.046813
-0.693358778954 -1.659617781639 -0.551686167717 -0.243797 0.960846 0.131676
-0.770727813244 -1.676175951958 -0.496596395969 -0.243797 0.960846 -0.131676
-0.771993339062 -1.679296374321 -0.516255140305 -0.522907 0.843351 -0.123808
-0.811797916889 -1.697090506554 -0.469805777073 -0.522907 0.843351 -0.123808
-0.867352128029 -1.648027896881 -0.353294193745 -0.985890 -0.028827 -0.164892
-0.881075203419 -1.331378579140 -0.533116698265 -0.086514 0.342064 0.935685
-0.891826212406 -1.386197566986 -0.404735803604 0.206608 -0.809597 0.549424
-0.854700803757 -1.367884278297 -0.391043603420 0.210923 -0.833071 0.511375
-0.840641140938 -1.571120500565 -0.303009569645 -0.244196 0.962572 -0.117576
-0.846519589424 -1.573621153831 -0.311349272728 -0.244196 0.962572 -0.117576
-0.770728647709 -1.651134133339 -0.418095648289 -0.227787 0.894982 -0.383564
-0.873643398285 -1.515030145645 -0.444973468781 -0.969369 -0.245605 -0.001186
-0.876276016235 -1.584421634674 -0.331278949976 -0.978179 -0.109783 -0.176393
-0.839835047722 -1.563031077385 -0.360818922520 -0.203444 0.800009 0.564443
-0.869453132153 -1.539669513702 -0.399135440588 -0.185757 0.729212 0.658593
-0.882052302361 -1.478247165680 -0.455211669207 -0.140766 0.555657 0.819409
-0.786802887917 -1.684094309807 -0.584271907806 -0.522907 0.843351 0.123808
-0.813950359821 -1.651695251465 -0.611446142197 0.063992 -0.254713 0.964897
-0.839237928391 -1.412656545639 -0.698681116104 0.969369 0.245605 0.001186
-0.857321739197 -1.620276927948 -0.630001246929 -0.994073 -0.086295 0.066122
-0.879495263100 -1.235810518265 -0.708262383938 0.194869 -0.768735 0.609157
-0.764730215073 -1.190636396408 -0.687981367111 0.194869 -0.768735 0.609157
-0.745899438858 -1.230528712273 -0.734909176826 0.148296 -0.591687 0.792411
-0.855670750141 -1.266594171524 -0.741018116474 0.148296 -0.591687 0.792411
-0.878560602665 -1.493932127953 -0.809467315674 -0.319720 0.047509 0.946320
-0.736276924610 -1.470989942551 -0.789429247379 -0.032560 0.126870 0.991385
-0.896540403366 -1.444816827774 -0.496640741825 -0.969369 -0.245605 0.001186
-0.902154326439 -1.404370546341 -0.525830149651 -0.243797 0.960846 0.131676
0.786748051643 1.233553051949 -0.538071930408 -0.999917 0.012857 -0.000989
0.787020385265 1.254006028175 -0.471445918083 -0.999917 0.012857 0.000989
0.789061665535 1.204333782196 -0.508202672005 0.301911 -0.922904 -0.238953
0.809078633785 1.342829704285 -0.353370755911 0.999917 -0.012857 0.000989
0.809430301189 1.369235277176 -0.734493255615 0.999917 -0.012857 0.000989
0.790969729424 1.289583683014 -0.354526042938 -0.009659 -0.793458 0.608548
0.789567291737 1.268469810486 -0.402529984713 -0.999917 0.012857 0.000989
0.789524376392 1.265244364738 -0.583847939968 -0.999917 0.012857 -0.000989
0.791455090046 1.410227775574 -0.680406272411 -0.999917 0.012857 -0.000989
0.801536619663 1.617614388466 -0.700018107891 0.006873 0.608965 -0.793167
0.800111114979 1.669319868088 -0.409947931767 0.011596 0.923813 0.382667
0.794644236565 1.649699568748 -0.554058194160 -0.999917 0.012857 -0.000989
0.794007062912 1.601855039597 -0.569265365601 -0.999917 0.012857 -0.000989
0.792970180511 1.523995161057 -0.720464527607 -0.999917 0.012857 0.000989
0.812182068825 1.575868248940 -0.596673250198 0.999917 -0.012857 -0.000989
0.810070693493 1.525469064713 -0.650171458721 -0.012186 -0.991490 -0.129614
0.808757364750 1.535114765167 -0.634120047092 -0.006873 -0.608965 0.793167
0.791313111782 1.399561405182 -0.644273936749 -0.999917 0.012857 -0.000989
0.792910337448 1.519503593445 -0.686423897743 -0.999917 0.012857 -0.000989
0.791444718838 1.409444570541 -0.712783217430 -0.999917 0.012857 0.000989
0.811557948589 1.529000163078 -0.708371877670 0.999917 -0.012857 -0.000989
0.795532643795 1.557656168938 -0.704236686230 -0.003843 -0.383066 -0.923713
0.811323046684 1.511363267899 -0.702386736870 0.999917 -0.012857 -0.000989
0.809733033180 1.460231661797 -0.716871798038 0.001098 0.130653 0.991428
0.812757551670 1.619082570076 -0.532298445702 0.999917 -0.012857 -0.000989
0.813640654087 1.685395598412 -0.503191828728 0.999917 -0.012857 0.000989
0.813293278217 1.659313440323 -0.493676304817 0.999917 -0.012857 0.000989
0.813075900078 1.642991662025 -0.403480440378 0.999917 -0.012857 0.000989
0.812129020691 1.571882367134 -0.354251712561 0.999917 -0.012857 -0.000989
0.793504238129 1.564093708992 -0.311950355768 -0.999917 0.012857 0.000989
0.791959583759 1.448106169701 -0.370014280081 -0.999917 0.012857 0.000989
0.791647255421 1.424652814865 -0.376258045435 -0.999917 0.012857 0.000989
0.804392933846 1.384667396545 -0.402406126261 -0.001098 -0.130653 -0.991428
0.805642604828 1.525571823120 -0.572660028934 -0.009659 -0.793458 0.608548
0.860782384872 1.404024600983 -0.519022107124 -0.999917 0.012857 0.000989
0.750486969948 1.407384753227 -0.518575489521 0.999917 -0.012857 -0.000989
0.750572264194 1.413788199425 -0.500478565693 0.999917 -0.012857 0.000989
0.861438930035 1.453324437141 -0.475301504135 -0.999917 0.012857 0.000989
0.761941134930 1.428939700127 -0.445519000292 0.003843 0.383066 -0.923713
0.751010060310 1.446667551994 -0.441240966320 0.999917 -0.012857 0.000989
0.790017485619 1.302271962166 -0.492785394192 -0.999917 0.012857 0.000989
0.796704649925 1.288657069206 -0.556917369366 -0.001098 -0.130653 0.991428
0.809149384499 1.348141908646 -0.377901434898 0.999917 -0.012857 0.000989
0.795930862427 1.591421842575 -0.601768553257 0.006873 0.608965 -0.793167
0.800659775734 1.545381784439 -0.546595692635 0.999917 -0.012857 0.000989
0.800798177719 1.555774569511 -0.474226236343 0.999917 -0.012857 -0.000989
0.798048377037 1.349287867546 -0.499971181154 0.999917 -0.012857 0.000989
0.798520445824 1.384733676910 -0.412153452635 0.999917 -0.012857 0.000989
0.799705743790 1.473742127419 -0.412064880133 0.999917 -0.012857 -0.000989
0.773769259453 1.223136186600 -0.436954081059 -0.999917 0.012857 0.000989
0.773902237415 1.233121633530 -0.511179089546 -0.999917 0.012857 -0.000989
0.774102628231 1.248170733452 -0.532588720322 -0.999917 0.012857 0.000989
0.788837611675 1.241698503494 -0.625641942024 0.011596 0.923813 -0.382667
0.819577634335 1.382404923439 -0.284988671541 0.011596 0.923813 -0.382667
0.774572670460 1.283468246460 -0.327587306499 -0.999917 0.012857 0.000989
0.824667096138 1.336968421936 -0.307138770819 0.999917 -0.012857 0.000989
0.824566006660 1.329379081726 -0.360239595175 0.999917 -0.012857 0.000989
0.823661983013 1.261496782303 -0.514301180840 0.999917 -0.012857 -0.000989
0.824672996998 1.337414622307 -0.389527976513 0.999917 -0.012857 0.000989
0.803601741791 1.200117111206 -0.572635591030 -0.012186 -0.991490 -0.129614
0.802449405193 1.376765966415 -0.271630972624 -0.003843 -0.383066 0.923713
0.916367053986 1.119217514992 -0.422835260630 -0.011596 -0.923813 0.382667
0.692184388638 1.125068902969 -0.415916740894 -0.011596 -0.923813 0.382667
0.712032973766 1.147121429443 -0.362043917179 -0.011596 -0.923813 0.382667
0.935055375099 1.191079139709 -0.294147670269 -0.009659 -0.793458 0.608548
0.784079968929 1.190483450890 -0.297543883324 -0.009659 -0.793458 0.608548
0.805188596249 1.200218200684 -0.284492224455 -0.009659 -0.793458 0.608548
0.673701047897 1.239196538925 -0.251573354006 -0.006873 -0.608965 0.793167
0.902552306652 1.215933918953 -0.267083376646 -0.006873 -0.608965 0.793167
0.844933688641 1.248375654221 -0.242780983448 -0.006873 -0.608965 0.793167
0.770077586174 1.264316558838 -0.231314972043 -0.006873 -0.608965 0.793167
0.955815196037 1.232856392860 -0.275296777487 0.999917 -0.012857 0.000989
0.954461634159 1.131215572357 -0.416799664497 0.999917 -0.012857 0.000989
0.954681873322 1.147750377655 -0.581294715405 0.999917 -0.012857 -0.000989
0.954520404339 1.135630846024 -0.579452455044 0.999917 -0.012857 -0.000989
0.794938743114 1.357614278793 -0.863429605961 -0.003843 -0.383066 -0.923713
0.734813511372 1.290735125542 -0.835398256779 -0.003843 -0.383066 -0.923713
0.841889023781 1.239298224449 -0.799835741520 -0.006873 -0.608965 -0.793167
0.867597579956 1.271849036217 -0.825073361397 -0.006873 -0.608965 -0.793167
0.671701073647 1.272331237793 -0.823441624641 -0.006873 -0.608965 -0.793167
0.717785716057 1.179414629936 -0.736494183540 -0.009659 -0.793458 -0.608548
0.661572456360 1.201815366745 -0.764709532261 -0.009659 -0.793458 -0.608548
0.902813434601 1.159445762634 -0.713683724403 -0.009659 -0.793458 -0.608548
0.738708376884 1.144805312157 -0.682834982872 -0.011596 -0.923813 -0.382667
0.721856057644 1.134169340134 -0.656618118286 -0.011596 -0.923813 -0.382667
0.875816941261 1.116617441177 -0.619197070599 -0.011596 -0.923813 -0.382667
0.742408156395 1.111786484718 -0.574490368366 -0.012186 -0.991490 -0.129614
0.894627451897 1.109284877777 -0.570886552334 -0.012186 -0.991490 -0.129614
0.930591762066 1.108826518059 -0.478569447994 -0.012186 -0.991490 0.129614
0.943453371525 1.107760190964 -0.485366731882 -0.012186 -0.991490 0.129614
0.689899086952 1.117769837379 -0.434988707304 -0.012186 -0.991490 0.129614
0.771769762039 1.113791346550 -0.456925272942 -0.012186 -0.991490 0.129614
0.658986926079 1.140642642975 -0.460538536310 -0.999917 0.012857 -0.000989
0.659680962563 1.192759871483 -0.692310810089 -0.999917 0.012857 0.000989
0.662009954453 1.367648363113 -0.853149116039 -0.999917 0.012857 -0.000989
0.663435161114 1.474670648575 -0.854110538960 -0.999917 0.012857 0.000989
0.890549540520 1.463194966316 -0.878976702690 0.001098 0.130653 -0.991428
0.741080522537 1.513829708099 -0.872573196888 0.001098 0.130653 -0.991428
0.835031867027 1.523191571236 -0.871176064014 0.001098 0.130653 -0.991428
0.798164606094 1.569575905800 -0.859947383404 0.003843 0.383066 -0.923713
0.908930003643 1.567473769188 -0.860207021236 0.003843 0.383066 -0.923713
0.878112792969 1.602409124374 -0.845907688141 0.003843 0.383066 -0.923713
0.817606687546 1.641273498535 -0.828474998474 0.006873 0.608965 -0.793167
0.800624132156 1.693327069283 -0.788709938526 0.006873 0.608965 -0.793167
0.837606549263 1.684516549110 -0.795091986656 0.006873 0.608965 -0.793167
0.820819556713 1.735098719597 -0.743003189564 0.009659 0.793458 -0.608548
0.876902580261 1.719147324562 -0.762816548347 0.009659 0.793458 -0.608548
0.773004531860 1.760564208031 -0.710648775101 0.009659 0.793458 -0.608548
0.802535891533 1.747185945511 -0.727569520473 0.009659 0.793458 -0.608548
0.665745854378 1.648185491562 -0.812456786633 -0.999917 0.012857 0.000989
0.659997999668 1.216572403908 -0.329568594694 -0.999917 0.012857 -0.000989
0.662727832794 1.421557784081 -0.200104951859 -0.999917 0.012857 0.000989
0.832536697388 1.286498904228 -0.215429902077 -0.003843 -0.383066 0.923713
0.754624187946 1.328093647957 -0.198632046580 -0.003843 -0.383066 0.923713
0.855733633041 1.348854184151 -0.189475804567 -0.003843 -0.383066 0.923713
0.958763003349 1.454207181931 -0.869677841663 0.999917 -0.012857 0.000989
0.771800696850 1.445324301720 -0.877747058868 -0.001098 -0.130653 -0.991428
0.828933835030 1.373803615570 -0.868432223797 -0.001098 -0.130653 -0.991428
0.962310254574 1.720573186874 -0.755828499794 0.999917 -0.012857 -0.000989
0.928992569447 1.781303644180 -0.662750780582 0.011596 0.923813 -0.382667
0.828165948391 1.790860295296 -0.642922461033 0.011596 0.923813 -0.382667
0.699145436287 1.781523108482 -0.669610142708 0.011596 0.923813 -0.382667
0.772509098053 1.806174635887 -0.588636875153 0.012186 0.991490 -0.129614
0.743917644024 1.805827736855 -0.594163060188 0.012186 0.991490 -0.129614
0.794316053391 1.811072587967 -0.549231171608 0.012186 0.991490 -0.129614
0.667743325233 1.798176050186 -0.613024353981 -0.999917 0.012857 -0.000989
0.663307547569 1.465086579323 -0.197497814894 -0.999917 0.012857 -0.000989
0.836279392242 1.386503458023 -0.179495677352 -0.001098 -0.130653 0.991428
0.821370601654 1.422106862068 -0.174834936857 -0.001098 -0.130653 0.991428
0.959185123444 1.485905528069 -0.186682984233 0.999917 -0.012857 0.000989
0.961726248264 1.676721453667 -0.260949462652 0.999917 -0.012857 -0.000989
0.962985336781 1.771270036697 -0.402971744537 0.999917 -0.012857 -0.000989
0.840862929821 1.804310441017 -0.453730076551 0.012186 0.991490 0.129614
0.725232005119 1.813415646553 -0.511189818382 0.012186 0.991490 0.129614
0.928192496300 1.799655556679 -0.431137681007 0.011596 0.923813 0.382667
0.874590873718 1.785131335258 -0.394352823496 0.011596 0.923813 0.382667
0.870860338211 1.769057869911 -0.355431407690 0.011596 0.923813 0.382667
0.722265660763 1.738370180130 -0.309162110090 0.009659 0.793458 0.608548
0.698423206806 1.754520177841 -0.329793453217 0.009659 0.793458 0.608548
0.949299275875 1.751518249512 -0.330235272646 0.009659 0.793458 0.608548
0.767863929272 1.706960678101 -0.271028399467 0.006873 0.608965 0.793167
0.666684210300 1.665316343307 -0.238042563200 0.006873 0.608965 0.793167
0.796977102757 1.601862668991 -0.203031122684 0.003843 0.383066 0.923713
0.773882865906 1.625754117966 -0.212798967957 0.003843 0.383066 0.923713
0.664778053761 1.571676850319 -0.189799576998 0.003843 0.383066 0.923713
0.674511969090 1.586600422859 -0.196034312248 0.003843 0.383066 0.923713
0.939506649971 1.486722946167 -0.173818901181 0.001098 0.130653 0.991428
0.726935505867 1.522958397865 -0.178216308355 0.001098 0.130653 0.991428
0.782920718193 1.468626379967 -0.171162143350 0.001098 0.130653 0.991428
0.954759895802 1.153612971306 -0.543089926243 0.999917 -0.012857 -0.000989
0.955103278160 1.179397106171 -0.644253075123 0.999917 -0.012857 0.000989
0.666719973087 1.721330165863 -0.695322632790 -0.999917 0.012857 -0.000989
0.702669918537 1.507412791252 -0.789618134499 -0.001098 -0.130653 0.991428
0.679781258106 1.452040314674 -0.803208768368 -0.686774 0.104862 0.719267
0.695125758648 1.433234572411 -0.792154073715 0.001098 0.130653 0.991428
0.759590446949 1.440433263779 -0.793214738369 0.001098 0.130653 0.991428
0.676316857338 1.248331069946 -0.704179048538 -0.680998 0.584426 0.441234
0.664450466633 1.179553747177 -0.594660043716 -0.678536 0.728364 0.095259
0.661103069782 1.299553632736 -0.266331076622 -0.999917 0.012857 -0.000989
0.665445446968 1.625626921654 -0.263184934855 -0.999917 0.012857 -0.000989
0.745596170425 1.678773999214 -0.681117713451 -0.009659 -0.793458 0.608548
0.732899069786 1.659843206406 -0.706007063389 -0.009659 -0.793458 0.608548
0.773761272430 1.654303908348 -0.712516248226 -0.009659 -0.793458 0.608548
0.853537917137 1.647310853004 -0.718667924404 -0.006873 -0.608965 0.793167
0.668511688709 1.645426988602 -0.749308168888 -0.692677 -0.433546 0.576400
0.735074281693 1.579698324203 -0.766102313995 -0.003843 -0.383066 0.923713
0.951657056808 1.470714807510 -0.802416145802 0.958692 -0.049003 0.280194
0.928331911564 1.343782782555 -0.790580928326 0.290217 0.362395 0.885688
0.925091028214 1.254144668579 -0.732284843922 0.294908 0.578658 0.760385
0.927319765091 1.217369556427 -0.617647469044 0.012074 0.873333 -0.486974
0.842807769775 1.192226171494 -0.558557689190 0.012186 0.991490 0.129614
0.726377367973 1.190977096558 -0.512317776680 0.012186 0.991490 -0.129614
0.819231569767 1.203927993774 -0.438747107983 0.011596 0.923813 -0.382667
0.715383291245 1.252618789673 -0.354355156422 0.009659 0.793458 -0.608548
0.707349658012 1.304345726967 -0.306050986052 0.006873 0.608965 -0.793167
0.837561666965 1.294425129890 -0.312332272530 0.006873 0.608965 -0.793167
0.807804465294 1.332221388817 -0.286629587412 0.003843 0.383066 -0.923713
0.848011195660 1.430760979652 -0.257516086102 0.001098 0.130653 -0.991428
0.802713274956 1.476244091988 -0.256066739559 -0.001098 -0.130653 -0.991428
0.824675381184 1.505020499229 -0.259893387556 -0.001098 -0.130653 -0.991428
0.727950930595 1.568245291710 -0.278727293015 -0.003843 -0.383066 -0.923713
0.765695333481 1.572288751602 -0.280610233545 -0.003843 -0.383066 -0.923713
0.733268857002 1.626322150230 -0.313612163067 -0.006873 -0.608965 -0.793167
0.797337830067 1.653266310692 -0.336153298616 -0.009659 -0.793458 -0.608548
0.818093180656 1.687618970871 -0.381278991699 -0.009659 -0.793458 -0.608548
0.664740979671 1.387363433838 -0.241381749511 -0.686774 0.104862 -0.719267
0.676385283470 1.720786213875 -0.410351485014 -0.698448 -0.660089 -0.276502
0.835359036922 1.712272644043 -0.615121185780 -0.011596 -0.923813 0.382667
0.879131913185 1.671966433525 -0.660268127918 -0.013361 -0.963205 -0.268434
0.892369627953 1.603762507439 -0.762597620487 0.278014 -0.586212 0.760963
0.962333679199 1.722331881523 -0.684570193291 0.999917 -0.012857 0.000989
0.955233991146 1.710612416267 -0.640447556973 0.956021 -0.272590 0.108253
0.860018730164 1.346682190895 -0.340006738901 -0.999917 0.012857 0.000989
0.925292670727 1.506373763084 -0.581745803356 0.999917 -0.012857 -0.000989
0.926278948784 1.580436110497 -0.582197606564 0.999917 -0.012857 0.000989
0.930233418941 1.448007822037 -0.708080947399 0.983652 0.010306 0.179783
0.957864344120 1.408921599388 -0.821967124939 0.959806 0.023410 0.279687
0.899696350098 1.411229968071 -0.733912229538 -0.012694 -0.982067 0.188104
0.878082454205 1.419745206833 -0.630055189133 -0.013218 -0.999478 -0.029486
0.905204653740 1.336865305901 -0.574509620667 0.001071 0.101730 -0.994811
0.868185818195 1.285690784454 -0.583942055702 0.003562 0.243372 -0.969926
0.884588599205 1.228936076164 -0.604865789413 0.006525 0.426730 -0.904355
0.943780362606 1.205994009972 -0.602902829647 0.962840 0.248102 0.106697
0.930666148663 1.260835051537 -0.553785443306 0.985764 0.166398 0.024099
0.919225335121 1.527662634850 -0.516997814178 0.012186 0.991490 0.129614
0.908947050571 1.216550230980 -0.551902234554 -0.001055 -0.081212 0.996696
0.953360974789 1.157894372940 -0.520810186863 0.298469 0.946268 -0.124474
0.881429195404 1.186797022820 -0.474402993917 0.298469 0.946268 -0.124474
0.938385426998 1.192229747772 -0.400251954794 0.297752 0.881164 -0.367278
0.902547419071 1.200415968895 -0.409758836031 0.297752 0.881164 -0.367278
0.927394449711 1.216395854950 -0.363897413015 0.295790 0.756264 -0.583586
0.954978048801 1.202211380005 -0.363613754511 0.962168 0.211336 -0.171956
0.763469040394 1.726242303848 -0.559609949589 -0.012186 -0.991490 0.129614
0.788140237331 1.727035045624 -0.498518884182 -0.012186 -0.991490 -0.129614
0.852698206902 1.722206473351 -0.468375504017 -0.012186 -0.991490 -0.129614
0.935974717140 1.748028516769 -0.510994911194 0.273767 -0.953554 -0.125642
0.951358854771 1.650247216225 -0.336249917746 0.956375 -0.236093 -0.172067
0.905891358852 1.529583692551 -0.250155568123 0.286284 -0.129161 -0.949399
0.880599081516 1.476945400238 -0.250606030226 0.286284 -0.129161 -0.949399
0.923638522625 1.433487772942 -0.238166555762 0.288286 0.120894 -0.949882
0.931056857109 1.296460747719 -0.324037492275 -0.003508 -0.216310 -0.976318
0.890044391155 1.605005145073 -0.318042397499 -0.014264 -0.992982 -0.117402
0.862910628319 1.563834071159 -0.392487347126 -0.999917 0.012857 -0.000989
0.896765947342 1.641175270081 -0.370057910681 0.006857 0.585627 -0.810552
0.865581870079 1.653886795044 -0.364911854267 0.000978 0.000978 -0.999999
0.951849222183 1.718101620674 -0.384349793196 0.273549 -0.889409 -0.366227
0.714724898338 1.708274722099 -0.420962214470 -0.011596 -0.923813 -0.382667
0.913323462009 1.739528298378 -0.553785085678 0.273767 -0.953554 0.125642
0.862214803696 1.511585593224 -0.587646782398 -0.999917 0.012857 0.000989
0.941982686520 1.676925897598 -0.600164115429 0.003682 0.300718 0.953706
0.699604094028 1.283873438835 -0.727774798870 0.006873 0.608965 0.793167
0.802601397038 -1.565523266792 -0.424736887217 -0.048978 0.922634 -0.382555
0.790347039700 -1.655215620995 -0.449195295572 -0.969369 -0.245605 0.001186
0.803141415119 -1.626971244812 -0.423082113266 0.969369 0.245605 -0.001186
0.806277334690 -1.639330863953 -0.518247961998 0.969369 0.245605 -0.001186
0.800872504711 -1.618028879166 -0.643421292305 0.969369 0.245605 0.001186
0.770810186863 -1.550019145012 -0.734804451466 0.093633 -0.370461 -0.924117
0.778392076492 -1.547820806503 -0.331743806601 0.093633 -0.370461 0.924117
0.766308188438 -1.551599979401 -0.460472762585 -0.969369 -0.245605 -0.001186
0.790557682514 -1.647173404694 -0.507943391800 -0.969369 -0.245605 -0.001186
0.772726237774 -1.576895236969 -0.663761496544 -0.969369 -0.245605 0.001186
0.744183599949 -1.464401364326 -0.740036547184 -0.969369 -0.245605 0.001186
0.722350716591 -1.378352642059 -0.748885452747 -0.969369 -0.245605 -0.001186
0.750648379326 -1.431440949440 -0.764591515064 -0.032560 0.126870 -0.991385
0.709541857243 -1.327870011330 -0.368520408869 -0.969369 -0.245605 0.001186
0.686860442162 -1.238476753235 -0.497081756592 -0.969369 -0.245605 0.001186
0.705312371254 -1.311200261116 -0.573195695877 -0.969369 -0.245605 0.001186
0.742733120918 -1.388887524605 -0.758439481258 0.969369 0.245605 0.001186
0.734362602234 -1.355896830559 -0.662319540977 0.969369 0.245605 -0.001186
0.758769512177 -1.506446957588 -0.708718299866 -0.093633 0.370461 -0.924117
0.744064807892 -1.400498509407 -0.691230714321 0.093633 -0.370461 0.924117
0.765070617199 -1.536966681480 -0.449746727943 -0.194869 0.768735 -0.609157
0.698848247528 -1.215926051140 -0.507590413094 0.969369 0.245605 0.001186
0.730033040047 -1.408630609512 -0.337607204914 -0.969369 -0.245605 0.001186
0.723254203796 -1.381913542747 -0.351496040821 -0.969369 -0.245605 0.001186
0.727735280991 -1.399574875832 -0.360015243292 -0.969369 -0.245605 -0.001186
0.804042100906 -1.438743710518 -0.599300801754 -0.969369 -0.245605 0.001186
0.687718629837 -1.382352471352 -0.576548457146 0.194869 -0.768735 0.609157
0.784811019897 -1.362949132919 -0.578135967255 -0.969369 -0.245605 0.001186
0.731389403343 -1.518409490585 -0.501999318600 -0.227787 0.894982 -0.383564
0.718382179737 -1.497017502785 -0.470368415117 -0.148296 0.591687 -0.792411
0.722085773945 -1.344876766205 -0.444225847721 0.194869 -0.768735 -0.609157
0.732645809650 -1.349130749702 -0.420491933823 0.969369 0.245605 0.001186
0.716751873493 -1.286488890648 -0.434580117464 0.969369 0.245605 -0.001186
0.794184863567 -1.591671347618 -0.455595433712 0.969369 0.245605 0.001186
0.757284343243 -1.516034960747 -0.324909359217 -0.969369 -0.245605 -0.001186
0.710886597633 -1.275500178337 -0.586430072784 -0.148296 0.591687 -0.792411
0.782349109650 -1.591421723366 -0.491271108389 -0.148296 0.591687 -0.792411
0.748318970203 -1.452794909477 -0.429183840752 0.969369 0.245605 -0.001186
0.735589623451 -1.402625441551 -0.437726080418 0.969369 0.245605 -0.001186
0.784556031227 -1.680780649185 -0.495904266834 -0.969369 -0.245605 -0.001186
0.765488922596 -1.605632424355 -0.428258955479 -0.969369 -0.245605 0.001186
0.745630085468 -1.527363657951 -0.321668893099 -0.969369 -0.245605 -0.001186
0.792879462242 -1.644303798676 -0.633589625359 -0.227787 0.894982 -0.383564
0.756053566933 -1.532213568687 -0.349426180124 -0.227787 0.894982 -0.383564
0.768697917461 -1.618279933929 -0.369359999895 -0.969369 -0.245605 -0.001186
0.811201334000 -1.632027864456 -0.379357904196 0.194869 -0.768735 0.609157
0.823815941811 -1.649414539337 -0.406762272120 0.969369 0.245605 -0.001186
0.823351860046 -1.647585511208 -0.474234700203 0.969369 0.245605 0.001186
0.807388961315 -1.584671616554 -0.429892271757 0.969369 0.245605 -0.001186
0.822555601597 -1.644447207451 -0.620664060116 0.969369 0.245605 0.001186
0.771068990231 -1.567122459412 -0.311873316765 0.148296 -0.591687 0.792411
0.767775535583 -1.609599947929 -0.342844873667 0.148296 -0.591687 0.792411
0.764051854610 -1.769789457321 -0.430573344231 0.227787 -0.894982 0.383564
0.790657043457 -1.736323356628 -0.368057072163 0.227787 -0.894982 0.383564
0.908864259720 -1.666938185692 -0.316132634878 0.194869 -0.768735 0.609157
0.811823844910 -1.702468514442 -0.329912245274 0.194869 -0.768735 0.609157
0.764272034168 -1.703367948532 -0.315807759762 0.194869 -0.768735 0.609157
0.753904283047 -1.670557737350 -0.279687792063 0.148296 -0.591687 0.792411
0.776793897152 -1.655876636505 -0.273088097572 0.148296 -0.591687 0.792411
0.849717795849 -1.614321589470 -0.255942761898 0.148296 -0.591687 0.792411
0.933340966702 -1.581615328789 -0.255110323429 0.969369 0.245605 0.001186
0.942211091518 -1.616574525833 -0.287550598383 0.969369 0.245605 -0.001186
0.949948668480 -1.647070407867 -0.734594702721 0.969369 0.245605 0.001186
0.713411390781 -1.554319620132 -0.861481130123 0.093633 -0.370461 -0.924117
0.876365184784 -1.568743348122 -0.839090108871 0.093633 -0.370461 -0.924117
0.726155042648 -1.583210468292 -0.848583519459 0.093633 -0.370461 -0.924117
0.844793319702 -1.604376077652 -0.823286235332 0.148296 -0.591687 -0.792411
0.699485361576 -1.666455507278 -0.804535508156 0.148296 -0.591687 -0.792411
0.872182607651 -1.662970423698 -0.771538913250 0.194869 -0.768735 -0.609157
0.796860277653 -1.727159857750 -0.714596211910 0.194869 -0.768735 -0.609157
0.911533713341 -1.704875946045 -0.704665839672 0.227787 -0.894982 -0.383564
0.887297868729 -1.712329745293 -0.701613068581 0.227787 -0.894982 -0.383564
0.954619467258 -1.702405929565 -0.684864282608 0.227787 -0.894982 -0.383564
0.754423677921 -1.785527944565 -0.576341331005 0.243797 -0.960846 -0.131676
0.812158584595 -1.775359630585 -0.543353319168 0.243797 -0.960846 -0.131676
0.925915539265 -1.739460110664 -0.595158636570 0.243797 -0.960846 -0.131676
0.806241691113 -1.774197101593 -0.507937192917 0.243797 -0.960846 0.131676
0.810675919056 -1.767600178719 -0.467650055885 0.243797 -0.960846 0.131676
0.703552067280 -1.789947986603 -0.626737117767 -0.969369 -0.245605 0.001186
0.664415776730 -1.635702371597 -0.808168053627 -0.969369 -0.245605 -0.001186
0.597171783447 -1.370676875114 -0.855103135109 -0.969369 -0.245605 0.001186
0.680101692677 -1.454437732697 -0.879590630531 -0.032560 0.126870 -0.991385
0.820110559464 -1.371080160141 -0.873486638069 -0.032560 0.126870 -0.991385
0.603765368462 -1.319739341736 -0.842794716358 -0.093633 0.370461 -0.924117
0.721982419491 -1.284492969513 -0.840686321259 -0.093633 0.370461 -0.924117
0.634552359581 -1.261857867241 -0.813453257084 -0.148296 0.591687 -0.792411
0.621338546276 -1.253037691116 -0.804399669170 -0.148296 0.591687 -0.792411
0.749264061451 -1.221957683563 -0.805424630642 -0.148296 0.591687 -0.792411
0.620450913906 -1.207710623741 -0.764715075493 -0.194869 0.768735 -0.609157
0.707670629025 -1.164344668388 -0.737889766693 -0.194869 0.768735 -0.609157
0.630448937416 -1.177140235901 -0.729302942753 -0.194869 0.768735 -0.609157
0.565747559071 -1.216432690620 -0.758199989796 -0.194869 0.768735 -0.609157
0.690880060196 -1.740004301071 -0.416484445333 -0.969369 -0.245605 0.001186
0.828969359398 -1.587417960167 -0.234482139349 0.093633 -0.370461 0.924117
0.854011893272 -1.535781264305 -0.216301441193 0.093633 -0.370461 0.924117
0.870159804821 -1.332602620125 -0.836831152439 0.969369 0.245605 0.001186
0.868128597736 -1.324597001076 -0.846643507481 0.969369 0.245605 -0.001186
0.892861008644 -1.438090085983 -0.874891281128 0.032560 -0.126870 -0.991385
0.759037494659 -1.522614240646 -0.868438184261 0.032560 -0.126870 -0.991385
0.693948745728 -1.137493729591 -0.692776560783 -0.227787 0.894982 -0.383564
0.671731829643 -1.128054738045 -0.657497942448 -0.227787 0.894982 -0.383564
0.806228160858 -1.080631971359 -0.559172332287 0.969369 0.245605 -0.001186
0.696183860302 -1.106386661530 -0.614393055439 -0.243797 0.960846 -0.131676
0.735017836094 -1.086781024933 -0.542591154575 -0.243797 0.960846 -0.131676
0.544003486633 -1.161127567291 -0.602567493916 -0.969369 -0.245605 0.001186
0.550334215164 -1.186078310013 -0.636691868305 -0.969369 -0.245605 0.001186
0.541843950748 -1.152616024017 -0.557964205742 -0.969369 -0.245605 -0.001186
0.554894566536 -1.204051733017 -0.378537207842 -0.969369 -0.245605 -0.001186
0.599932670593 -1.381558299065 -0.212790399790 -0.969369 -0.245605 -0.001186
0.634069502354 -1.516100049019 -0.207545131445 -0.969369 -0.245605 0.001186
0.660676956177 -1.472848296165 -0.192929297686 0.032560 -0.126870 0.991385
0.865404307842 -1.419211983681 -0.192713424563 0.032560 -0.126870 0.991385
0.660670757294 -1.460766077042 -0.191387295723 0.032560 -0.126870 0.991385
0.858992576599 -1.288589835167 -0.255100548267 0.969369 0.245605 -0.001186
0.820019841194 -1.134988307953 -0.381967186928 0.969369 0.245605 -0.001186
0.702471017838 -1.101591467857 -0.480068922043 -0.243797 0.960846 0.131676
0.572030007839 -1.130769848824 -0.508915781975 -0.243797 0.960846 0.131676
0.642064154148 -1.111842989922 -0.517436027527 -0.243797 0.960846 0.131676
0.569464147091 -1.152825832367 -0.416159212589 -0.227787 0.894982 0.383564
0.746506035328 -1.128000259399 -0.369136303663 -0.227787 0.894982 0.383564
0.610889017582 -1.183875799179 -0.339360445738 -0.194869 0.768735 0.609157
0.679201006889 -1.166850924492 -0.338971823454 -0.194869 0.768735 0.609157
0.771906495094 -1.135148286819 -0.349305659533 -0.194869 0.768735 0.609157
0.790426373482 -1.223587870598 -0.256497740746 -0.148296 0.591687 0.792411
0.838608443737 -1.221289634705 -0.249114543200 -0.148296 0.591687 0.792411
0.616610765457 -1.246456980705 -0.272289782763 -0.148296 0.591687 0.792411
0.759191870689 -1.266479253769 -0.233658269048 -0.093633 0.370461 0.924117
0.722646296024 -1.320531845093 -0.215679481626 -0.093633 0.370461 0.924117
0.726850569248 -1.330356121063 -0.211306840181 -0.093633 0.370461 0.924117
0.653581082821 -1.376737713814 -0.202085942030 -0.032560 0.126870 0.991385
0.717033982277 -1.432180762291 -0.192956492305 -0.032560 0.126870 0.991385
0.651833415031 -1.586112022400 -0.795228660107 -0.969369 -0.245605 0.001186
0.692663967609 -1.747035503387 -0.607417583466 -0.969369 -0.245605 0.001186
0.687029898167 -1.724829912186 -0.422452569008 -0.969369 -0.245605 -0.001186
0.799382209778 -1.420377850533 -0.786869525909 -0.969369 -0.245605 0.001186
0.793480098248 -1.504150986671 -0.786166369915 -0.093633 0.370461 0.924117
0.679556369781 -1.554945945740 -0.777377963066 -0.093633 0.370461 0.924117
0.721117854118 -1.453174948692 -0.797175884247 -0.032560 0.126870 0.991385
0.691709458828 -1.659546256065 -0.706395864487 -0.820487 0.372949 0.433255
0.599872291088 -1.381320118904 -0.249288395047 -0.969369 -0.245605 -0.001186
0.553810596466 -1.199779391289 -0.601291179657 -0.969369 -0.245605 -0.001186
0.669246554375 -1.251350760460 -0.702989876270 0.194869 -0.768735 0.609157
0.714379489422 -1.239397287369 -0.702355861664 0.194869 -0.768735 0.609157
0.748072266579 -1.295605778694 -0.758312702179 0.148296 -0.591687 0.792411
0.701222479343 -1.324877738953 -0.767485201359 0.093633 -0.370461 0.924117
0.878229200840 -1.490267753601 -0.796397149563 0.158905 -0.625027 0.764258
0.835550248623 -1.534983873367 -0.771831572056 0.198678 0.428262 0.881543
0.925303339958 -1.618923664093 -0.715343773365 0.103315 0.807605 0.580603
0.845355749130 -1.678751587868 -0.574689447880 -0.243797 0.960846 0.131676
0.835147619247 -1.663001179695 -0.433655977249 -0.227787 0.894982 -0.383564
0.798444151878 -1.666638016701 -0.420374274254 -0.227787 0.894982 -0.383564
0.789732217789 -1.626536846161 -0.359405428171 -0.194869 0.768735 -0.609157
0.724307417870 -1.621157288551 -0.339024007320 -0.148296 0.591687 -0.792411
0.715498387814 -1.557188987732 -0.298086762428 -0.093633 0.370461 -0.924117
0.671604871750 -1.486955523491 -0.276434421539 -0.032560 0.126870 -0.991385
0.793982565403 -1.478183031082 -0.279277294874 -0.032560 0.126870 -0.991385
0.725637614727 -1.441282749176 -0.272867500782 0.032560 -0.126870 -0.991385
0.690391480923 -1.385634064674 -0.281109958887 0.032560 -0.126870 -0.991385
0.668520748615 -1.366957306862 -0.289854258299 0.093633 -0.370461 -0.924117
0.742952942848 -1.265166401863 -0.336195737123 0.148296 -0.591687 -0.792411
0.597338080406 -1.294878363609 -0.335364520550 -0.576090 -0.592984 -0.562575
0.638041436672 -1.464622020721 -0.265459656715 -0.659729 -0.262302 -0.704241
0.664269149303 -1.559177756310 -0.288198262453 -0.749492 0.089121 -0.655988
0.681489825249 -1.651379108429 -0.339567869902 -0.788682 0.245194 -0.563791
0.575482010841 -1.206567168236 -0.542264044285 -0.510618 -0.854823 0.092452
0.818191885948 -1.156372785568 -0.618830978870 0.994730 -0.005389 0.102383
0.826528787613 -1.527369141579 -0.356927454472 -0.969369 -0.245605 0.001186
0.806608438492 -1.448858141899 -0.496104359627 -0.969369 -0.245605 0.001186
0.789502620697 -1.381439566612 -0.519782662392 -0.969369 -0.245605 0.001186
0.817374587059 -1.491290092468 -0.534752070904 -0.969369 -0.245605 0.001186
0.790699422359 -1.386156678200 -0.543822526932 -0.969369 -0.245605 -0.001186
0.784589469433 -1.362075805664 -0.558883607388 -0.969369 -0.245605 0.001186
0.864622533321 -1.439531922340 -0.665120303631 0.969369 0.245605 0.001186
0.874251186848 -1.427961945534 -0.750712096691 0.937385 0.268819 0.221462
0.882210254669 -1.434014201164 -0.777269899845 0.937385 0.268819 0.221462
0.898934662342 -1.477243542671 -0.791535258293 0.908033 0.336686 0.249235
0.833930969238 -1.454820752144 -0.680723965168 0.246640 -0.968155 0.042947
0.846539616585 -1.419574141502 -0.581831991673 -0.032560 0.126870 -0.991385
0.850305438042 -1.541000604630 -0.584479451180 -0.037719 0.145160 -0.988689
0.954584956169 -1.665992498398 -0.642203509808 0.872254 0.477967 0.103536
0.945659160614 -1.659795284271 -0.575208365917 0.867652 0.495997 0.034160
0.864155769348 -1.437691926956 -0.578353881836 0.969369 0.245605 0.001186
0.843099713326 -1.354704856873 -0.478520393372 0.969369 0.245605 0.001186
0.914675116539 -1.640599370003 -0.562036216259 0.020338 -0.080282 0.996565
0.878182828426 -1.667316555977 -0.553630709648 -0.118759 0.470745 0.874240
0.945923209190 -1.666737079620 -0.544653952122 -0.118759 0.470745 0.874240
0.826109051704 -1.295898675919 -0.614760994911 0.083605 -0.335747 -0.938235
0.750462293625 -1.227571964264 -0.646067440510 -0.969369 -0.245605 0.001186
0.816471576691 -1.217892050743 -0.655422031879 0.143889 -0.562206 -0.814383
0.689037144184 -1.182823657990 -0.525018155575 0.243797 -0.960846 -0.131676
0.858188390732 -1.289747357368 -0.270695269108 0.958094 0.137997 -0.251023
0.903757035732 -1.509462118149 -0.305413454771 0.924441 0.321360 -0.205274
0.858354389668 -1.482811450958 -0.460341721773 0.234146 -0.917911 -0.320335
0.832786977291 -1.439356565475 -0.444073468447 -0.185757 0.729212 0.658593
0.868319213390 -1.458910346031 -0.409141808748 -0.206097 0.810647 0.548065
0.835398733616 -1.325541734695 -0.269736856222 0.380892 -0.281529 -0.880718
0.812975466251 -1.276209235191 -0.318073332310 0.244196 -0.962572 -0.117576
0.767343044281 -1.294103264809 -0.409926891327 -0.969369 -0.245605 0.001186
0.770931363106 -1.307085752487 -0.436751663685 -0.182894 0.720816 -0.668561
0.775569260120 -1.253430843353 -0.389619171619 -0.151485 0.601441 -0.784424
0.786003589630 -1.154533982277 -0.451451420784 0.505901 -0.780672 -0.366900
0.701910972595 -1.192407250404 -0.455659598112 0.227787 -0.894982 -0.383564
0.773355066776 -1.312560915947 -0.382673859596 0.191970 -0.754059 0.628126
0.828189969063 -1.315217614174 -0.401666700840 0.185757 -0.729212 0.658593
0.803991436958 -1.380654096603 -0.453145295382 0.140766 -0.555657 0.819409
0.792888641357 -1.150417685509 -0.598422586918 0.086377 -0.338865 0.936862
0.806291282177 -1.447608232498 -0.691144704819 -0.969369 -0.245605 0.001186
0.823234736919 -1.419315338135 -0.758469402790 -0.245621 0.969306 0.010783
0.828213810921 -1.416779518127 -0.716915011406 -0.244064 0.964755 -0.098392
0.787438511848 -1.213216543198 -0.606954634190 -0.073351 0.292118 0.953565
0.779657900333 -1.220622062683 -0.605296969414 -0.073351 0.292118 0.953565
0.795365273952 -1.222480058670 -0.603407323360 -0.083202 0.326203 0.941631
0.782664775848 -1.667203545570 -0.658573806286 -0.227787 0.894982 0.383564
0.766779482365 -1.651932954788 -0.686773538589 -0.194869 0.768735 0.609157
0.767602026463 -1.595484375954 -0.742803037167 -0.148296 0.591687 0.792411
-0.707022190094 -2.251234769821 -0.544772446156 -0.575657 -0.801111 -0.163829
-0.661203026772 -2.308240890503 -0.428423136473 0.961744 -0.082799 -0.261136
-0.599651098251 -2.313960790634 -0.374597728252 -0.275263 -0.949320 0.151730
-0.612259030342 -2.294048786163 -0.274431645870 -0.252738 -0.953451 0.164480
-0.533867478371 -2.315133571625 -0.292737156153 0.122711 0.982901 -0.137290
-0.508642375469 -2.326324701309 -0.421657741070 0.218971 0.975196 0.032307
-0.513235330582 -2.320419073105 -0.460034787655 -0.191703 -0.930527 -0.312041
-0.153250634670 -2.310373544693 -0.430715948343 0.003600 0.258034 0.966129
-0.186540126801 -2.334365844727 -0.424026489258 -0.003664 0.291937 0.956430
-0.104547008872 -2.344225645065 -0.373306185007 -0.003044 0.999365 -0.035510
-0.152729913592 -2.345304727554 -0.399060875177 -0.003044 0.999365 -0.035510
-0.245999738574 -2.343085527420 -0.339254081249 0.015527 0.998888 -0.044510
-0.309106200933 -2.349529743195 -0.384673863649 0.062756 0.983965 0.166954
-0.287850171328 -2.357393264771 -0.311073303223 0.040017 0.522985 0.851402
0.074699327350 -2.378058910370 -0.302072942257 -0.005450 0.118800 0.992903
-0.016917660832 -2.370251178741 -0.273516774178 -0.034763 0.821795 -0.568721
-0.082490779459 -2.367624759674 -0.275547266006 0.054945 0.821356 -0.567764
-0.149825751781 -2.356219768524 -0.260293006897 0.025615 0.877659 -0.478601
-0.193802490830 -2.316687345505 -0.238834872842 -0.008420 0.258627 -0.965941
-0.308837056160 -2.329789876938 -0.237043872476 -0.109709 0.251686 -0.961571
-0.412688255310 -2.316085100174 -0.229201436043 0.056963 0.859998 -0.507107
-0.411474049091 -2.281853199005 -0.178675472736 -0.880296 0.378995 -0.285379
-0.490910083055 -2.211453676224 -0.113426335156 0.130054 0.698105 -0.704085
-0.491077572107 -2.218629360199 -0.120558045805 -0.230209 0.631117 -0.740740
-0.450738996267 -2.030632495880 -0.035286203027 0.087199 0.295434 -0.951375
-0.282168477774 -2.023811101913 -0.017789382488 0.087199 0.295434 -0.951375
-0.499777913094 -2.083283185959 -0.056085374206 0.087199 0.295434 -0.951375
-0.463574945927 -2.019423961639 -0.032982274890 0.087199 0.295434 -0.951375
-0.373108446598 -2.023372650146 -0.025951623917 0.087199 0.295434 -0.951375
-0.259329944849 -1.963858485222 0.002551628277 -0.081657 -0.234921 0.968578
-0.149484500289 -1.751568198204 0.063277989626 -0.081657 -0.234921 0.968578
-0.416082471609 -1.868432760239 0.012553123757 -0.081657 -0.234921 0.968578
-0.441055268049 -1.903572320938 0.001931549981 -0.081657 -0.234921 0.968578
-0.367017924786 -1.924247026443 0.003127256408 -0.081657 -0.234921 0.968578
-0.521405279636 -1.906485676765 -0.005517162383 -0.081657 -0.234921 0.968578
-0.253621399403 -1.850412607193 0.030556907877 -0.081657 -0.234921 0.968578
-0.416428893805 -1.859250426292 0.014752035961 -0.081657 -0.234921 0.968578
-0.118139870465 -1.930197715759 0.022565653548 -0.081657 -0.234921 0.968578
-0.034185677767 -1.722739338875 0.079947210848 -0.081657 -0.234921 0.968578
0.281302660704 -1.540676951408 0.093269668519 0.071444 -0.141716 0.987326
0.214691981673 -1.645675659180 0.083139054477 0.071444 -0.141716 0.987326
0.087524563074 -1.549661278725 0.106035500765 0.071444 -0.141716 0.987326
0.036592956632 -1.508080840111 0.115651056170 0.071444 -0.141716 0.987326
0.396750926971 -1.578465580940 0.079517915845 0.071444 -0.141716 0.987326
0.194097518921 -1.635399580002 0.086095817387 0.071444 -0.141716 0.987326
0.191062211990 -1.637565255165 0.086007297039 0.071444 -0.141716 0.987326
0.132173895836 -1.495603203773 0.110500626266 0.071444 -0.141716 0.987326
0.270837515593 -1.562262535095 0.090953007340 0.071444 -0.141716 0.987326
-0.596190035343 -1.622550368309 0.058432362974 -0.008554 -0.282288 0.959291
-0.520174860954 -1.578091144562 0.072260141373 -0.008554 -0.282288 0.959291
-0.134894400835 -1.389706730843 0.131477296352 -0.008554 -0.282288 0.959291
-0.245056763291 -1.627035856247 0.084271572530 -0.076304 -0.139694 0.987250
-0.230634093285 -1.518535017967 0.100614182651 -0.076304 -0.139694 0.987250
-0.164667993784 -1.644859790802 0.087897352874 -0.076304 -0.139694 0.987250
-0.016918377951 -1.531450629234 0.115095995367 -0.076304 -0.139694 0.987250
-0.307278484106 -1.635024428368 0.078404754400 -0.076304 -0.139694 0.987250
-0.561926066875 -1.630596280098 0.059609442949 -0.076304 -0.139694 0.987250
-0.145590037107 -1.616009473801 0.093405187130 -0.076304 -0.139694 0.987250
-0.124898895621 -1.645001292229 0.090909965336 -0.076304 -0.139694 0.987250
-0.183393418789 -1.507638335228 0.105747207999 -0.076304 -0.139694 0.987250
-0.342648655176 -1.798752665520 0.035781033337 -0.076711 -0.242709 0.967062
-0.499152183533 -1.774891495705 0.029364366084 -0.076711 -0.242709 0.967062
-0.242640972137 -1.685234427452 0.072326354682 -0.076711 -0.242709 0.967062
-0.320641607046 -1.676982402802 0.068211108446 -0.076711 -0.242709 0.967062
-0.307241559029 -1.663827419281 0.072589918971 -0.076711 -0.242709 0.967062
-0.069816000760 -1.657317280769 0.093085750937 -0.076711 -0.242709 0.967062
-0.260446161032 -1.667015552521 0.075502924621 -0.076711 -0.242709 0.967062
-0.527707338333 -1.706411123276 0.044351562858 -0.076711 -0.242709 0.967062
-0.373767375946 -1.740292429924 0.048039861023 -0.076711 -0.242709 0.967062
-0.718054950237 -1.923942446709 -0.007769513875 0.055047 -0.226305 0.972500
