-0.268505454063 -1.755800962448 0.020121900365 0.001251 -0.341642 0.939829
-0.240863651037 -1.768999457359 -0.003311047330 -0.018053 -0.997149 0.073273
0.333496689796 -1.654952764511 0.084128990769 -0.001142 -0.183806 0.982962
0.381078273058 -1.746305108070 0.066883794963 -0.001141 -0.186011 0.982547
0.337799578905 -1.673792958260 0.080599658191 -0.001141 -0.186011 0.982547
0.442325294018 -1.697503924370 0.076161406934 -0.001141 -0.186011 0.982547
0.443965792656 -1.730557680130 0.069881513715 0.003437 -0.189059 0.981960
0.423877954483 -1.758148431778 0.058830633759 0.350962 -0.936320 -0.011403
0.275889694691 -1.696816682816 0.047267794609 -0.794746 0.604914 0.049583
0.337491810322 -1.618918657303 0.080669291317 -0.794631 0.604826 0.052409
0.622061669827 -1.470471620560 0.102562725544 -0.005575 -0.148284 0.988929
0.576511740685 -1.512830734253 0.091913431883 -0.001223 -0.297091 0.954848
0.655489623547 -1.566464185715 0.075384996831 -0.001223 -0.297091 0.954848
0.684732139111 -1.490937709808 0.072968199849 0.985751 -0.062270 -0.156263
0.402419388294 -1.575363397598 0.085155166686 -0.082194 0.375935 0.922994
0.374722123146 -1.545546293259 0.063097432256 -0.841029 0.130177 0.525095
0.294363290071 -1.902146220207 0.051014062017 0.432517 -0.066856 0.899144
0.340133428574 -1.772316098213 0.061262723058 0.046162 -0.056897 0.997312
0.282942712307 -1.821973919868 0.060795161873 -0.003074 -0.046105 0.998932
0.252516031265 -1.773740768433 0.060200516135 -0.311531 0.236879 0.920237
0.256497740746 -1.916104316711 0.053164705634 0.001061 -0.090153 0.995927
0.239353463054 -1.865923285484 0.057476431131 0.003177 -0.083659 0.996489
0.110970318317 -1.968323230743 0.030671812594 -0.003953 -0.457196 0.889357
0.296636968851 -1.989349484444 0.019124636427 0.001325 -0.472993 0.881065
0.092365980148 -1.965808749199 0.025587979704 -0.374307 -0.073788 0.924364
0.201348289847 -1.794451951981 0.038664795458 -0.722131 0.691755 0.001381
0.113805167377 -1.862833499908 0.023198707029 -0.724826 0.688930 0.001381
0.222977831960 -1.506927609444 0.117005102336 -0.378690 -0.147816 0.913643
0.220898360014 -1.609906911850 0.091954849660 -0.463908 -0.225154 0.856794
0.200931921601 -1.345844864845 0.117932736874 0.291302 -0.109403 0.950355
0.242987394333 -1.484883069992 0.076830789447 0.766300 0.642481 0.001376
0.254677236080 -1.506448745728 0.099987842143 0.997883 0.011542 0.064007
0.189904153347 -1.423794388771 0.111409761012 0.423747 -0.089719 0.901326
0.181234732270 -1.432157874107 0.111955009401 -0.281797 -0.137560 0.949562
0.214380294085 -1.646737456322 0.052265897393 -0.998806 -0.023905 -0.042613
0.041754681617 -1.849648356438 0.010284808464 -0.029428 0.634793 0.772122
-0.175493225455 -1.864937901497 0.005807254463 0.018156 -0.727629 0.685731
-0.297246187925 -1.866541743279 -0.003964863252 -0.358909 0.544047 0.758418
0.102064147592 -1.856852769852 0.007104329765 0.372641 -0.694392 0.615596
-0.487462788820 -1.262600183487 0.092514477670 0.543441 -0.063519 0.837041
-0.515058398247 -1.269013404846 0.113456659019 0.706329 -0.152761 0.691204
-0.620140552521 -1.268399477005 0.123286224902 0.001087 -0.120688 0.992690
-0.640750169754 -1.228629112244 0.128202676773 0.001089 -0.123096 0.992394
-0.594277799129 -1.207185387611 0.117290735245 0.187649 0.791789 0.581255
-0.490449041128 -1.213341236115 0.098010443151 0.162578 0.746036 0.645754
-0.682941079140 -1.199756026268 0.112808756530 -0.475296 0.073873 0.876719
-0.746707916260 -1.302332282066 0.086256340146 -0.442483 -0.136039 0.886398
-0.659884035587 -1.374595999718 0.098043397069 0.001363 -0.584843 0.811146
0.641201138496 -1.400620222092 0.075330644846 0.001322 -0.471891 0.881656
0.704675257206 -1.401477694511 0.076432198286 -0.082163 -0.598202 0.797122
0.729341447353 -1.369671225548 0.080024823546 0.454609 -0.234101 0.859376
0.718300223351 -1.236374974251 0.103707052767 0.553566 0.072575 0.829637
0.690282106400 -1.235760450363 0.121700629592 0.496145 0.089052 0.863661
0.587432026863 -1.199462413788 0.120909184217 -0.198558 0.771143 0.604908
0.504443407059 -1.221000552177 0.117006368935 -0.613432 -0.101019 0.783260
0.536383688450 -1.233024120331 0.127961486578 -0.001085 -0.118289 0.992979
0.686633050442 -1.258500099182 0.124991543591 -0.001090 -0.120950 0.992658
-0.642368018627 -1.703359603882 0.013704713434 -0.899339 -0.431190 0.072549
-0.615403771400 -1.614210486412 0.047833621502 0.003226 -0.104292 0.994541
-0.577899158001 -1.583014130592 0.050923615694 0.003226 -0.102165 0.994762
-0.038917593658 -1.255762934685 0.119141496718 0.001376 0.766300 0.642481
-0.325918287039 -1.263238549232 0.122005060315 -0.020939 0.758005 0.651912
-0.484790652990 -1.277181625366 0.119850382209 -0.155837 0.754977 0.636965
-0.421499490738 -1.273054003716 0.123486660421 0.012350 -0.821932 0.569452
-0.265057802200 -1.267554283142 0.126427367330 0.018033 -0.786527 0.617292
0.208274975419 -1.265856266022 0.124500051141 0.006772 -0.846530 0.532298
0.329304605722 -1.269358038902 0.125546008348 -0.029054 -0.831486 0.554785
0.565603256226 -1.867235064507 0.004911255557 -0.005595 -0.153316 0.988161
0.665007770061 -1.782621264458 0.019028894603 -0.005618 -0.156191 0.987711
0.738560080528 -1.472276568413 0.068761661649 -0.005618 -0.156191 0.987711
0.715933859348 -1.653205990791 0.039907474071 -0.005618 -0.156191 0.987711
0.702770769596 -1.526147603989 0.059995561838 -0.007866 -0.156189 0.987696
-0.501936435699 -1.882747054100 -0.004842393100 -0.007880 -0.158732 0.987290
-0.660054445267 -1.785502195358 0.009403037839 -0.005608 -0.153656 0.988109
-0.707621335983 -1.644048690796 0.031514260918 -0.007866 -0.156189 0.987696
-0.697946786880 -1.433570384979 0.064743824303 -0.005606 -0.155845 0.987766
-0.598981797695 -1.871803760529 -0.003824389772 -0.007880 -0.158732 0.987290
-0.448099344969 -1.670611262321 0.030150726438 -0.680241 -0.355692 0.640902
-0.492678850889 -1.633736610413 0.032305784523 0.775516 -0.195031 0.600449
-0.505592107773 -1.609824419022 0.034955698997 -0.788456 -0.004128 0.615078
-0.511279046535 -1.717538833618 0.015344837680 -0.799309 -0.264351 0.539651
-0.488747179508 -1.743305444717 0.014205744490 0.829703 0.096678 0.549769
0.038128837943 -1.862877726555 0.016720239073 0.000978 0.000978 0.999999
-0.591851353645 -1.647939920425 0.056254502386 -0.001038 -0.063348 0.997991
-0.543695390224 -1.821935892105 -0.025234319270 0.432172 -0.900696 0.044429
-0.539315104485 -1.815726757050 0.007040406577 -0.034609 -0.117225 0.992502
-0.602672636509 -1.808362245560 -0.008264808916 -0.888736 -0.455937 0.047635
-0.647102594376 -1.379442930222 0.103329263628 -0.001131 -0.173011 0.984919
-0.666509091854 -1.404035210609 0.099254935980 0.003401 -0.171197 0.985231
0.342913687229 -1.405965566635 0.098810687661 0.003394 -0.170815 0.985297
0.386457234621 -1.387597322464 0.086646392941 0.997533 -0.003140 0.070131
-0.266317069530 -1.264464616776 0.091742068529 -0.003426 -0.181597 0.983367
0.398335069418 -1.257894754410 0.095868244767 -0.003426 -0.181597 0.983367
-0.073590040207 -1.300379753113 0.086788378656 -0.001090 -0.120950 0.992658
-0.761668443680 -1.148866295815 0.141828894615 0.899289 -0.095906 0.426710
-0.767311155796 -1.217598915100 0.138230875134 0.615498 -0.085446 0.783493
-0.744786262512 -1.625913619995 0.073586292565 0.671870 -0.083073 0.735996
-0.739572465420 -1.546743988991 0.075365461409 0.804296 -0.064059 0.590766
-0.737289428711 -1.464102983475 0.067355349660 0.981448 -0.003444 0.191698
-0.742903709412 -1.326905369759 0.098495803773 0.981448 -0.003444 0.191698
-0.387347340584 -1.437075138092 0.070629864931 0.001139 -0.183394 0.983039
-0.703544497490 -1.735056161880 0.015087990090 0.001139 -0.183394 0.983039
-0.370472997427 -1.639089345932 0.032975614071 0.001139 -0.183394 0.983039
-0.557918250561 -1.760091066360 0.010421620682 0.001139 -0.183394 0.983039
-0.273079454899 -1.757786870003 0.010851105675 0.001139 -0.183394 0.983039
0.047516323626 -1.490130901337 0.060740582645 0.001139 -0.183394 0.983039
-0.547766447067 -1.782636165619 0.006219360977 0.001139 -0.183394 0.983039
0.231587320566 -1.723788142204 0.017188273370 0.001139 -0.183394 0.983039
-0.594986200333 -1.584767580032 0.043100863695 0.001139 -0.183394 0.983039
-0.591618418694 -1.348403692245 0.087157681584 0.001139 -0.183394 0.983039
-0.614951133728 -1.695580244064 0.022446056828 0.001139 -0.183394 0.983039
0.266399532557 -1.591170668602 0.041907370090 0.001139 -0.183394 0.983039
0.259934633970 -1.708234906197 0.020087292418 0.001139 -0.183394 0.983039
-0.144355118275 -1.579611301422 0.044061958790 0.001139 -0.183394 0.983039
0.425022691488 -1.700617790222 0.021507093683 0.001139 -0.183394 0.983039
-0.387985736132 -1.581558823586 0.043698966503 0.001139 -0.183394 0.983039
-0.206924974918 -1.798045396805 0.003347167280 0.001139 -0.183394 0.983039
-0.304717987776 -1.291996479034 0.097671672702 0.001139 -0.183394 0.983039
-0.371143490076 -1.656851649284 0.029664831236 0.001139 -0.183394 0.983039
-0.598949372768 -1.689007282257 0.023671224713 0.001139 -0.183394 0.983039
0.132211312652 -1.577875852585 0.044385448098 0.001139 -0.183394 0.983039
0.515793561935 -1.753316998482 0.011684275232 0.001139 -0.183394 0.983039
0.320587098598 -1.667230844498 0.027730220929 0.001139 -0.183394 0.983039
-0.597807288170 -1.658050775528 0.029441310093 0.001139 -0.183394 0.983039
-0.474304258823 -1.693693280220 0.022797781974 0.001139 -0.183394 0.983039
-0.668417155743 -1.598552703857 0.040531415492 0.001139 -0.183394 0.983039
0.170523703098 -1.535573482513 0.052270360291 0.001139 -0.183394 0.983039
-0.168785899878 -1.644341468811 0.031996645033 0.001139 -0.183394 0.983039
-0.366670727730 -1.273813724518 0.101060822606 0.001139 -0.183394 0.983039
-0.540105044842 -1.377483606339 0.081737369299 0.001139 -0.183394 0.983039
-0.409555196762 -1.737581729889 0.014617219567 0.001139 -0.183394 0.983039
-0.588770747185 -1.221934199333 0.110730849206 0.001139 -0.183394 0.983039
-0.583174347878 -1.322499394417 0.091986089945 0.001139 -0.183394 0.983039
-0.457048594952 -1.638439774513 0.033096697181 0.001139 -0.183394 0.983039
-0.699979186058 -1.166806697845 0.121006295085 0.001139 -0.183394 0.983039
0.435814410448 -1.679134964943 0.025511363521 0.001139 -0.183394 0.983039
-0.519611656666 -1.571886539459 0.045501824468 0.001139 -0.183394 0.983039
-0.399363845587 -1.373699784279 0.082442648709 0.001139 -0.183394 0.983039
-0.644202291965 -1.519376277924 0.055289424956 0.001139 -0.183394 0.983039
-0.508547008038 -1.271475553513 0.101496636868 0.001139 -0.183394 0.983039
-0.159815847874 -1.542649626732 0.050951413810 0.001139 -0.183394 0.983039
-0.101518958807 -1.657659769058 0.029514199123 0.001139 -0.183394 0.983039
-0.333560705185 -1.471320867538 0.064246669412 0.001139 -0.183394 0.983039
0.090341866016 -1.609185695648 0.038549479097 0.001139 -0.183394 0.983039
-0.237971767783 -1.400036573410 0.077533617616 0.001139 -0.183394 0.983039
-0.568449139595 -1.180160760880 0.118517160416 0.001139 -0.183394 0.983039
-0.150084555149 -1.795517325401 0.003818385769 0.001139 -0.183394 0.983039
-0.101265162230 -1.595776438713 0.041048891842 0.001139 -0.183394 0.983039
-0.154317200184 -1.562518000603 0.047248050570 0.001139 -0.183394 0.983039
-0.258603900671 -1.652120113373 0.030546775088 0.001139 -0.183394 0.983039
-0.571890354156 -1.504443526268 0.058072794229 0.001139 -0.183394 0.983039
-0.365728855133 -1.677039504051 0.025901928544 0.001139 -0.183394 0.983039
0.263033241034 -1.596474528313 0.040918756276 0.001139 -0.183394 0.983039
-0.069627255201 -1.519966244698 0.055179458112 0.001139 -0.183394 0.983039
-0.248882055283 -1.516984701157 0.055735185742 0.001139 -0.183394 0.983039
0.104956328869 -1.794510722160 0.004006007221 0.001139 -0.183394 0.983039
0.211827725172 -1.753211975098 0.011703833006 0.001139 -0.183394 0.983039
0.660447955132 -1.713274717331 0.019147917628 0.001139 -0.183394 0.983039
-0.188348114491 -1.190836071968 0.116527356207 0.001139 -0.183394 0.983039
0.602882325649 -1.149594902992 0.124214462936 0.001139 -0.183394 0.983039
0.478429794312 -1.307998061180 0.094689056277 0.001139 -0.183394 0.983039
0.509313523769 -1.458548069000 0.066627427936 0.001139 -0.183394 0.983039
-0.017683625221 -1.138008832932 0.126374021173 0.001139 -0.183394 0.983039
0.050359129906 -1.418414950371 0.074107997119 0.001139 -0.183394 0.983039
0.251299440861 -1.434373497963 0.071133442223 0.001139 -0.183394 0.983039
0.514330029488 -1.040568709373 0.144536286592 0.001139 -0.183394 0.983039
0.192453145981 -1.068955183029 0.139245226979 0.001139 -0.183394 0.983039
0.370963990688 -1.503456354141 0.058256782591 0.001139 -0.183394 0.983039
0.321854472160 -1.538475751877 0.051729399711 0.001139 -0.183394 0.983039
0.108835101128 -1.076637387276 0.137813299894 0.001139 -0.183394 0.983039
0.230234146118 -1.352571964264 0.086380735040 0.001139 -0.183394 0.983039
0.588276028633 -1.426312804222 0.072635881603 0.001139 -0.183394 0.983039
-0.052588403225 -1.303061723709 0.095609158278 0.001139 -0.183394 0.983039
-0.227965652943 -1.274056673050 0.101015530527 0.001139 -0.183394 0.983039
0.676958560944 -1.336382627487 0.089398361742 0.001139 -0.183394 0.983039
-0.043243169785 -1.320488214493 0.092360951006 0.001139 -0.183394 0.983039
0.605168282986 -1.122368931770 0.129289224744 0.001139 -0.183394 0.983039
-0.239450573921 -1.083449244499 0.136543601751 0.001139 -0.183394 0.983039
-0.544540703297 -1.103329181671 0.132838115096 0.001139 -0.183394 0.983039
-0.226786196232 -1.170305252075 0.120354175568 0.001139 -0.183394 0.983039
0.518056213856 -1.227060556412 0.109775334597 0.001139 -0.183394 0.983039
-0.266864180565 -1.121014118195 0.129541754723 0.001139 -0.183394 0.983039
-0.052188336849 -1.082177639008 0.136780649424 0.001139 -0.183394 0.983039
0.727590680122 -1.094762086868 0.134434938431 0.001139 -0.183394 0.983039
0.702410161495 -1.785912275314 0.005608716048 0.001139 -0.183394 0.983039
-0.108440935612 -1.052251219749 0.142358735204 0.001139 -0.183394 0.983039
0.090283930302 -1.401847004890 0.077196173370 0.001139 -0.183394 0.983039
0.576016426086 -1.338671565056 0.088971704245 0.001139 -0.183394 0.983039
-0.180523872375 -1.319528698921 0.092539809644 0.001139 -0.183394 0.983039
0.202897250652 -1.101324915886 0.133211687207 0.001139 -0.183394 0.983039
-0.350288987160 -1.165401697159 0.121268153191 0.001139 -0.183394 0.983039
-0.293653964996 -1.112561702728 0.131117224693 0.001139 -0.183394 0.983039
0.607723355293 -1.697851419449 0.022022716701 0.001139 -0.183394 0.983039
0.596432566643 -1.149694800377 0.124195821583 0.001139 -0.183394 0.983039
-0.249177455902 -1.046961665154 0.143344670534 0.001139 -0.183394 0.983039
0.636481881142 -1.195122241974 0.115728422999 0.001139 -0.183394 0.983039
0.491298615932 -1.300078511238 0.096165210009 0.001139 -0.183394 0.983039
-0.543498873711 -1.130094766617 0.127849161625 0.001139 -0.183394 0.983039
0.620918691158 -1.634523749352 0.033826623112 0.001139 -0.183394 0.983039
0.702048003674 -1.727837681770 0.016433458775 0.001139 -0.183394 0.983039
0.472606509924 -1.200300097466 0.114763326943 0.001139 -0.183394 0.983039
0.716555535793 -1.122119188309 0.129335775971 0.001139 -0.183394 0.983039
0.266339480877 -1.477249026299 0.063141688704 0.001139 -0.183394 0.983039
0.495949715376 -1.037662148476 0.145078033209 0.001139 -0.183394 0.983039
0.497477233410 -1.223638057709 0.110413260758 0.001139 -0.183394 0.983039
-0.503066182137 -1.142067432404 0.125617533922 0.001139 -0.183394 0.983039
0.566938459873 -1.121013283730 0.129541888833 0.001139 -0.183394 0.983039
0.553333699703 -1.119512319565 0.129821687937 0.001139 -0.183394 0.983039
0.381713420153 -1.434931397438 0.071029424667 0.001139 -0.183394 0.983039
0.012315630913 -1.417772054672 0.074227817357 0.001139 -0.183394 0.983039
0.529132485390 -1.338105916977 0.089077137411 0.001139 -0.183394 0.983039
-0.308844864368 -1.258039236069 0.104001067579 0.001139 -0.183394 0.983039
0.350951194763 -1.509224295616 0.057181686163 0.001139 -0.183394 0.983039
0.115500688553 -1.059436082840 0.141019523144 0.001139 -0.183394 0.983039
0.343910992146 -1.115793108940 0.130514919758 0.001139 -0.183394 0.983039
0.342471152544 -1.578250050545 0.044315706939 0.001139 -0.183394 0.983039
0.750841915607 -1.285761117935 0.110778763890 -0.828572 -0.075584 0.554758
0.763606131077 -1.120389223099 0.162245988846 -0.988750 -0.148030 -0.021470
0.723138213158 -1.048000693321 0.157344773412 0.394799 -0.909021 -0.133473
0.618975579739 -1.090331912041 0.137296035886 0.401415 -0.905649 -0.136622
0.539613366127 -1.122473835945 0.160715490580 0.281671 -0.929939 -0.236377
0.454171627760 -1.140859365463 0.130128607154 0.283716 -0.930194 -0.232902
0.501196444035 -1.129151940346 0.140661433339 0.283716 -0.930194 -0.232902
0.322758764029 -1.180086016655 0.140565186739 0.180671 -0.969988 -0.162732
0.198446840048 -1.206557035446 0.189625024796 0.044105 -0.956442 -0.288571
0.014954805374 -1.202171325684 0.110754281282 0.084110 -0.978847 -0.186505
0.033181868494 -1.209885239601 0.159753561020 0.084110 -0.978847 -0.186505
-0.019885249436 -1.206607580185 0.136229783297 -0.084148 -0.979289 -0.184150
-0.191040918231 -1.191459178925 0.134792909026 -0.084148 -0.979289 -0.184150
-0.162488430738 -1.208152890205 0.189275637269 -0.044105 -0.956442 -0.288571
-0.319700926542 -1.188250541687 0.186046123505 -0.180671 -0.969988 -0.162732
-0.422662317753 -1.145456910133 0.110083892941 -0.283716 -0.930194 -0.232902
-0.386595547199 -1.163388013840 0.137808188796 -0.283716 -0.930194 -0.232902
-0.557667255402 -1.118095159531 0.165110364556 -0.281671 -0.929939 -0.236377
-0.581949114799 -1.115707159042 0.197161808610 -0.401415 -0.905649 -0.136622
-0.685395002365 -1.067762255669 0.180093005300 -0.394799 -0.909021 -0.133473
0.749671101570 -1.588824510574 0.069978371263 -0.958573 0.018458 0.284249
0.743730843067 -1.690422296524 0.061870835721 -0.980865 0.058684 0.185634
0.726725995541 -1.806659698486 0.008561952040 -0.977338 0.066941 0.200823
0.080475442111 -1.805808663368 0.001760898158 0.001170 -0.223492 0.974705
0.011607170105 -1.845728158951 -0.007353675552 0.001170 -0.223492 0.974705
-0.284151971340 -1.926193594933 -0.025725837797 0.001170 -0.223492 0.974705
0.025080390275 -1.820421695709 -0.001575579867 0.001170 -0.223492 0.974705
-0.449983030558 -1.861232876778 -0.010893752798 0.001170 -0.223492 0.974705
-0.130647718906 -1.915199995041 -0.023215757683 0.001170 -0.223492 0.974705
-0.562752187252 -1.932324767113 -0.027125712484 0.001170 -0.223492 0.974705
-0.369153887033 -1.981008887291 -0.038241483271 0.001170 -0.223492 0.974705
0.262505114079 -1.824437975883 -0.002492610365 0.001170 -0.223492 0.974705
0.232928946614 -1.822653651237 -0.002085206099 0.001170 -0.223492 0.974705
-0.028965670615 -1.900186896324 -0.019787890837 0.001170 -0.223492 0.974705
0.099668674171 -1.898511886597 -0.019405430183 0.001170 -0.223492 0.974705
-0.154824405909 -1.812825918198 0.000158688053 0.001170 -0.223492 0.974705
0.297819495201 -1.807595014572 0.001353055239 0.001170 -0.223492 0.974705
-0.634391307831 -1.866220474243 -0.012032568455 0.001170 -0.223492 0.974705
-0.283116817474 -1.818449258804 -0.001125242561 0.001170 -0.223492 0.974705
0.247885912657 -1.932161450386 -0.026265399531 -0.003483 -0.205483 0.978655
0.490459620953 -1.910829782486 -0.021019442007 -0.003483 -0.205483 0.978655
0.076070785522 -1.920553565025 -0.024357281625 -0.003483 -0.205483 0.978655
0.008773446083 -1.950561285019 -0.030883423984 -0.003483 -0.205483 0.978655
0.439124077559 -1.973873257637 -0.034449711442 -0.003483 -0.205483 0.978655
0.300548374653 -1.960335731506 -0.032031867653 -0.003483 -0.205483 0.978655
0.311840891838 -1.917540669441 -0.022988537326 -0.003483 -0.205483 0.978655
0.067524850368 -1.976430654526 -0.036145769060 -0.003483 -0.205483 0.978655
0.079016476870 -2.010756254196 -0.043335311115 -0.003483 -0.205483 0.978655
0.300891548395 -1.938917875290 -0.027522439137 -0.003483 -0.205483 0.978655
0.487773895264 -1.919446825981 -0.002706613392 0.996584 0.035631 0.074501
-0.503823101521 -1.897905230522 -0.019944885746 -0.988665 0.150135 0.001112
-0.744493722916 -1.247747063637 0.107881203294 0.979755 -0.005784 0.200115
-0.703827500343 -1.262992262840 0.103077866137 0.001139 -0.183394 0.983039
0.642364621162 -1.770725131035 0.008439488709 0.001139 -0.183394 0.983039
-0.709176719189 -1.733425617218 0.015391905792 0.001139 -0.183394 0.983039
0.049515038729 -1.707560300827 0.020213032141 0.001139 -0.183394 0.983039
0.143107622862 -1.585700988770 0.042926896363 0.001139 -0.183394 0.983039
-0.234736949205 -1.557101488113 0.048257663846 0.001139 -0.183394 0.983039
-0.203662276268 -1.787517070770 0.005309582688 0.001139 -0.183394 0.983039
-0.642170548439 -1.751788735390 0.011969117448 0.001139 -0.183394 0.983039
0.264106988907 -1.639428615570 0.032912373543 0.001139 -0.183394 0.983039
-0.364363670349 -1.339921116829 0.088738791645 0.001139 -0.183394 0.983039
-0.712507605553 -1.726554751396 0.016672592610 0.001139 -0.183394 0.983039
-0.239511996508 -1.368354320526 0.083439014852 0.001139 -0.183394 0.983039
0.169473946095 -1.675706744194 0.026150360703 0.001139 -0.183394 0.983039
0.128857970238 -1.770410299301 0.008498170413 0.001139 -0.183394 0.983039
-0.561553359032 -1.623332142830 0.035912670195 0.001139 -0.183394 0.983039
0.410331368446 -1.718445777893 0.018184062093 0.001139 -0.183394 0.983039
-0.115928173065 -1.500371456146 0.058831792325 0.001139 -0.183394 0.983039
-0.337826967239 -1.606265068054 0.039093878120 0.001139 -0.183394 0.983039
-0.056912343949 -1.426471948624 0.072606228292 0.001139 -0.183394 0.983039
-0.186982363462 -1.557734966278 0.048139594495 0.001139 -0.183394 0.983039
-0.165921002626 -1.583785414696 0.043283931911 0.001139 -0.183394 0.983039
-0.610125720501 -1.795418977737 0.003836706746 0.001139 -0.183394 0.983039
-0.558768987656 -1.285552620888 0.098872750998 0.001139 -0.183394 0.983039
0.096891731024 -1.477454066277 0.063103467226 0.001139 -0.183394 0.983039
-0.692226529121 -1.671866655350 0.026866132393 0.001139 -0.183394 0.983039
-0.514411628246 -1.645161390305 0.031843837351 0.001139 -0.183394 0.983039
-0.382784247398 -1.535756945610 0.052236158401 0.001139 -0.183394 0.983039
-0.419180333614 -1.257195472717 0.104158341885 0.001139 -0.183394 0.983039
-0.034557878971 -1.685176730156 0.024385198951 0.001139 -0.183394 0.983039
-0.346125364304 -1.378639936447 0.081521824002 0.001139 -0.183394 0.983039
-0.667176246643 -1.657394289970 0.029563687742 0.001139 -0.183394 0.983039
0.377776682377 -1.740395903587 0.014092687517 0.001139 -0.183394 0.983039
-0.214928537607 -1.622490525246 0.036069538444 0.001139 -0.183394 0.983039
-0.706568956375 -1.293791890144 0.097337000072 0.001139 -0.183394 0.983039
-0.617378592491 -1.801913380623 0.002626198810 0.001139 -0.183394 0.983039
-0.655110955238 -1.315140366554 0.093357764184 0.001139 -0.183394 0.983039
-0.117721527815 -1.554607033730 0.048722617328 0.001139 -0.183394 0.983039
-0.447041392326 -1.635770440102 0.033594250679 0.001139 -0.183394 0.983039
-0.149690210819 -1.686635494232 0.024113306776 0.001139 -0.183394 0.983039
-0.602914690971 -1.769284248352 0.008708069101 0.001139 -0.183394 0.983039
-0.119250208139 -1.539047718048 0.051622781903 0.001139 -0.183394 0.983039
0.140512287617 -1.789080500603 0.005018162541 0.001139 -0.183394 0.983039
-0.666019678116 -1.236397981644 0.108034864068 0.001139 -0.183394 0.983039
-0.632033467293 -1.315416932106 0.093306221068 0.001139 -0.183394 0.983039
-0.311056762934 -1.601506233215 0.039980877191 0.001139 -0.183394 0.983039
-0.503936707973 -1.179521799088 0.118636265397 0.001139 -0.183394 0.983039
0.110174447298 -1.701538085938 0.021335544065 0.001139 -0.183394 0.983039
0.547151029110 -1.761184334755 0.010217852890 0.001139 -0.183394 0.983039
-0.548274457455 -1.268383383751 0.102072991431 0.001139 -0.183394 0.983039
-0.372650384903 -1.317523598671 0.092913560569 0.001139 -0.183394 0.983039
-0.434595108032 -1.722792387009 0.017373884097 0.001139 -0.183394 0.983039
0.055494606495 -1.675372600555 0.026212647557 0.001139 -0.183394 0.983039
-0.169746279716 -1.612553119659 0.037921804935 0.001139 -0.183394 0.983039
0.249183654785 -1.760851979256 0.010279797018 0.001139 -0.183394 0.983039
-0.028967678547 -1.713630795479 0.019081542268 0.001139 -0.183394 0.983039
-0.080209255219 -1.761829137802 0.010097661987 0.001139 -0.183394 0.983039
-0.656797051430 -1.287456750870 0.098517820239 0.001139 -0.183394 0.983039
0.699764490128 -1.460211157799 0.066317431629 0.001139 -0.183394 0.983039
0.704857468605 -1.062091588974 0.140524566174 0.001139 -0.183394 0.983039
0.101067423820 -1.324738740921 0.091568700969 0.001139 -0.183394 0.983039
0.588783323765 -1.545171737671 0.050481293350 0.001139 -0.183394 0.983039
-0.393934309483 -1.174708485603 0.119533434510 0.001139 -0.183394 0.983039
0.263491958380 -1.251378178596 0.105242677033 0.001139 -0.183394 0.983039
0.573623299599 -1.238799452782 0.107587255538 0.001139 -0.183394 0.983039
0.523934483528 -1.492124915123 0.060368902981 0.001139 -0.183394 0.983039
0.232390552759 -1.480991244316 0.062444157898 0.001139 -0.183394 0.983039
0.672624588013 -1.589887976646 0.042146466672 0.001139 -0.183394 0.983039
0.323325842619 -1.459073781967 0.066529452801 0.001139 -0.183394 0.983039
-0.431047976017 -1.162980556488 0.121719442308 0.001139 -0.183394 0.983039
0.302886128426 -1.127721786499 0.128291487694 0.001139 -0.183394 0.983039
0.700994849205 -1.534764051437 0.052421227098 0.001139 -0.183394 0.983039
0.438283056021 -1.121143341064 0.129517659545 0.001139 -0.183394 0.983039
0.624189555645 -1.323047995567 0.091883830726 0.001139 -0.183394 0.983039
0.633421480656 -1.363911271095 0.084267184138 0.001139 -0.183394 0.983039
0.732836842537 -1.554578542709 0.048727948219 0.001139 -0.183394 0.983039
0.712093114853 -1.254358887672 0.104687057436 0.001139 -0.183394 0.983039
0.564505994320 -1.478314876556 0.062943018973 0.001139 -0.183394 0.983039
-0.244189202785 -1.087522029877 0.135784447193 0.001139 -0.183394 0.983039
-0.234605252743 -1.178014039993 0.118917301297 0.001139 -0.183394 0.983039
0.632102370262 -1.738091588020 0.014522205107 0.001139 -0.183394 0.983039
0.154945969582 -1.037895560265 0.145034551620 0.001139 -0.183394 0.983039
0.653648853302 -1.528558850288 0.053577844054 0.001139 -0.183394 0.983039
0.612759709358 -1.515863180161 0.055944234133 0.001139 -0.183394 0.983039
-0.416285157204 -1.103565931320 0.132793977857 0.001139 -0.183394 0.983039
-0.015387773514 -1.190724372864 0.116548180580 0.001139 -0.183394 0.983039
-0.025823116302 -1.039110183716 0.144808143377 0.001139 -0.183394 0.983039
-0.476323723793 -1.163795232773 0.121567614377 0.001139 -0.183394 0.983039
0.604996204376 -1.075750350952 0.137978658080 0.001139 -0.183394 0.983039
-0.196454107761 -1.081843852997 0.136842846870 0.001139 -0.183394 0.983039
0.374448299408 -1.062908291817 0.140372306108 0.001139 -0.183394 0.983039
0.254518836737 -1.195290565491 0.115697048604 0.001139 -0.183394 0.983039
0.459465950727 -1.345632195473 0.087674297392 0.001139 -0.183394 0.983039
0.517823457718 -1.278159141541 0.100250840187 0.001139 -0.183394 0.983039
0.431871563196 -1.590514540672 0.042029675096 0.001139 -0.183394 0.983039
-0.138294339180 -1.348400473595 0.087158292532 0.001139 -0.183394 0.983039
-0.417129337788 -1.111736774445 0.131270974874 0.001139 -0.183394 0.983039
0.230587869883 -1.468458294868 0.064780227840 0.001139 -0.183394 0.983039
0.217499494553 -1.143368601799 0.125375002623 0.001139 -0.183394 0.983039
0.281412690878 -1.483105778694 0.062050007284 0.001139 -0.183394 0.983039
-0.024481415749 -1.153598427773 0.123468235135 0.001139 -0.183394 0.983039
0.433527231216 -1.417515873909 0.074275583029 0.001139 -0.183394 0.983039
-0.140126109123 -1.144444704056 0.125174418092 0.001139 -0.183394 0.983039
0.597076237202 -1.706847548485 0.020345877856 0.001139 -0.183394 0.983039
0.022877454758 -1.307028889656 0.094869703054 0.001139 -0.183394 0.983039
0.172044694424 -1.374082565308 0.082371294498 0.001139 -0.183394 0.983039
0.560244143009 -1.674913287163 0.026298254728 0.001139 -0.183394 0.983039
0.212415635586 -1.153760313988 0.123438030481 0.001139 -0.183394 0.983039
0.428964912891 -1.471351742744 0.064240902662 0.001139 -0.183394 0.983039
0.097996950150 -1.451172232628 0.068002238870 0.001139 -0.183394 0.983039
-0.194238424301 -1.040589332581 0.144532442093 0.001139 -0.183394 0.983039
0.407765030861 -1.375723600388 0.082065418363 0.001139 -0.183394 0.983039
-0.038425683975 -1.326783537865 0.091187559068 0.001139 -0.183394 0.983039
0.400797367096 -1.196395158768 0.115491151810 0.001139 -0.183394 0.983039
0.097369909286 -1.410422801971 0.075597710907 0.001139 -0.183394 0.983039
0.684695541859 -1.195607900620 0.115637905896 0.001139 -0.183394 0.983039
-0.702050447464 -1.051895737648 0.142425000668 0.001139 -0.183394 0.983039
0.768842935562 -1.193211674690 0.150203794241 -0.827260 -0.075464 0.556728
0.539313793182 -1.107650995255 0.121039390564 0.342668 -0.912335 -0.224108
0.474314332008 -1.131901979446 0.119905523956 0.347500 -0.908735 -0.231182
0.316924959421 -1.181173443794 0.177396476269 0.208371 -0.949247 -0.235609
0.424994289875 -1.145208358765 0.128273695707 0.208371 -0.949247 -0.235609
0.217716842890 -1.200250387192 0.193651363254 0.037603 -0.828666 -0.558479
0.009156899527 -1.219609498978 0.203326940536 0.149334 -0.971312 -0.185073
0.451157540083 -1.133292794228 0.109447434545 0.149334 -0.971312 -0.185073
0.184384495020 -1.181047558784 0.143239766359 0.149334 -0.971312 -0.185073
-0.095233172178 -1.189654707909 0.115493342280 -0.151829 -0.970939 -0.185002
-0.197085142136 -1.172800064087 0.109921060503 -0.151829 -0.970939 -0.185002
-0.090291321278 -1.209609150887 0.198780119419 -0.037603 -0.828666 -0.558479
-0.186088845134 -1.204919219017 0.198395729065 -0.037603 -0.828666 -0.558479
-0.431885808706 -1.158735275269 0.188961416483 -0.208371 -0.949247 -0.235609
-0.431281983852 -1.153628110886 0.167822510004 -0.208371 -0.949247 -0.235609
-0.481521606445 -1.130486488342 0.125117674470 -0.347500 -0.908735 -0.231182
-0.635996222496 -1.081583142281 0.162624612451 -0.342668 -0.912335 -0.224108
-0.226835757494 -1.924809098244 -0.025409715250 0.001170 -0.223492 0.974705
-0.107649132609 -1.813445091248 0.000017335638 0.001170 -0.223492 0.974705
-0.150044500828 -1.824717998505 -0.002556541935 0.001170 -0.223492 0.974705
-0.102784894407 -1.852072119713 -0.008802143857 0.001170 -0.223492 0.974705
-0.448862433434 -1.893542408943 -0.018270794302 0.001170 -0.223492 0.974705
-0.208568051457 -1.944867849350 -0.029989605770 0.001170 -0.223492 0.974705
-0.521588861942 -1.830075979233 -0.003779899329 0.001170 -0.223492 0.974705
-0.580800056458 -1.824701189995 -0.002552703023 0.001170 -0.223492 0.974705
0.232752442360 -1.881442070007 -0.015507992357 0.001170 -0.223492 0.974705
-0.277515649796 -1.944142460823 -0.029823983088 0.001170 -0.223492 0.974705
-0.259625226259 -1.948431253433 -0.030803227797 0.001170 -0.223492 0.974705
0.360712230206 -1.847688078880 -0.007801171392 0.001170 -0.223492 0.974705
-0.197910115123 -1.953082919121 -0.031865321100 0.001170 -0.223492 0.974705
0.693408787251 -1.803750872612 0.002230729675 0.001170 -0.223492 0.974705
-0.057729050517 -1.864426016808 -0.011622816324 0.001170 -0.223492 0.974705
-0.355885922909 -1.987935543060 -0.039822988212 0.001170 -0.223492 0.974705
0.154827326536 -2.002646207809 -0.041391998529 -0.003483 -0.205483 0.978655
0.482456862926 -1.863621354103 -0.011107233353 -0.003483 -0.205483 0.978655
0.379265308380 -1.981059789658 -0.036148939282 -0.003483 -0.205483 0.978655
0.224567145109 -1.906424283981 -0.020920513198 -0.003483 -0.205483 0.978655
-0.259404510260 -1.997168302536 -0.041529454291 -0.003483 -0.205483 0.978655
0.407682418823 -1.965045928955 -0.032689556479 -0.003483 -0.205483 0.978655
0.451115369797 -1.887395739555 -0.016209242865 -0.003483 -0.205483 0.978655
0.178611546755 -1.924507856369 -0.024870177731 -0.003483 -0.205483 0.978655
0.380818784237 -1.942424416542 -0.028011545539 -0.003483 -0.205483 0.978655
0.237032353878 -1.889978647232 -0.017419926822 -0.003483 -0.205483 0.978655
-0.441110998392 -1.936244964600 0.012125697918 -0.113830 -0.317385 0.941440
-0.463673174381 -2.099593877792 -0.033697102219 -0.492058 -0.125540 0.861463
-0.304530739784 -2.086898326874 0.004960983526 -0.046644 -0.126280 0.990897
-0.283449918032 -2.110802888870 0.002851308323 -0.046644 -0.126280 0.990897
-0.244049668312 -2.058600187302 0.011447672732 -0.046644 -0.126280 0.990897
-0.233942866325 -2.025457620621 0.014763661660 0.001036 -0.063217 0.997999
-0.102268904448 -2.043882131577 0.013565759175 0.001036 -0.063217 0.997999
-0.173205107450 -2.016009330750 0.015377957374 0.001036 -0.063217 0.997999
-0.211047917604 -1.972039341927 0.018728131428 -0.007443 -0.086123 0.996257
0.062295556068 -1.965497374535 0.021487861872 -0.007443 -0.086123 0.996257
0.238745227456 -2.002191305161 0.019753538072 -0.007443 -0.086123 0.996257
-0.154469877481 -1.950317621231 0.021049439907 -0.007443 -0.086123 0.996257
0.187583476305 -2.010382652283 0.018638379872 -0.007443 -0.086123 0.996257
0.279673367739 -1.954931735992 0.024143390357 -0.007443 -0.086123 0.996257
0.285272777081 -1.978502154350 0.022163117304 -0.007443 -0.086123 0.996257
0.231774687767 -2.031102418900 0.017175734043 0.047272 -0.146427 0.988091
0.281400293112 -2.085957765579 0.006691318005 0.047272 -0.146427 0.988091
0.394751012325 -2.012151241302 0.009980538860 0.151805 -0.108085 0.982483
0.442091822624 -1.971166610718 0.007190848701 0.151805 -0.108085 0.982483
0.465538144112 -2.027501106262 -0.007157554384 0.482703 -0.309747 0.819179
0.533140361309 -2.046336889267 -0.034648675472 0.127706 -0.352909 0.926901
0.549283385277 -1.967319846153 -0.008962125517 0.159935 -0.267455 0.950204
0.660475850105 -1.894097447395 -0.006504840218 0.148291 -0.265856 0.952539
0.373784512281 -1.919574022293 0.025385314599 0.115884 -0.217761 0.969098
0.405175119638 -1.857265233994 0.034394174814 0.143911 -0.187212 0.971721
-0.500919044018 -2.074649810791 -0.041711173952 -0.090918 -0.314918 0.944754
-0.598755598068 -1.907502293587 0.003977887798 -0.087861 -0.305547 0.948115
-0.635567486286 -1.868056654930 0.008514081128 -0.093784 -0.134147 0.986514
-0.766457200050 -1.279775857925 0.131142720580 0.659465 -0.085891 0.746812
-0.740831196308 -1.317494630814 0.097847059369 0.864670 -0.053955 0.499434
-0.733146190643 -1.519834041595 0.063102267683 0.864670 -0.053955 0.499434
0.746105134487 -1.316739678383 0.104951553047 -0.805692 -0.070122 0.588169
0.687646627426 -1.063546895981 0.168215408921 0.342668 -0.912335 -0.224108
0.584977746010 -1.109414577484 0.196991369128 0.347500 -0.908735 -0.231182
0.394616961479 -1.166966915131 0.189074397087 0.208371 -0.949247 -0.235609
0.218721866608 -1.197838187218 0.176923304796 0.146915 -0.919268 -0.365189
0.019620507956 -1.200788259506 0.104765504599 0.146915 -0.919268 -0.365189
0.232284471393 -1.167841792107 0.106992244720 0.146915 -0.919268 -0.365189
0.131184697151 -1.208204269409 0.169718444347 0.001069 -0.995047 -0.099398
0.003345355392 -1.204649090767 0.134353101254 0.001069 -0.995047 -0.099398
-0.114274196327 -1.193764209747 0.124795719981 -0.146915 -0.919268 -0.365189
-0.413607269526 -1.145519137383 0.123373217881 -0.146915 -0.919268 -0.365189
-0.133424222469 -1.193318367004 0.131346285343 -0.146915 -0.919268 -0.365189
-0.426406621933 -1.164517521858 0.207422167063 -0.208371 -0.949247 -0.235609
-0.513734877110 -1.123956322670 0.147618815303 -0.347500 -0.908735 -0.231182
-0.633687973022 -1.091147422791 0.197800859809 -0.342668 -0.912335 -0.224108
0.764892756939 -1.361585378647 0.117532044649 -0.168403 -0.202345 0.964726
0.762357890606 -1.418559312820 0.110601425171 -0.930643 -0.001266 0.365926
-0.628947913647 -1.723920822144 0.021916117519 0.048006 -0.167436 0.984713
-0.735723257065 -1.384229779243 0.085122704506 0.048006 -0.167436 0.984713
-0.610094845295 -1.802897572517 0.007506707683 0.048006 -0.167436 0.984713
-0.549232721329 -1.955131173134 -0.021442323923 0.048006 -0.167436 0.984713
-0.663425564766 -1.886459469795 -0.004231456667 0.048006 -0.167436 0.984713
-0.632305800915 -1.596819162369 0.043814294040 0.048006 -0.167436 0.984713
-0.684396982193 -1.746538400650 0.020702272654 0.048006 -0.167436 0.984713
-0.609620571136 -1.845843553543 0.000139201991 0.048006 -0.167436 0.984713
-0.575589239597 -1.755286097527 0.013997649774 0.048006 -0.167436 0.984713
-0.655080676079 -1.729829311371 0.022156588733 0.048006 -0.167436 0.984713
-0.628145158291 -1.491375923157 0.068640887737 -0.485976 -0.271712 0.830662
-0.535038411617 -1.791121840477 0.025415066630 -0.485976 -0.271712 0.830662
-0.487962931395 -1.859911918640 0.030568834394 -0.485976 -0.271712 0.830662
-0.610321998596 -1.529096484184 0.066781699657 -0.485976 -0.271712 0.830662
-0.523617148399 -1.769721269608 0.039095774293 -0.485976 -0.271712 0.830662
-0.563505470753 -1.333510994911 0.107415862381 -0.033066 -0.147088 0.988571
-0.450291037560 -1.706706285477 0.055657561868 -0.033066 -0.147088 0.988571
-0.406556248665 -1.909751176834 0.026907010004 -0.033066 -0.147088 0.988571
-0.063498891890 -2.077718734741 0.013265481219 -0.033066 -0.147088 0.988571
-0.394282996655 -1.808710336685 0.042338997126 -0.033066 -0.147088 0.988571
-0.226110622287 -2.020901679993 0.016340857372 -0.033066 -0.147088 0.988571
-0.288341373205 -1.853633522987 0.039159536362 -0.033066 -0.147088 0.988571
-0.573860526085 -1.486513376236 0.084319777787 -0.033066 -0.147088 0.988571
-0.468535006046 -1.708489179611 0.054789468646 -0.033066 -0.147088 0.988571
-0.399688869715 -1.937827944756 0.022958509624 -0.033066 -0.147088 0.988571
-0.255687147379 -2.078376531601 0.006815957837 -0.033066 -0.147088 0.988571
-0.139873310924 -2.018126010895 0.019603734836 -0.033066 -0.147088 0.988571
-0.432971656322 -1.761607646942 0.048065267503 -0.033066 -0.147088 0.988571
-0.478008955717 -1.725293517113 0.051977284253 -0.033066 -0.147088 0.988571
-0.296466797590 -1.959004163742 0.023220721632 -0.033066 -0.147088 0.988571
-0.192072674632 -2.082382440567 0.008322605863 -0.033066 -0.147088 0.988571
-0.505193233490 -1.651328563690 0.062078617513 -0.033066 -0.147088 0.988571
-0.535374343395 -1.570685386658 0.073074057698 -0.033066 -0.147088 0.988571
-0.416871696711 -1.612027525902 0.070842273533 -0.033066 -0.147088 0.988571
-0.397603362799 -1.672544121742 0.062479298562 -0.033066 -0.147088 0.988571
-0.302201360464 -1.745647668839 0.054760668427 -0.033066 -0.147088 0.988571
-0.136030137539 -1.946851611137 0.030330361798 -0.033066 -0.147088 0.988571
-0.008926942945 -1.725015997887 0.058707103133 0.001091 -0.125512 0.992091
0.615361571312 -1.135385513306 0.132982254028 0.001091 -0.125512 0.992091
-0.104116827250 -1.201772928238 0.124619513750 0.001091 -0.125512 0.992091
0.651676297188 -1.100808501244 0.137337878346 0.001091 -0.125512 0.992091
0.595094203949 -1.135601758957 0.132955029607 0.001091 -0.125512 0.992091
0.058209370822 -2.003700017929 0.023601556197 0.001091 -0.125512 0.992091
0.159128203988 -1.171629190445 0.128416672349 0.001091 -0.125512 0.992091
0.208466112614 -1.475581169128 0.090128146112 0.001091 -0.125512 0.992091
0.278849989176 -1.649985790253 0.068158589303 0.001091 -0.125512 0.992091
0.046113178134 -1.442872881889 0.094248384237 0.001091 -0.125512 0.992091
-0.321597695351 -1.181467771530 0.127177298069 0.001091 -0.125512 0.992091
-0.036462605000 -1.345574855804 0.106504902244 0.001091 -0.125512 0.992091
0.181627750397 -1.741561174393 0.056622914970 0.001091 -0.125512 0.992091
0.178008511662 -1.148920297623 0.131277278066 0.001091 -0.125512 0.992091
-0.032319482416 -1.979309201241 0.026674045250 0.001091 -0.125512 0.992091
-0.037136912346 -1.128512859344 0.133847981691 0.001091 -0.125512 0.992091
0.064622551203 -1.067928195000 0.141479790211 0.001091 -0.125512 0.992091
-0.416828721762 -1.477517843246 0.089884199202 0.001091 -0.125512 0.992091
-0.216144293547 -1.421894550323 0.096890993416 0.001091 -0.125512 0.992091
-0.104462631047 -1.782127261162 0.051512856036 0.001091 -0.125512 0.992091
-0.091518938541 -1.333787083626 0.107989802957 0.001091 -0.125512 0.992091
0.102255567908 -1.707909941673 0.060861933976 0.001091 -0.125512 0.992091
0.327589094639 -1.078740477562 0.140117764473 0.001091 -0.125512 0.992091
-0.638080835342 -1.112655639648 0.135845497251 0.001091 -0.125512 0.992091
-0.363010883331 -1.385832786560 0.101433634758 0.001091 -0.125512 0.992091
0.198093712330 -1.163824200630 0.129399865866 0.001091 -0.125512 0.992091
-0.146714895964 -1.625547170639 0.071237079799 0.001091 -0.125512 0.992091
-0.630428373814 -1.194884419441 0.125487223268 0.001091 -0.125512 0.992091
-0.676310181618 -1.128075480461 0.133903101087 0.001091 -0.125512 0.992091
-0.052599042654 -1.234240651131 0.120529569685 0.001091 -0.125512 0.992091
-0.227140814066 -1.127726316452 0.133947074413 0.001091 -0.125512 0.992091
0.326887100935 -1.277190208435 0.115119248629 0.001091 -0.125512 0.992091
-0.724397599697 -1.070563912392 0.141147762537 0.001091 -0.125512 0.992091
-0.051335126162 -1.145951032639 0.131651312113 0.001091 -0.125512 0.992091
0.222513750196 -1.123748421669 0.134448170662 0.001091 -0.125512 0.992091
0.200331091881 -1.154861569405 0.130528867245 0.001091 -0.125512 0.992091
-0.344903022051 -1.373591899872 0.102975621819 0.001091 -0.125512 0.992091
0.432920813560 -1.109803557396 0.136204779148 0.001091 -0.125512 0.992091
0.012935906649 -1.047472715378 0.144056528807 0.001091 -0.125512 0.992091
-0.017573744059 -2.004444122314 0.023507829756 0.001091 -0.125512 0.992091
-0.043543457985 -1.741095662117 0.056681551039 0.001091 -0.125512 0.992091
0.316143274307 -1.540564179420 0.081942304969 0.001091 -0.125512 0.992091
-0.088865846395 -1.102262258530 0.137154757977 0.001091 -0.125512 0.992091
-0.076884791255 -1.458102226257 0.092329956591 0.001091 -0.125512 0.992091
-0.181525960565 -1.330895543098 0.108354046941 0.001091 -0.125512 0.992091
-0.406991899014 -1.323672056198 0.109264001250 0.001091 -0.125512 0.992091
0.056607112288 -1.429697513580 0.095908060670 0.001091 -0.125512 0.992091
-0.176978364587 -1.256250739098 0.117756985128 0.001091 -0.125512 0.992091
-0.102030709386 -1.307964801788 0.111242592335 0.001091 -0.125512 0.992091
0.491504669189 -1.359093785286 0.104801952839 0.001091 -0.125512 0.992091
0.388721764088 -1.336902379990 0.107597380877 0.001091 -0.125512 0.992091
-0.535316944122 -1.242344617844 0.119508735836 0.001091 -0.125512 0.992091
0.565914332867 -1.097572803497 0.137745469809 0.001091 -0.125512 0.992091
0.082167133689 -1.373643517494 0.102969132364 0.001091 -0.125512 0.992091
0.200984537601 -1.822225689888 0.046461690217 0.001091 -0.125512 0.992091
0.557118892670 -1.088005542755 0.138950645924 0.001091 -0.125512 0.992091
-0.263462245464 -1.446573972702 0.093782156706 0.001091 -0.125512 0.992091
0.142320722342 -1.141842722893 0.132168829441 0.001091 -0.125512 0.992091
-0.623749375343 -1.140204668045 0.132375180721 0.001091 -0.125512 0.992091
0.175088554621 -1.211382627487 0.123408973217 0.001091 -0.125512 0.992091
0.434984564781 -1.220139980316 0.122305803001 0.001091 -0.125512 0.992091
0.305633068085 -1.216303944588 0.122789032757 0.001091 -0.125512 0.992091
-0.527285933495 -1.073035240173 0.140836447477 0.001091 -0.125512 0.992091
-0.240472674370 -1.154457926750 0.130579710007 0.001091 -0.125512 0.992091
0.144012063742 -1.234704732895 0.120471104980 0.001091 -0.125512 0.992091
-0.200937673450 -1.770293593407 0.053003519773 0.001091 -0.125512 0.992091
-0.006332844496 -1.258886814117 0.117424920201 0.001091 -0.125512 0.992091
0.416066557169 -1.199323296547 0.124928086996 0.001091 -0.125512 0.992091
-0.356533050537 -1.499526500702 0.087111786008 0.001091 -0.125512 0.992091
0.058814436197 -1.042964339256 0.144624441862 0.001091 -0.125512 0.992091
-0.017054885626 -2.076475143433 0.014434136450 0.001091 -0.125512 0.992091
0.436220377684 -1.192342638969 0.125807419419 0.001091 -0.125512 0.992091
-0.233092308044 -1.267391443253 0.116353608668 0.001091 -0.125512 0.992091
-0.431522041559 -1.370207071304 0.103402011096 0.001091 -0.125512 0.992091
0.014771908522 -1.735920906067 0.057333417237 0.001091 -0.125512 0.992091
-0.064639806747 -1.065773606300 0.141751170158 0.001091 -0.125512 0.992091
0.633360564709 -1.122964143753 0.134546965361 0.001091 -0.125512 0.992091
0.145385846496 -1.837870955467 0.044490870088 0.001091 -0.125512 0.992091
0.415320098400 -1.375696420670 0.102710530162 0.001091 -0.125512 0.992091
-0.260015279055 -1.493588209152 0.087859824300 0.001091 -0.125512 0.992091
-0.159540057182 -1.180954933167 0.127241909504 0.001091 -0.125512 0.992091
0.416846573353 -1.264303922653 0.116742536426 0.001091 -0.125512 0.992091
-0.232940495014 -1.386834383011 0.101307481527 0.001091 -0.125512 0.992091
0.277395069599 -1.841828823090 0.041276860982 0.033066 -0.147088 0.988571
0.397810250521 -2.022710323334 0.010397290811 0.033066 -0.147088 0.988571
0.336292922497 -1.854663372040 0.037421613932 0.033066 -0.147088 0.988571
0.243607416749 -2.035742282867 0.013555536047 0.033066 -0.147088 0.988571
0.397684782743 -1.678041815758 0.061659030616 0.033066 -0.147088 0.988571
0.466490656137 -1.540823578835 0.079791516066 0.033066 -0.147088 0.988571
0.368975043297 -1.956987380981 0.021124266088 0.033066 -0.147088 0.988571
0.175693482161 -1.999035835266 0.021258886904 0.033066 -0.147088 0.988571
0.444908380508 -1.959060430527 0.018306443468 0.033066 -0.147088 0.988571
0.210586652160 -2.066153049469 0.010124279186 0.033066 -0.147088 0.988571
0.625314712524 -1.423187732697 0.092036783695 0.033066 -0.147088 0.988571
0.317277580500 -1.999836683273 0.016460496932 0.033066 -0.147088 0.988571
0.360435873270 -1.633942842484 0.069448292255 0.033066 -0.147088 0.988571
0.319784253836 -1.877675533295 0.034544941038 0.033066 -0.147088 0.988571
0.358097553253 -1.930376887321 0.025441190228 0.033066 -0.147088 0.988571
0.656548380852 -1.221734523773 0.120963774621 0.033066 -0.147088 0.988571
0.317254424095 -1.916911125183 0.028793606907 0.033066 -0.147088 0.988571
0.123203307390 -2.011306524277 0.021168811247 0.033066 -0.147088 0.988571
0.502172887325 -1.725898504257 0.051088679582 0.033066 -0.147088 0.988571
0.506700813770 -1.487041711807 0.086460798979 0.033066 -0.147088 0.988571
0.582697093487 -1.481561422348 0.084764190018 0.033066 -0.147088 0.988571
0.079911917448 -2.121369123459 0.006231546402 0.033066 -0.147088 0.988571
0.532518267632 -1.922887206078 -0.016107419506 0.485976 -0.271712 0.830662
0.482151389122 -1.961601614952 0.000791126862 0.485976 -0.271712 0.830662
0.615898966789 -1.506340622902 0.070937789977 0.485976 -0.271712 0.830662
0.543276131153 -1.809122800827 0.014710472897 0.485976 -0.271712 0.830662
0.474445909262 -2.094678163528 -0.038118857890 0.485976 -0.271712 0.830662
0.529903054237 -1.867202520370 0.003598038107 0.485976 -0.271712 0.830662
0.512191951275 -2.011315107346 -0.032824296504 -0.048006 -0.167436 0.984713
0.622786283493 -1.708264827728 0.024298705161 -0.048006 -0.167436 0.984713
0.593878030777 -1.728558301926 0.019444182515 -0.048006 -0.167436 0.984713
0.702267885208 -1.691380977631 0.030991008505 -0.048006 -0.167436 0.984713
0.668587863445 -1.651838421822 0.036141470075 -0.048006 -0.167436 0.984713
0.652678370476 -1.636474847794 0.038007449359 -0.048006 -0.167436 0.984713
0.712318956852 -1.383583307266 0.084112897515 -0.048006 -0.167436 0.984713
0.715082406998 -1.471783876419 0.069160819054 -0.048006 -0.167436 0.984713
0.513047695160 -2.061955690384 -0.041444040835 -0.048006 -0.167436 0.984713
0.669037461281 -1.646112084389 0.037142358720 -0.048006 -0.167436 0.984713
0.450733304024 2.109281301498 -0.427580058575 0.639507 0.001375 0.768784
0.473987847567 2.140472650528 -0.470277160406 0.953933 0.001225 -0.300017
0.408160597086 2.107865571976 -0.430178731680 0.214739 0.022542 -0.976411
0.378612428904 2.118358135223 -0.453150629997 0.950099 0.026427 -0.310827
0.399883896112 2.104595422745 -0.424386054277 -0.228974 0.001174 0.973432
0.373202204704 1.985290050507 -0.465311080217 0.000978 -0.999999 0.000978
0.462420731783 2.066661119461 -0.451522409916 -0.951015 0.028895 -0.307792
-0.474266886711 2.137459516525 -0.459117263556 -0.953933 0.001225 0.300017
