0.028619881719 0.157639116049 -0.433947265148 0.000978 0.000978 0.999999
0.226667851210 -0.439263164997 -0.433947265148 0.000978 0.000978 0.999999
0.291133821011 -0.307557672262 -0.433947265148 0.000978 0.000978 0.999999
0.286856949329 -0.653654456139 -0.433947265148 0.000978 0.000978 0.999999
0.044651538134 -0.393963277340 -0.433947265148 0.000978 0.000978 0.999999
0.048586498946 -0.624683380127 -0.433947265148 0.000978 0.000978 0.999999
0.543849110603 -0.713026285172 -0.433947265148 0.000978 0.000978 0.999999
0.598966181278 -0.748931467533 -0.433947265148 0.000978 0.000978 0.999999
0.347254008055 -0.672986865044 -0.433947265148 0.000978 0.000978 0.999999
0.024557176977 -0.779761552811 -0.433947265148 0.000978 0.000978 0.999999
0.391114801168 -0.412918925285 -0.433947265148 0.000978 0.000978 0.999999
0.016319546849 -0.101882167161 -0.433947265148 0.000978 0.000978 0.999999
0.201576605439 -0.637583017349 -0.433947265148 0.000978 0.000978 0.999999
0.369654864073 -0.787464737892 -0.433947265148 0.000978 0.000978 0.999999
0.039812594652 -0.382869601250 -0.433947265148 0.000978 0.000978 0.999999
0.132938697934 0.053932502866 -0.433947265148 0.000978 0.000978 0.999999
0.310931622982 -0.513156533241 -0.433947265148 0.000978 0.000978 0.999999
0.457351297140 -0.552303314209 -0.433947265148 0.000978 0.000978 0.999999
0.490296959877 -0.580662965775 -0.433947265148 0.000978 0.000978 0.999999
0.044067211449 0.015197567642 -0.433947265148 0.000978 0.000978 0.999999
0.417436599731 -0.489630430937 -0.433947265148 0.000978 0.000978 0.999999
0.337440550327 -0.774628162384 -0.433947265148 0.000978 0.000978 0.999999
0.315876483917 -0.537547588348 -0.433947265148 0.000978 0.000978 0.999999
0.038255311549 -0.790674984455 -0.433947265148 0.000978 0.000978 0.999999
0.269458949566 -0.363683491945 -0.433947265148 0.000978 0.000978 0.999999
0.354806602001 0.303378075361 -0.433947265148 0.000978 0.000978 0.999999
0.613102197647 -0.367868334055 -0.433947265148 0.000978 0.000978 0.999999
0.334122270346 -0.002290695906 -0.433947265148 0.000978 0.000978 0.999999
0.532377719879 0.081706464291 -0.433947265148 0.000978 0.000978 0.999999
0.103359386325 0.320973098278 -0.433947265148 0.000978 0.000978 0.999999
0.561731815338 0.246515661478 -0.433947265148 0.000978 0.000978 0.999999
0.354965806007 0.211485490203 -0.433947265148 0.000978 0.000978 0.999999
0.213275432587 0.082540601492 -0.433947265148 0.000978 0.000978 0.999999
0.329539716244 0.343604117632 -0.433947265148 0.000978 0.000978 0.999999
0.729846715927 -0.190270513296 -0.433947265148 0.000978 0.000978 0.999999
0.391423463821 -0.132268041372 -0.433947265148 0.000978 0.000978 0.999999
0.534482479095 0.124808222055 -0.433947265148 0.000978 0.000978 0.999999
0.611996233463 -0.371073216200 -0.433947265148 0.000978 0.000978 0.999999
0.379623651505 -0.034816473722 -0.433947265148 0.000978 0.000978 0.999999
0.586261272430 -0.506863713264 -0.433947265148 0.000978 0.000978 0.999999
0.524153649807 0.259776115417 -0.433947265148 0.000978 0.000978 0.999999
0.645293414593 -0.259194284678 -0.433947265148 0.000978 0.000978 0.999999
0.381088793278 -0.199475020170 -0.433947265148 0.000978 0.000978 0.999999
0.472336977720 -0.125874787569 -0.433947265148 0.000978 0.000978 0.999999
0.659802436829 -0.396162837744 -0.433947265148 0.000978 0.000978 0.999999
0.458949923515 -0.025059342384 -0.433947265148 0.000978 0.000978 0.999999
0.538066625595 -0.344583421946 -0.433947265148 0.000978 0.000978 0.999999
0.508379578590 -0.218385547400 -0.433947265148 0.000978 0.000978 0.999999
0.356785953045 0.256791621447 -0.433947265148 0.000978 0.000978 0.999999
0.671253502369 -0.384892314672 -0.433947265148 0.000978 0.000978 0.999999
0.388034433126 0.263822376728 -0.433947265148 0.000978 0.000978 0.999999
0.778128623962 -0.798659086227 -0.433947265148 0.000978 0.000978 0.999999
0.467804640532 0.317072361708 -0.433947265148 0.000978 0.000978 0.999999
0.564478695393 -0.489793986082 -0.433947265148 0.000978 0.000978 0.999999
0.540071308613 0.281142652035 -0.433947265148 0.000978 0.000978 0.999999
0.564133763313 0.037406980991 -0.433947265148 0.000978 0.000978 0.999999
0.382683128119 0.245147049427 -0.433947265148 0.000978 0.000978 0.999999
0.306282788515 0.313497662544 -0.433947265148 0.000978 0.000978 0.999999
0.671422958374 0.082032024860 -0.433947265148 0.000978 0.000978 0.999999
0.459775179625 -0.186558872461 -0.433947265148 0.000978 0.000978 0.999999
0.560437083244 -0.002733767033 -0.433947265148 0.000978 0.000978 0.999999
0.242824107409 0.204947099090 -0.433947265148 0.000978 0.000978 0.999999
0.456765532494 0.008453100920 -0.433947265148 0.000978 0.000978 0.999999
0.701815366745 -0.509690523148 -0.433947265148 0.000978 0.000978 0.999999
0.440958619118 -0.227423816919 -0.433947265148 0.000978 0.000978 0.999999
0.700812160969 -0.703128457069 -0.433947265148 0.000978 0.000978 0.999999
0.322919785976 0.389997005463 -0.433947265148 0.000978 0.000978 0.999999
0.728722333908 -0.283839434385 -0.433947265148 0.000978 0.000978 0.999999
0.637504637241 -0.567657828331 -0.433947265148 0.000978 0.000978 0.999999
0.757056236267 -0.368135750294 -0.345783710480 -0.998366 -0.045332 -0.034790
0.730062246323 0.216863542795 -0.350546598434 -0.998366 -0.045332 -0.034790
0.727648913860 0.214052528143 -0.275609910488 -0.998366 -0.045332 -0.034790
0.724932730198 0.302332460880 -0.316313475370 -0.998366 -0.045332 -0.034790
0.755893588066 -0.300708889961 -0.403739333153 -0.998366 -0.045332 -0.034790
0.761227309704 -0.444071918726 -0.364818841219 -0.998366 -0.045332 -0.034790
0.758282482624 -0.350513905287 -0.406005471945 -0.998366 -0.045332 -0.034790
0.732673346996 0.155760318041 -0.343910038471 -0.998366 -0.045332 -0.034790
0.737757980824 0.024334818125 -0.313975185156 -0.998366 -0.045332 -0.034790
0.750002563000 -0.155407547951 -0.428894013166 -0.998366 -0.045332 -0.034790
0.732193350792 0.118100240827 -0.278270721436 -0.998366 -0.045332 -0.034790
0.733639299870 0.105096489191 -0.303084403276 -0.998366 -0.045332 -0.034790
0.756675899029 -0.350642979145 -0.358500778675 -0.998366 -0.045332 -0.034790
0.742453336716 0.000489354134 -0.419687598944 -0.998366 -0.045332 -0.034790
0.741581857204 -0.021811485291 -0.363518357277 -0.998366 -0.045332 -0.034790
0.746331810951 -0.165046274662 -0.307576894760 -0.998366 -0.045332 -0.034790
0.726411521435 -0.139604032040 -0.066122695804 -0.996014 -0.035922 -0.081641
0.747156441212 -0.562178432941 -0.133382588625 -0.996014 -0.035922 -0.081641
0.748850464821 -0.572634816170 -0.149410322309 -0.996014 -0.035922 -0.081641
0.732874393463 -0.637480795383 0.073337309062 -0.996014 -0.035922 -0.081641
0.751427590847 -0.527001142502 -0.200748085976 -0.996014 -0.035922 -0.081641
0.730045139790 -0.048132002354 -0.150390133262 -0.996014 -0.035922 -0.081641
0.727714776993 -0.287066787481 -0.017384558916 -0.996014 -0.035922 -0.081641
0.736847341061 -0.042808949947 -0.235467791557 -0.996014 -0.035922 -0.081641
0.763488650322 -0.594011485577 -0.318114548922 -0.996014 -0.035922 -0.081641
0.747377455235 -0.363956749439 -0.222895741463 -0.996014 -0.035922 -0.081641
0.740284681320 -0.286325633526 -0.170617580414 -0.996014 -0.035922 -0.081641
0.731822609901 -0.605630993843 0.072180986404 -0.996014 -0.035922 -0.081641
0.741200149059 -0.619889140129 -0.035648763180 -0.996014 -0.035922 -0.081641
0.739807069302 -0.631542563438 -0.013597401790 -0.996014 -0.035922 -0.081641
0.745347619057 -0.474175542593 -0.149925351143 -0.996014 -0.035922 -0.081641
0.725673139095 -0.417879104614 0.064748637378 -0.996014 -0.035922 -0.081641
0.734203994274 -0.044444859028 -0.202596083283 -0.996014 -0.035922 -0.081641
0.730660140514 0.021000564098 -0.188152939081 -0.996014 -0.035922 -0.081641
0.718947589397 0.246020078659 -0.144235774875 -0.996014 -0.035922 -0.081641
0.745010375977 -0.453389674425 -0.154927372932 -0.996014 -0.035922 -0.081641
0.741377770901 -0.338754624128 -0.160949587822 -0.996014 -0.035922 -0.081641
0.752639412880 -0.660935699940 -0.156824111938 -0.996014 -0.035922 -0.081641
0.741626977921 -0.486361235380 -0.099328272045 -0.996014 -0.035922 -0.081641
0.739769279957 -0.407810986042 -0.111135207117 -0.996014 -0.035922 -0.081641
0.718020975590 0.080765843391 -0.060579121113 -0.996014 -0.035922 -0.081641
0.718374967575 0.022380590439 -0.039312571287 -0.996014 -0.035922 -0.081641
0.733732402325 -0.576438784599 0.036162238568 -0.996014 -0.035922 -0.081641
0.770772337914 -0.782032787800 -0.324361592531 -0.996014 -0.035922 -0.081641
0.741351485252 -0.252598345280 -0.198368072510 -0.996014 -0.035922 -0.081641
0.743611991405 -0.518048942089 -0.109594717622 -0.996014 -0.035922 -0.081641
0.732456088066 0.030425906181 -0.214128240943 -0.996014 -0.035922 -0.081641
0.764820277691 -0.641595840454 -0.313470512629 -0.996014 -0.035922 -0.081641
0.722717463970 -0.145617604256 -0.018551275134 -0.996014 -0.035922 -0.081641
0.759198904037 -0.439530313015 -0.333596706390 -0.996014 -0.035922 -0.081641
0.735989809036 -0.559418201447 0.001246258616 -0.996014 -0.035922 -0.081641
0.558427572250 0.390768736601 -0.430634260178 0.001067 -0.995277 0.097074
0.365970373154 0.400713890791 -0.327717810869 0.001067 -0.995277 0.097074
0.521243631840 0.402275115252 -0.311561852694 0.001067 -0.995277 0.097074
0.343775212765 0.397476255894 -0.361222028732 0.001067 -0.995277 0.097074
0.669379055500 0.393065720797 -0.406864166260 0.001067 -0.995277 0.097074
0.524555444717 0.391886144876 -0.419070839882 0.001067 -0.995277 0.097074
0.714663207531 0.401884853840 -0.315600335598 0.001067 -0.995277 0.097074
0.599204719067 0.409768402576 -0.234018251300 0.001067 -0.995277 0.097074
0.574077010155 0.401789188385 -0.316590607166 0.001067 -0.995277 0.097074
0.649908721447 0.414172142744 -0.188446730375 0.001067 -0.995277 0.097074
0.037319637835 0.405635148287 -0.276790916920 0.001067 -0.995277 0.097074
0.006874479353 0.411363363266 -0.217513188720 0.001067 -0.995277 0.097074
0.282275199890 0.414186477661 -0.188298478723 0.001067 -0.995277 0.097074
0.081543579698 0.404948413372 -0.283897519112 0.001067 -0.995277 0.097074
0.607900083065 0.416362911463 -0.165775880218 0.001067 -0.995277 0.097074
0.494090944529 0.412119358778 -0.209689810872 0.001067 -0.995277 0.097074
0.027766697109 0.410808593035 -0.223254099488 0.001067 -0.995277 0.097074
0.580119967461 0.414758950472 -0.182374015450 0.001067 -0.995277 0.097074
0.203107908368 0.410230487585 -0.229236394167 0.001067 -0.995277 0.097074
0.183543860912 0.482091635466 -0.174153044820 0.001108 0.145143 0.989410
0.570051610470 0.617232263088 -0.193823114038 0.001108 0.145143 0.989410
0.582981705666 0.675773799419 -0.202343970537 0.001108 0.145143 0.989410
0.558700263500 0.657118558884 -0.199628651142 0.001108 0.145143 0.989410
0.299621343613 0.523414790630 -0.180167734623 0.001108 0.145143 0.989410
0.311924338341 0.559280395508 -0.185388073325 0.001108 0.145143 0.989410
0.497301429510 0.713773608208 -0.207874938846 0.001108 0.145143 0.989410
0.063283555210 0.420106053352 -0.165130883455 0.001108 0.145143 0.989410
0.549930393696 0.431550949812 -0.166796714067 0.001108 0.145143 0.989410
0.637160062790 0.667359709740 -0.201119288802 0.001108 0.145143 0.989410
0.273208081722 0.437587946653 -0.167675420642 0.001108 0.145143 0.989410
0.274844616652 0.487513661385 -0.174942240119 0.001108 0.145143 0.989410
0.268434762955 0.446235626936 -0.168934106827 0.001108 0.145143 0.989410
0.617149591446 0.523634314537 -0.180199682713 0.001108 0.145143 0.989410
0.627938747406 0.612317919731 -0.193107813597 0.001108 0.145143 0.989410
0.331440329552 0.505898177624 -0.177618145943 0.001108 0.145143 0.989410
0.694570720196 0.489443600178 -0.060567684472 -0.979125 -0.197260 -0.049016
0.658863842487 0.698153734207 -0.187973544002 -0.979125 -0.197260 -0.049016
0.698583483696 0.470555126667 -0.064659230411 -0.979125 -0.197260 -0.049016
0.667401731014 0.639281988144 -0.121357351542 -0.979125 -0.197260 -0.049016
0.667976617813 0.650839924812 -0.179451867938 -0.979125 -0.197260 -0.049016
0.673133432865 0.584579646587 -0.015435973182 -0.979125 -0.197260 -0.049016
0.663950085640 0.661142587662 -0.140468627214 -0.979125 -0.197260 -0.049016
0.674921810627 0.615862905979 -0.177320942283 -0.979125 -0.197260 -0.049016
0.670714080334 0.633176207542 -0.162979781628 -0.979125 -0.197260 -0.049016
0.638883829117 0.786560773849 -0.144855290651 -0.979125 -0.197260 -0.049016
0.651561021805 0.740234136581 -0.211590960622 -0.979125 -0.197260 -0.049016
0.011544395238 0.575147807598 -0.187697604299 0.001108 0.145143 0.989410
0.399821728468 0.809004127979 -0.221735984087 0.001108 0.145143 0.989410
0.542462527752 0.838435113430 -0.226019755006 0.001108 0.145143 0.989410
0.243045359850 0.721209406853 -0.208957239985 0.001108 0.145143 0.989410
0.485163927078 0.791412413120 -0.219175472856 0.001108 0.145143 0.989410
0.006594214123 0.841754496098 -0.226502895355 0.001108 0.145143 0.989410
0.069792971015 0.666300892830 -0.200965166092 0.001108 0.145143 0.989410
0.502979159355 0.772057056427 -0.216358259320 0.001108 0.145143 0.989410
0.247567415237 0.626289308071 -0.195141375065 0.001108 0.145143 0.989410
0.073512487113 0.761101722717 -0.214763671160 0.001108 0.145143 0.989410
0.156454786658 0.623397767544 -0.194720506668 0.001108 0.145143 0.989410
0.092688530684 0.649281620979 -0.198487967253 0.001108 0.145143 0.989410
0.139351382852 0.522274732590 -0.180001795292 0.001108 0.145143 0.989410
0.026974665001 0.462603986263 -0.171316564083 0.001108 0.145143 0.989410
-0.019114196301 0.715501844883 -0.208126500249 0.001108 0.145143 0.989410
-0.073676526546 0.503582239151 -0.177281051874 0.001108 0.145143 0.989410
-0.026089474559 0.478178441525 -0.173583477736 0.001108 0.145143 0.989410
-0.486818879843 0.818689882755 -0.223145768046 0.001108 0.145143 0.989410
-0.072700023651 0.823972105980 -0.223914623260 0.001108 0.145143 0.989410
-0.132510036230 0.545153021812 -0.183331787586 0.001108 0.145143 0.989410
-0.016908325255 0.453334540129 -0.169967368245 0.001108 0.145143 0.989410
-0.160328626633 0.766597807407 -0.215563639998 0.001108 0.145143 0.989410
-0.066105842590 0.668746531010 -0.201321139932 0.001108 0.145143 0.989410
-0.305854558945 0.770020604134 -0.216061830521 0.001108 0.145143 0.989410
-0.214785009623 0.818128764629 -0.223064094782 0.001108 0.145143 0.989410
-0.139011800289 0.581503510475 -0.188622698188 0.001108 0.145143 0.989410
-0.004059404135 0.612412929535 -0.193121641874 0.001108 0.145143 0.989410
-0.272676765919 0.647322833538 -0.198202863336 0.001108 0.145143 0.989410
-0.720177948475 -0.480726003647 0.154057979584 0.994302 -0.040922 -0.098435
-0.708927869797 0.275188982487 -0.049075432122 0.994302 -0.040922 -0.098435
-0.683382332325 0.406707018614 0.154454559088 0.994302 -0.040922 -0.098435
-0.688418030739 0.172874331474 0.201538264751 0.994302 -0.040922 -0.098435
-0.701022982597 0.378782957792 -0.012475237250 0.994302 -0.040922 -0.098435
-0.718148231506 -0.089361533523 0.010458965786 0.994302 -0.040922 -0.098435
-0.698322415352 0.406961172819 0.003053691238 0.994302 -0.040922 -0.098435
-0.697280228138 0.176881700754 0.110111385584 0.994302 -0.040922 -0.098435
-0.706395089626 -0.075627535582 0.123720213771 0.994302 -0.040922 -0.098435
-0.699315428734 -0.116040170193 0.212364479899 0.994302 -0.040922 -0.098435
-0.707724750042 -0.187595844269 0.157218143344 0.994302 -0.040922 -0.098435
-0.711509943008 0.252202838659 -0.065582044423 0.994302 -0.040922 -0.098435
-0.715039134026 -0.362666279078 0.156579017639 0.994302 -0.040922 -0.098435
-0.714871644974 -0.216186076403 0.096835851669 0.994302 -0.040922 -0.098435
-0.678874969482 0.400910079479 0.202531337738 0.994302 -0.040922 -0.098435
-0.717381834984 0.078331999481 -0.052116952837 0.994302 -0.040922 -0.098435
-0.718429684639 -0.181330397725 0.046184279025 0.994302 -0.040922 -0.098435
-0.685318946838 0.420296937227 0.129143029451 0.994302 -0.040922 -0.098435
-0.687901139259 0.341460049152 0.136061161757 0.994302 -0.040922 -0.098435
-0.701545178890 -0.017008692026 0.148246318102 0.994302 -0.040922 -0.098435
-0.708263456821 -0.017525151372 0.080428838730 0.994302 -0.040922 -0.098435
-0.712002098560 -0.271122634411 0.148937359452 0.994302 -0.040922 -0.098435
-0.708460390568 0.390343129635 -0.092641420662 0.994302 -0.040922 -0.098435
-0.692654967308 0.458245575428 0.029615886509 0.992605 -0.073736 -0.096425
-0.693107843399 0.452503323555 0.029318682849 0.992605 -0.073736 -0.096425
-0.699966788292 0.451461702585 -0.040956061333 0.992605 -0.073736 -0.096425
-0.642203390598 0.537496328354 0.357297092676 0.960108 -0.051457 -0.274854
-0.684633255005 0.853546619415 0.323117703199 0.003239 -0.106876 0.994267
-0.673195600510 0.879803001881 0.326445013285 -0.050694 -0.111526 0.992468
-0.658399522305 0.926723778248 0.332480639219 -0.050694 -0.111526 0.992468
-0.554131269455 1.050815939903 0.252700686455 0.926295 -0.177972 0.332121
-0.568296432495 1.006800889969 0.268864601851 0.926295 -0.177972 0.332121
-0.547047495842 1.115063071251 0.310035943985 0.912592 -0.329346 0.242294
-0.535789847374 1.148780107498 0.313230752945 0.912592 -0.329346 0.242294
-0.471735745668 1.295051693916 0.280438601971 0.888742 -0.340210 0.307238
-0.432639151812 1.373432993889 0.253915488720 0.888742 -0.340210 0.307238
-0.349332302809 1.191007971764 0.247955814004 0.000978 0.000978 0.999999
-0.097018912435 1.075698852539 0.247955814004 0.000978 0.000978 0.999999
-0.287994295359 1.218404769897 0.247955814004 0.000978 0.000978 0.999999
-0.331998825073 1.197324275970 0.247955814004 0.000978 0.000978 0.999999
-0.319479525089 1.274600267410 0.247955814004 0.000978 0.000978 0.999999
-0.336870402098 1.180160522461 0.247955814004 0.000978 0.000978 0.999999
-0.445293664932 1.301904201508 0.247955814004 0.000978 0.000978 0.999999
-0.073688827455 1.097238779068 0.247955814004 0.000978 0.000978 0.999999
-0.259147793055 1.160295724869 0.247955814004 0.000978 0.000978 0.999999
-0.436495780945 1.098209619522 0.286240696907 0.001380 -0.686096 0.727510
-0.423306912184 1.084024786949 0.272881269455 0.001380 -0.686096 0.727510
-0.078678250313 1.100683450699 0.288570761681 -0.001380 -0.686096 0.727510
-0.037216834724 1.072257757187 0.261798858643 -0.001380 -0.686096 0.727510
0.347835272551 1.064908742905 0.254877418280 0.001380 -0.686096 0.727510
0.317364156246 1.067406296730 0.257229626179 0.001380 -0.686096 0.727510
0.367840945721 1.334387898445 0.247955814004 0.000978 0.000978 0.999999
0.171477809548 1.147516727448 0.247955814004 0.000978 0.000978 0.999999
0.352637320757 1.323340415955 0.247955814004 0.000978 0.000978 0.999999
0.336626052856 1.178656101227 0.247955814004 0.000978 0.000978 0.999999
0.260363131762 1.229631066322 0.247955814004 0.000978 0.000978 0.999999
0.207228794694 1.066842556000 0.247955814004 0.000978 0.000978 0.999999
0.368493676186 1.298436284065 0.247955814004 0.000978 0.000978 0.999999
0.176109135151 1.058767557144 0.247955814004 0.000978 0.000978 0.999999
0.515210509300 1.102028727531 0.247955814004 0.000978 0.000978 0.999999
0.215751081705 1.241817474365 0.247955814004 0.000978 0.000978 0.999999
0.243224695325 1.249204874039 0.247955814004 0.000978 0.000978 0.999999
0.278300106525 1.307786107063 0.247955814004 0.000978 0.000978 0.999999
0.291015058756 1.533940911293 0.281416177750 -0.347593 -0.835167 0.426234
0.166227221489 1.549081563950 0.260237425566 -0.155830 -0.835548 0.526855
0.083756119013 1.562739729881 0.257532835007 -0.155830 -0.835548 0.526855
0.017073201016 1.600691914558 0.308129459620 -0.075931 -0.893221 0.443159
-0.212754353881 1.564419865608 0.298255532980 0.155830 -0.835548 0.526855
-0.081621170044 1.579297423363 0.283123493195 0.155830 -0.835548 0.526855
-0.179414942861 1.597234725952 0.343628227711 0.237003 -0.864984 0.442304
-0.332567244768 1.540748119354 0.331015378237 0.449556 -0.769967 0.452825
-0.380512118340 1.487041473389 0.293729215860 0.709244 -0.576984 0.405046
-0.311576664448 1.364336371422 0.247955814004 0.000978 0.000978 0.999999
-0.361121892929 1.449842214584 0.247955814004 0.000978 0.000978 0.999999
-0.136916041374 1.167726397514 0.247955814004 0.000978 0.000978 0.999999
-0.217827051878 1.400462746620 0.247955814004 0.000978 0.000978 0.999999
-0.277033746243 1.464460015297 0.247955814004 0.000978 0.000978 0.999999
-0.268958956003 1.428286790848 0.247955814004 0.000978 0.000978 0.999999
-0.108477175236 1.362682104111 0.247955814004 0.000978 0.000978 0.999999
-0.205847933888 1.391093015671 0.247955814004 0.000978 0.000978 0.999999
-0.009712100029 1.561554074287 0.247955814004 0.000978 0.000978 0.999999
-0.119544066489 1.371797561646 0.247955814004 0.000978 0.000978 0.999999
-0.189714133739 1.527211189270 0.247955814004 0.000978 0.000978 0.999999
-0.131976410747 1.528563499451 0.247955814004 0.000978 0.000978 0.999999
-0.158312916756 1.497730970383 0.247955814004 0.000978 0.000978 0.999999
0.019364096224 1.176986336708 0.247955814004 0.000978 0.000978 0.999999
0.132389158010 1.332198143005 0.247955814004 0.000978 0.000978 0.999999
0.128963112831 1.381726861000 0.247955814004 0.000978 0.000978 0.999999
0.003499131883 1.465736150742 0.247955814004 0.000978 0.000978 0.999999
0.093813598156 1.467291831970 0.247955814004 0.000978 0.000978 0.999999
0.034304622561 1.244279861450 0.247955814004 0.000978 0.000978 0.999999
0.210829228163 1.480598807335 0.247955814004 0.000978 0.000978 0.999999
0.089930057526 1.174272537231 0.247955814004 0.000978 0.000978 0.999999
0.113040074706 1.187723994255 0.247955814004 0.000978 0.000978 0.999999
0.264064222574 1.366891622543 0.247955814004 0.000978 0.000978 0.999999
-0.469389498234 1.282495260239 0.392440587282 0.717521 0.159281 0.678080
-0.549858689308 1.023534774780 0.387018620968 0.709248 -0.251159 -0.658700
-0.497155666351 1.132146477699 0.402467787266 0.709248 -0.251159 -0.658700
-0.495593398809 1.009384155273 0.450982093811 0.709248 -0.251159 -0.658700
-0.491451263428 1.285146355629 0.350261807442 0.709248 -0.251159 -0.658700
-0.521476209164 0.979695796967 0.434405177832 0.710725 -0.251682 -0.656906
-0.654652655125 1.033871293068 0.344136148691 -0.057603 -0.105040 0.992798
-0.660626113415 0.959393024445 0.335891366005 -0.057474 -0.104805 0.992831
-0.573071062565 0.862999558449 0.416299611330 0.705120 -0.199913 -0.680324
-0.484686046839 0.911771476269 0.494407713413 0.711259 -0.210109 -0.670794
-0.495289385319 0.892044782639 0.514338493347 0.731105 0.169421 0.660895
-0.481633335352 0.996982753277 0.472412109375 0.764788 0.152354 0.626010
-0.545047879219 0.809358656406 0.459550321102 0.708352 0.021040 -0.705546
-0.556370019913 0.792279481888 0.452179849148 0.686504 -0.189753 -0.701931
-0.530672669411 0.699371576309 0.502361774445 0.686504 -0.189753 -0.701931
-0.610341787338 0.680999755859 0.458504498005 -0.405524 -0.233213 -0.883834
-0.629343569279 0.834746122360 0.422196745872 -0.326179 -0.261820 -0.908327
-0.618803739548 0.549625217915 0.477447032928 -0.498007 0.803494 0.326171
-0.653075456619 0.555505037308 0.407014369965 -0.472708 0.835376 0.280525
-0.636409699917 0.458735346794 0.393540233374 0.960641 -0.053997 -0.272495
-0.522210359573 0.629644095898 0.518791913986 0.591687 -0.148296 -0.792411
-0.574720561504 0.507407426834 0.502431869507 0.591687 -0.148296 -0.792411
-0.040609128773 0.781591475010 0.593123137951 0.013118 0.971923 -0.234931
0.221302270889 0.783748209476 0.581913828850 -0.052929 0.943677 -0.326608
0.206174820662 0.741978287697 0.562157094479 -0.040122 -0.072654 -0.996550
0.294583976269 0.455443501472 0.579733848572 -0.040122 -0.072654 -0.996550
0.325524121523 0.623576462269 0.566025733948 -0.040122 -0.072654 -0.996550
0.275673866272 0.591891765594 0.570413291454 -0.040122 -0.072654 -0.996550
0.161140605807 0.647531926632 0.570990860462 -0.040122 -0.072654 -0.996550
0.061628766358 0.719042062759 0.569778621197 -0.040122 -0.072654 -0.996550
0.132790163159 0.568397879601 0.578322350979 -0.047109 -0.077784 -0.995857
0.210081979632 0.453720450401 0.583793938160 -0.047109 -0.077784 -0.995857
0.003010074841 0.504332542419 0.589422464371 -0.047109 -0.077784 -0.995857
0.127024039626 0.513208031654 0.582953572273 -0.047109 -0.077784 -0.995857
0.134539648890 0.501792132854 0.583506584167 -0.047109 -0.077784 -0.995857
0.045438073575 0.515378594398 0.586576104164 -0.047109 -0.077784 -0.995857
0.054269932210 0.466877222061 0.589999735355 -0.047109 -0.077784 -0.995857
0.342842072248 0.301207751036 0.582523822784 -0.045917 0.001020 -0.998945
0.193803519011 0.254956126213 0.589454829693 -0.045917 0.001020 -0.998945
0.321258127689 0.132479697466 0.583527565002 -0.045917 0.001020 -0.998945
0.242096692324 0.215785294771 0.587208926678 -0.045917 0.001020 -0.998945
0.183218359947 0.334694176912 0.589947044849 -0.045917 0.001020 -0.998945
0.176702961326 0.271880984306 0.590250074863 -0.045917 0.001020 -0.998945
0.031987827271 0.188612997532 0.596979975700 -0.045917 0.001020 -0.998945
0.108083166182 0.197174474597 0.593441188335 -0.045917 0.001020 -0.998945
0.165066927671 0.227869227529 0.590791165829 -0.045917 0.001020 -0.998945
0.161636471748 0.145442113280 0.590950727463 -0.045917 0.001020 -0.998945
0.080655716360 0.164722204208 0.594716668129 -0.045917 0.001020 -0.998945
0.018660610542 0.078525960445 0.597599744797 -0.045917 0.001020 -0.998945
0.152060747147 -0.095358200371 0.580363571644 -0.046536 0.066016 -0.996733
0.160777330399 -0.039966866374 0.583581328392 -0.046536 0.066016 -0.996733
0.165429145098 -0.217930376530 0.571724712849 -0.046536 0.066016 -0.996733
0.071166969836 0.022303000093 0.591821551323 -0.046536 0.066016 -0.996733
0.077214330435 -0.072471536696 0.585341274738 -0.046536 0.066016 -0.996733
0.117118842900 -0.177452355623 0.576618909836 -0.046536 0.066016 -0.996733
0.301905393600 -0.159258648753 0.569850504398 -0.039637 0.061062 -0.997347
0.173010975122 -0.224097594619 0.570983231068 -0.039637 0.061062 -0.997347
0.213289514184 -0.186251595616 0.571705043316 -0.039637 0.061062 -0.997347
0.384816825390 -0.140010908246 0.564917087555 -0.112714 0.062619 -0.991652
0.479188680649 -0.168909430504 0.552395820618 -0.112714 0.062619 -0.991652
0.533717751503 -0.031661368906 0.539745807648 -0.249535 -0.043023 -0.967410
0.519223928452 0.056584883481 0.539649128914 -0.249535 -0.043023 -0.967410
0.498570203781 -0.038380548358 0.549116790295 -0.249535 -0.043023 -0.967410
0.561766982079 -0.119477719069 0.516354143620 -0.641129 0.149345 -0.752761
0.580798804760 -0.420078754425 0.427998214960 -0.644580 0.192297 -0.739959
0.629131793976 -0.435333669186 0.379100680351 -0.691039 0.179272 -0.700233
0.649901330471 -0.701751053333 0.282006293535 -0.689700 0.220516 -0.689700
0.650325953960 -0.679041385651 0.309331804514 -0.349555 -0.526749 0.774820
0.547106862068 -0.864654183388 0.213610798120 0.009406 -0.061660 0.998053
0.522576808929 -0.915569424629 0.212678506970 0.025218 -0.007061 0.999657
0.311226576567 -0.855882585049 0.216928198934 0.006937 -0.006937 0.999952
0.343461275101 -0.943723917007 0.216452062130 0.017081 0.013062 0.999769
0.284413903952 -0.926669895649 0.217199042439 0.017081 0.013062 0.999769
0.124866992235 -0.950511813164 0.219268366694 0.000987 0.010858 0.999941
0.087891459465 -0.880325973034 0.218438759446 0.000987 0.010858 0.999941
-0.051723074168 -0.933211803436 0.219970703125 0.007117 0.033551 0.999412
-0.155709430575 -0.962356805801 0.219607412815 -0.008990 0.012985 0.999875
-0.082694143057 -0.926456034184 0.219897583127 -0.008990 0.012985 0.999875
-0.279493272305 -0.960306048393 0.217696934938 -0.017081 0.013062 0.999769
-0.299778312445 -0.941864311695 0.217138350010 -0.017081 0.013062 0.999769
-0.363690972328 -0.890612244606 0.216248318553 -0.006937 -0.006937 0.999952
-0.344316214323 -0.755109310150 0.181742072105 0.003802 0.363728 0.931498
-0.293545454741 -0.767330408096 0.186350673437 0.003802 0.363728 0.931498
-0.254764795303 -0.741545855999 0.176282733679 -0.047621 0.328198 0.943408
-0.196269303560 -0.772192537785 0.189874812961 -0.047621 0.328198 0.943408
-0.077376931906 -0.764729976654 0.188667267561 0.001242 0.326641 0.945148
0.001410802128 -0.711580693722 0.170237854123 0.001242 0.326641 0.945148
0.135194092989 -0.626779913902 0.140833348036 0.001242 0.326641 0.945148
-0.137522771955 -0.704689860344 0.167848467827 0.001242 0.326641 0.945148
-0.045529998839 -0.805422246456 0.202777236700 0.001242 0.326641 0.945148
0.005834579468 -0.786884427071 0.196349263191 0.001242 0.326641 0.945148
0.064399600029 -0.800888657570 0.201205223799 0.001242 0.326641 0.945148
0.055372640491 -0.766368865967 0.189235538244 0.001242 0.326641 0.945148
0.098790660501 -0.686229884624 0.161447510123 0.001242 0.326641 0.945148
0.194034829736 -0.621112465858 0.137311413884 0.047621 0.328198 0.943408
0.221472620964 -0.636708915234 0.141385585070 0.047621 0.328198 0.943408
0.222044691443 -0.825079262257 0.209113061428 -0.003774 0.348500 0.937301
0.270710796118 -0.816352128983 0.206000491977 -0.003774 0.348500 0.937301
0.328228861094 -0.738168239594 0.177066862583 -0.003774 0.348500 0.937301
0.416527062654 -0.771310567856 0.188744634390 0.011464 0.357931 0.933678
0.375420123339 -0.710229098797 0.165963798761 0.011464 0.357931 0.933678
0.459437876940 -0.720139265060 0.168630242348 0.011464 0.357931 0.933678
0.457489043474 -0.780213534832 0.191755801439 -0.003807 0.366788 0.930297
0.588648915291 -0.831046640873 0.212203636765 -0.003807 0.366788 0.930297
0.622512102127 -0.759177565575 0.184033542871 -0.003807 0.366788 0.930297
0.691202402115 -0.698981404305 0.167908415198 -0.069256 0.327985 0.942141
0.597670137882 -0.663003087044 0.148545280099 -0.069256 0.327985 0.942141
0.698195278645 -0.730614840984 0.182397395372 -0.971088 0.233894 0.047758
0.666951894760 -0.668432414532 0.275097399950 -0.885563 0.123666 -0.447756
0.550491452217 -0.630152940750 0.130830422044 -0.109361 0.573053 0.812189
0.478222489357 -0.627814531326 0.130518212914 0.023595 0.587100 0.809171
0.454558014870 -0.609218239784 0.116524741054 0.012524 0.691579 0.722192
0.206243559718 -0.597818434238 0.115032061934 0.083158 0.704658 0.704658
0.511295318604 -0.607031524181 0.081868395209 0.001081 0.993536 -0.113516
0.533995151520 -0.606783390045 0.089589811862 -0.926183 0.130739 0.353684
0.555678367615 -0.599345564842 0.105960898101 -0.095210 0.736778 0.669398
0.717825829983 -0.585805654526 0.113829597831 -0.095210 0.736778 0.669398
0.611115276814 -0.547974586487 0.054501540959 -0.097670 0.785735 0.610803
0.629224658012 -0.529562532902 0.031637243927 -0.090920 0.812503 0.575823
0.560136079788 -0.537396907806 0.027979131788 -0.132422 0.987890 0.080859
0.663965702057 -0.517622590065 -0.043647784740 -0.132422 0.987890 0.080859
0.718102812767 -0.564556062222 -0.126011937857 -0.136622 0.734156 -0.665094
0.671124696732 -0.690935254097 -0.255897969007 -0.136622 0.734156 -0.665094
0.622186124325 -0.602502346039 -0.148318588734 -0.136622 0.734156 -0.665094
0.718582570553 -0.580497384071 -0.143702596426 -0.136622 0.734156 -0.665094
0.731464385986 -0.647803068161 -0.220609113574 -0.136622 0.734156 -0.665094
0.660394966602 -0.691180467606 -0.253979384899 -0.136622 0.734156 -0.665094
0.675780117512 -0.737275063992 -0.312792509794 0.001371 0.788169 -0.615457
0.337542772293 -0.772897362709 -0.358486831188 0.001371 0.788169 -0.615457
0.620157897472 -0.741918563843 -0.318750798702 0.001371 0.788169 -0.615457
0.404134988785 -0.769046068192 -0.353541731834 0.001371 0.788169 -0.615457
0.533267021179 -0.613375723362 -0.154073506594 0.001371 0.788169 -0.615457
0.685170114040 -0.826060771942 -0.426544815302 0.001371 0.788169 -0.615457
0.608846604824 -0.801124989986 -0.394608855247 0.001371 0.788169 -0.615457
0.475329428911 -0.682466328144 -0.242602869868 0.001371 0.788169 -0.615457
0.533237695694 -0.592273294926 -0.127036660910 0.001371 0.788169 -0.615457
0.665848910809 -0.814942419529 -0.412302911282 0.001371 0.788169 -0.615457
0.436053156853 -0.627176880836 -0.171771347523 0.001371 0.788169 -0.615457
0.646364331245 -0.717563033104 -0.287541866302 0.001371 0.788169 -0.615457
0.427347242832 -0.616587221622 -0.158205136657 0.001371 0.788169 -0.615457
0.619971215725 -0.676715612411 -0.235211640596 0.001371 0.788169 -0.615457
0.238607943058 -0.748944222927 -0.329639941454 0.038140 0.769858 -0.637075
0.517934978008 -0.535404205322 -0.054539427161 0.038140 0.769858 -0.637075
0.376063078642 -0.621722161770 -0.167472869158 0.038140 0.769858 -0.637075
0.373168319464 -0.623259663582 -0.169506505132 0.038140 0.769858 -0.637075
0.443342000246 -0.569779276848 -0.100595407188 0.038140 0.769858 -0.637075
0.235715284944 -0.596906661987 -0.158093497157 0.269408 0.699823 -0.661564
0.185978874564 -0.779034316540 -0.371622473001 0.269408 0.699823 -0.661564
0.201247379184 -0.713879227638 -0.296265095472 0.269408 0.699823 -0.661564
0.219344064593 -0.622781693935 -0.192231282592 0.269408 0.699823 -0.661564
0.151073411107 -0.460460424423 -0.262159585953 0.998261 0.057371 -0.013560
0.163063779473 -0.702085912228 -0.415319055319 0.998261 0.057371 -0.013560
0.149542063475 -0.439514815807 -0.286682546139 0.998261 0.057371 -0.013560
0.155342355371 -0.538847625256 -0.282720088959 0.998261 0.057371 -0.013560
0.161676064134 -0.681613504887 -0.430909931660 0.998261 0.057371 -0.013560
0.147578120232 -0.431287914515 -0.401001363993 0.998261 0.057371 -0.013560
0.158905863762 -0.625977218151 -0.396360456944 0.998261 0.057371 -0.013560
0.157486557961 -0.544743120670 -0.144184410572 0.998261 0.057371 -0.013560
0.160889044404 -0.644194304943 -0.324987441301 0.998261 0.057371 -0.013560
0.149315521121 -0.448296606541 -0.151734292507 0.980910 0.190502 0.039047
0.139809906483 -0.374403655529 -0.272262752056 0.980910 0.190502 0.039047
0.133797198534 -0.107204541564 -0.279161095619 0.998267 -0.001032 0.058843
0.131472393870 -0.264773994684 -0.239152833819 0.998267 -0.001032 0.058843
0.140670195222 -0.332733690739 -0.397441148758 0.998267 -0.001032 0.058843
0.142432853580 0.230705827475 -0.427775144577 0.998267 -0.001032 0.058843
0.137354493141 -0.022011699155 -0.340379804373 0.998267 -0.001032 0.058843
0.142623946071 -0.111014090478 -0.431063860655 0.998267 -0.001032 0.058843
0.136674761772 0.151999607682 -0.328682243824 0.998267 -0.001032 0.058843
0.132201775908 -0.156618088484 -0.251704990864 0.998267 -0.001032 0.058843
0.138925060630 0.414399176836 -0.367408216000 0.998267 -0.001032 0.058843
0.139813557267 0.307380020618 -0.382698535919 0.998267 -0.001032 0.058843
0.140888035297 -0.244915470481 -0.401189982891 0.998267 -0.001032 0.058843
0.135070756078 -0.323258072138 -0.301078200340 0.998267 -0.001032 0.058843
0.141772478819 0.318293035030 -0.416410446167 0.998267 -0.001032 0.058843
0.139137849212 -0.009282084182 -0.371070235968 0.998267 -0.001032 0.058843
0.138836339116 0.563945889473 -0.367579787970 0.997858 0.001038 0.065416
0.129254788160 0.026239216328 -0.207360133529 0.997858 0.001038 0.065416
0.140806511045 0.727859914303 -0.401773035526 0.997858 0.001038 0.065416
0.139456033707 0.576733231544 -0.377427369356 0.997858 0.001038 0.065416
0.132982924581 0.155622154474 -0.267832309008 0.997858 0.001038 0.065416
0.125683829188 0.035398811102 -0.152552425861 0.997858 0.001038 0.065416
0.128035083413 0.063518017530 -0.189439237118 0.997858 0.001038 0.065416
0.130266487598 0.038786336780 -0.223242267966 0.997858 0.001038 0.065416
0.140782997012 0.694262325764 -0.400624483824 0.997858 0.001038 0.065416
0.138945311308 0.501354634762 -0.367793858051 0.997858 0.001038 0.065416
0.131307467818 0.637909948826 -0.235915586352 0.998497 -0.003098 0.054726
0.134371951222 0.574724376202 -0.294281423092 0.998497 -0.003098 0.054726
0.131236448884 0.740621924400 -0.229253783822 0.998497 -0.003098 0.054726
0.122920900583 0.390799760818 -0.098210200667 0.998497 -0.003098 0.054726
0.128662750125 0.712152481079 -0.184510692954 0.998497 -0.003098 0.054726
0.125016763806 0.257714956999 -0.142840400338 0.998497 -0.003098 0.054726
0.130334705114 0.787042975426 -0.210619986057 0.998497 -0.003098 0.054726
0.131503909826 0.782935500145 -0.231839761138 0.998497 -0.003098 0.054726
0.126374915242 0.776194274426 -0.140051990747 0.998497 -0.003098 0.054726
0.124619983137 0.856962919235 -0.104290008545 0.998497 -0.003098 0.054726
0.127022549510 0.467068195343 -0.167896166444 0.998497 -0.003098 0.054726
0.124198436737 0.687836170197 -0.105585485697 0.998497 -0.003098 0.054726
0.134782075882 0.830291092396 -0.288248360157 0.998497 -0.003098 0.054726
0.123329445720 0.642148315907 -0.092369869351 0.998497 -0.003098 0.054726
0.126931324601 0.702766060829 -0.153898179531 0.998497 -0.003098 0.054726
0.010643053800 0.601385235786 -0.080521613359 0.001026 -0.052343 0.998629
0.098662942648 0.206010699272 -0.101253710687 0.001026 -0.052343 0.998629
0.040751304477 0.552757620811 -0.083071485162 0.001026 -0.052343 0.998629
0.107989937067 0.309885978699 -0.095806837082 0.001026 -0.052343 0.998629
0.120927885175 0.264521539211 -0.098185598850 0.001026 -0.052343 0.998629
0.012381892651 0.676431417465 -0.076586447656 0.001026 -0.052343 0.998629
0.043346844614 0.869356572628 -0.066470108926 0.001026 -0.052343 0.998629
-0.018306851387 0.748553693295 -0.072804600000 0.001026 -0.052343 0.998629
-0.019818406552 0.778530359268 -0.071232728660 0.001026 -0.052343 0.998629
0.109637588263 0.630965828896 -0.078970506787 0.001026 -0.052343 0.998629
-0.119609110057 0.594830930233 -0.080865293741 0.001026 -0.052343 0.998629
0.094276852906 0.151413857937 -0.104116573930 0.001026 -0.052343 0.998629
-0.059890374541 0.513777554035 -0.085115462542 0.001026 -0.052343 0.998629
-0.050904542208 0.177836909890 -0.102731049061 0.001026 -0.052343 0.998629
-0.057339668274 0.583674073219 -0.081450328231 0.001026 -0.052343 0.998629
-0.061672780663 0.400440752506 -0.091058455408 0.001026 -0.052343 0.998629
-0.068267002702 0.569889605045 -0.082173138857 0.001026 -0.052343 0.998629
-0.052234724164 0.149872466922 -0.104197412729 0.001026 -0.052343 0.998629
-0.094281494617 0.532783150673 -0.084118872881 0.001026 -0.052343 0.998629
-0.012296341360 0.445135623217 -0.088714808226 0.001026 -0.052343 0.998629
-0.127663999796 0.296610176563 -0.188359975815 -0.998497 -0.003098 0.054726
-0.139529615641 0.700837135315 -0.380327075720 -0.998497 -0.003098 0.054726
-0.129854083061 0.721439778805 -0.205427944660 -0.998497 -0.003098 0.054726
-0.138564884663 0.716835498810 -0.362156987190 -0.998497 -0.003098 0.054726
-0.133478447795 0.691651225090 -0.272100865841 -0.998497 -0.003098 0.054726
-0.130938857794 0.442071527243 -0.239564806223 -0.998497 -0.003098 0.054726
-0.125913858414 0.879171133041 -0.126371785998 -0.998497 -0.003098 0.054726
-0.136764422059 0.749687671661 -0.328089475632 -0.998497 -0.003098 0.054726
-0.125667601824 0.524055778980 -0.140568748116 -0.998497 -0.003098 0.054726
-0.123818099499 0.569119095802 -0.104979962111 -0.998497 -0.003098 0.054726
-0.129245623946 0.525835037231 -0.204753935337 -0.998497 -0.003098 0.054726
-0.127765476704 0.360769748688 -0.186818838120 -0.998497 -0.003098 0.054726
-0.129179209471 0.725332617760 -0.193099781871 -0.998497 -0.003098 0.054726
-0.125114381313 0.315127670765 -0.141585662961 -0.998497 -0.003098 0.054726
-0.134860783815 0.750581145287 -0.293844044209 -0.998497 -0.003098 0.054726
-0.134877264500 0.195784062147 -0.297962218523 -0.997858 0.001038 0.065416
-0.135660290718 0.375302076340 -0.314228802919 -0.997858 0.001038 0.065416
-0.138369381428 0.559685468674 -0.360286682844 -0.997858 0.001038 0.065416
-0.132461413741 0.128820955753 -0.259171009064 -0.997858 0.001038 0.065416
-0.127265349030 -0.213589116931 -0.171094566584 -0.997858 0.001038 0.065416
-0.136104062200 0.514465451241 -0.324324011803 -0.997858 0.001038 0.065416
-0.134488999844 0.384182482958 -0.296389281750 -0.997858 0.001038 0.065416
-0.132670998573 0.136335730553 -0.262576073408 -0.997858 0.001038 0.065416
-0.127380698919 -0.195458278060 -0.173296302557 -0.997858 0.001038 0.065416
-0.130196809769 0.303064823151 -0.228356048465 -0.997858 0.001038 0.065416
-0.030494008213 -0.220086842775 -0.162342667580 0.001125 -0.165311 0.986241
-0.088375397027 -0.188705652952 -0.157051712275 0.001125 -0.165311 0.986241
-0.113971628249 -0.332722455263 -0.181333363056 0.001125 -0.165311 0.986241
0.002800570801 -0.299569368362 -0.175743654370 0.001125 -0.165311 0.986241
-0.030157053843 -0.255784600973 -0.168361410499 0.001125 -0.165311 0.986241
0.018697693944 -0.268827438354 -0.170560479164 0.001125 -0.165311 0.986241
0.069927230477 -0.411832004786 -0.132669970393 0.001345 0.528668 0.848828
0.115006431937 -0.378098100424 -0.153637737036 0.001345 0.528668 0.848828
0.063906386495 -0.359933227301 -0.164928346872 0.001345 0.528668 0.848828
-0.114736102521 -0.477253109217 -0.092006601393 0.001345 0.528668 0.848828
-0.016431836411 -0.440266758204 -0.114995956421 0.001345 0.528668 0.848828
-0.093689784408 -0.486647248268 -0.023825995624 0.001091 0.992091 -0.125512
-0.152923971415 -0.492180854082 -0.067907698452 0.001091 0.992091 -0.125512
0.011508196592 -0.487401068211 -0.029830876738 0.001091 0.992091 -0.125512
0.110135361552 -0.491816401482 -0.065004281700 0.001091 0.992091 -0.125512
0.211085140705 -0.501619756222 -0.011504168622 0.273193 0.955521 -0.111107
0.391738325357 -0.527585089207 -0.014969588257 0.033741 0.995910 -0.083809
0.448774993420 -0.535093367100 0.021076697856 0.087360 0.992728 0.082822
0.458833724260 -0.539036631584 0.032811015844 0.035178 0.769703 0.637432
0.461713135242 -0.595323085785 0.074126616120 0.012116 0.122263 0.992424
0.362817585468 -0.607714176178 0.074977539480 0.001030 0.056668 0.998393
0.273057848215 -0.538434088230 0.042980853468 0.076783 0.760583 0.644685
0.238387882710 -0.577103555202 0.090065553784 0.049867 0.742299 0.668211
0.059827476740 -0.612199008465 0.134538605809 0.001379 0.740750 0.671779
0.049373343587 -0.534208416939 0.048497892916 0.001379 0.740750 0.671779
0.077726863325 -0.522070109844 0.035106711090 0.001379 0.740750 0.671779
-0.019155278802 -0.533987939358 0.048254635185 0.001379 0.740750 0.671779
0.080045193434 -0.490157306194 -0.000100094825 0.001379 0.740750 0.671779
-0.135383337736 -0.488536566496 -0.001888111234 0.001379 0.740750 0.671779
-0.186660394073 -0.599706530571 0.117960400879 -0.073744 0.741773 0.666584
-0.172919362783 -0.586279392242 0.104559689760 -0.073744 0.741773 0.666584
-0.234713360667 -0.507829368114 -0.012306559831 -0.264584 0.957978 -0.110787
-0.244306102395 -0.514214158058 -0.059647485614 -0.237081 0.969425 -0.063304
-0.162120014429 -0.632768690586 -0.226169735193 -0.265294 0.700566 -0.662440
-0.203142255545 -0.656878471375 -0.235361844301 -0.265294 0.700566 -0.662440
-0.193856209517 -0.528991103172 -0.103489324450 -0.265294 0.700566 -0.662440
-0.203408733010 -0.705040931702 -0.286314129829 -0.265294 0.700566 -0.662440
-0.161256492138 -0.644792675972 -0.299358278513 -0.998261 0.057371 -0.013560
-0.159207835793 -0.623202383518 -0.360761076212 -0.998261 0.057371 -0.013560
-0.151756346226 -0.488902807236 -0.336135268211 -0.998261 0.057371 -0.013560
-0.155744343996 -0.553727626801 -0.317962288857 -0.998261 0.057371 -0.013560
-0.148250892758 -0.436106353998 -0.370714217424 -0.998261 0.057371 -0.013560
-0.160646125674 -0.633762061596 -0.297208070755 -0.998261 0.057371 -0.013560
-0.155152082443 -0.509855628014 -0.168401956558 -0.998261 0.057371 -0.013560
-0.150930181146 -0.479572981596 -0.358126461506 -0.998261 0.057371 -0.013560
-0.140508159995 -0.390351057053 -0.212957486510 -0.980910 0.190502 0.039047
-0.146853864193 -0.424423635006 -0.205669581890 -0.980910 0.190502 0.039047
-0.142767995596 -0.259470701218 -0.433544635773 -0.998267 0.001032 0.058843
-0.140855431557 -0.102996826172 -0.400630712509 -0.998267 0.001032 0.058843
-0.138182073832 0.152042865753 -0.354623734951 -0.998267 0.001032 0.058843
-0.139174982905 0.184110939503 -0.371711015701 -0.998267 0.001032 0.058843
-0.133166849613 -0.150736376643 -0.268314987421 -0.998267 0.001032 0.058843
-0.134256601334 -0.060812175274 -0.287068694830 -0.998267 0.001032 0.058843
-0.135613635182 -0.119243398309 -0.310422420502 -0.998267 0.001032 0.058843
-0.137768357992 0.171064376831 -0.347504049540 -0.998267 0.001032 0.058843
-0.142587035894 -0.227189227939 -0.430430501699 -0.998267 0.001032 0.058843
-0.133119046688 -0.333703458309 -0.267492234707 -0.998267 0.001032 0.058843
-0.141482248902 0.241545945406 -0.411417871714 -0.998267 0.001032 0.058843
-0.137419611216 0.368856936693 -0.341502249241 -0.998267 0.001032 0.058843
-0.133247882128 -0.269540131092 -0.269709467888 -0.998267 0.001032 0.058843
-0.141982391477 0.103718638420 -0.420024931431 -0.998267 0.001032 0.058843
-0.134924799204 0.075923740864 -0.298567950726 -0.998267 0.001032 0.058843
-0.433287858963 -0.609892249107 -0.149699509144 -0.032355 0.772297 -0.634437
-0.371129542589 -0.587170898914 -0.125323414803 -0.032355 0.772297 -0.634437
-0.322030305862 -0.679545342922 -0.240423128009 -0.032355 0.772297 -0.634437
-0.211207807064 -0.756107926369 -0.339538216591 -0.032355 0.772297 -0.634437
-0.378713905811 -0.656750977039 -0.209658622742 -0.032355 0.772297 -0.634437
-0.364027291536 -0.528948009014 -0.004671457224 -0.028235 0.998681 -0.042875
-0.416995674372 -0.534150660038 0.024932788685 -0.073002 0.993956 0.081987
-0.399443358183 -0.582576572895 0.079209461808 -0.018193 0.726310 0.687126
-0.443163037300 -0.539231598377 0.032254081219 -0.018193 0.726310 0.687126
-0.314507007599 -0.615987777710 0.119274415076 -0.086166 0.731679 0.676182
-0.460461884737 -0.609003365040 0.106059908867 -0.012543 0.731693 0.681519
-0.441035389900 -0.718799054623 0.167671486735 0.001266 0.365926 0.930643
-0.391700536013 -0.707424759865 0.163190513849 0.001266 0.365926 0.930643
-0.486751556396 -0.833206832409 0.212710246444 0.003807 0.366788 0.930297
-0.524012923241 -0.746042847633 0.178532168269 0.003807 0.366788 0.930297
-0.444081455469 -0.922952055931 0.214665070176 -0.025218 -0.007061 0.999657
-0.657610177994 -0.700054407120 0.298366039991 0.349555 -0.526749 0.774820
-0.644352257252 -0.668475627899 0.298294305801 0.689700 0.220516 -0.689700
-0.671131312847 -0.587179780006 0.289172828197 0.885563 0.123666 -0.447756
-0.703388512135 -0.707825005054 0.192247837782 0.885563 0.123666 -0.447756
-0.668895125389 -0.762681424618 0.190035492182 0.001237 0.315485 0.948930
-0.635451614857 -0.694474220276 0.164315700531 0.073012 0.351786 0.933229
-0.573443710804 -0.712732613087 0.166356772184 0.073012 0.351786 0.933229
-0.719147562981 -0.589940845966 0.115650191903 0.142504 0.769522 0.622518
-0.593665301800 -0.605218768120 0.106347635388 0.073833 0.719505 0.690551
-0.717586696148 -0.511880397797 -0.025896908715 0.132422 0.987890 0.080859
-0.616622686386 -0.524652063847 -0.035334970802 0.132422 0.987890 0.080859
-0.763223052025 -0.661752283573 -0.242483377457 0.136622 0.734156 -0.665094
-0.634321868420 -0.529448032379 -0.070172451437 0.136622 0.734156 -0.665094
-0.742878794670 -0.622363150120 -0.194862708449 0.136622 0.734156 -0.665094
-0.691107571125 -0.681231856346 -0.249266639352 0.136622 0.734156 -0.665094
-0.752659678459 -0.629088342190 -0.204280242324 0.136622 0.734156 -0.665094
-0.681641757488 -0.677462458611 -0.243175327778 0.136622 0.734156 -0.665094
-0.495107471943 -0.638029515743 -0.185647502542 -0.001371 0.788169 -0.615457
-0.632483720779 -0.676772475243 -0.235280260444 -0.001371 0.788169 -0.615457
-0.466000735760 -0.765535116196 -0.348991990089 -0.001371 0.788169 -0.615457
-0.731659173965 -0.809163808823 -0.404883623123 -0.001371 0.788169 -0.615457
-0.414092510939 -0.631012916565 -0.176658675075 -0.001371 0.788169 -0.615457
-0.438328117132 -0.830389380455 -0.432075262070 -0.001371 0.788169 -0.615457
-0.612978100777 -0.807099044323 -0.402238637209 -0.001371 0.788169 -0.615457
-0.728413343430 -0.800671458244 -0.394004344940 -0.001371 0.788169 -0.615457
-0.681667208672 -0.724613189697 -0.296567767859 -0.001371 0.788169 -0.615457
-0.250543236732 -0.817079007626 -0.415023744106 -0.001371 0.788169 -0.615457
-0.480820029974 -0.703219830990 -0.269161313772 -0.001371 0.788169 -0.615457
-0.485321640968 -0.735556960106 -0.310587704182 -0.001371 0.788169 -0.615457
-0.744882583618 -0.805223643780 -0.399836033583 -0.001371 0.788169 -0.615457
-0.496240586042 -0.664453864098 -0.219499111176 -0.001371 0.788169 -0.615457
