-0.210271805525 -2.201538562775 -0.279466867447 -0.084615 -0.951588 0.295500
-0.447392225266 -2.176302909851 -0.286449819803 -0.157575 -0.974443 0.160096
-0.203455850482 -2.202855110168 -0.282147526741 -0.087849 -0.983191 0.160054
-0.184189751744 -2.205722332001 -0.289121389389 -0.087849 -0.983191 0.160054
-0.094807974994 -2.197131395340 -0.256746888161 -0.032499 -0.688126 0.724863
0.429715424776 -2.147125005722 -0.245893657207 0.035218 -0.239241 0.970321
0.792658686638 -2.107593059540 -0.251103848219 0.101754 -0.700481 0.706380
0.433516412973 -2.176910161972 -0.314906805754 0.147635 -0.989041 0.001110
0.650083065033 -2.147874355316 -0.320564270020 0.000978 0.000978 0.999999
0.821969926357 -2.112258434296 -0.277462899685 0.720873 -0.672104 0.169169
0.682976365089 -2.137277364731 -0.268638074398 0.141035 -0.946949 0.288786
0.281314641237 -2.193098545074 -0.273589611053 0.084903 -0.949605 0.301731
0.714476704597 -2.139718294144 -0.329651087523 0.146427 -0.988091 -0.047272
0.021187221631 -2.216428995132 -0.331922948360 0.050193 -0.998739 -0.001024
-0.027150902897 -2.216125726700 -0.342385321856 -0.050193 -0.998739 -0.001024
-0.442158997059 -2.132046222687 -0.397765547037 -0.018088 -0.075545 -0.996978
-0.147297695279 -2.210178375244 -0.352150470018 -0.050193 -0.998739 -0.001024
-0.137374490499 -2.125857114792 -0.401497274637 -0.005305 -0.085942 -0.996286
-0.253872007132 -2.123414278030 -0.400705367327 -0.009589 -0.086304 -0.996223
-0.572171807289 -2.134368658066 -0.395347446203 -0.018088 -0.075545 -0.996978
-0.585786402225 -2.044579267502 -0.401985198259 -0.018088 -0.075545 -0.996978
-0.628258764744 -2.036212444305 -0.420504212379 0.647039 -0.067730 -0.759442
0.026549799368 -2.203745841980 -0.395518869162 0.005305 -0.085942 -0.996286
0.140665665269 -2.199739933014 -0.395320922136 0.003159 -0.076857 -0.997037
0.264637172222 -2.200284242630 -0.343029499054 0.092648 -0.995698 -0.001065
0.294632107019 -2.194019079208 -0.394755423069 0.007385 -0.077017 -0.997002
0.182166129351 -2.145741462708 -0.399508088827 0.009589 -0.086304 -0.996223
0.402372717857 -2.112269639969 -0.399909585714 0.015961 -0.075548 -0.997014
0.601345062256 -2.102786302567 -0.400186300278 -0.252847 -0.071703 -0.964845
0.475127100945 -2.141646862030 -0.396430581808 0.015961 -0.075548 -0.997014
0.644311308861 -2.085783720016 -0.442082703114 -0.907065 -0.072076 -0.414775
0.826165735722 -2.086799621582 -0.413888871670 0.913403 -0.341985 -0.220775
-0.237288996577 -2.150585412979 -0.241595074534 -0.020449 -0.239370 0.970713
-0.265450149775 -2.128936290741 -0.236552700400 -0.028181 -0.263428 0.964267
-0.360440939665 -2.063780307770 -0.222087457776 -0.030490 -0.252453 0.967129
-0.454589724541 -2.144029855728 -0.246181249619 -0.037755 -0.237488 0.970656
0.715151846409 -1.998751521111 -0.545349359512 0.000979 0.000979 -0.999999
0.688142001629 -1.923532724380 -0.545228898525 0.000978 0.000978 -0.999999
0.654956638813 -1.927374958992 -0.545223653316 -0.000981 0.002944 -0.999995
0.648691236973 -1.953605532646 -0.545315802097 -0.000981 0.002944 -0.999995
0.557084143162 -1.951669216156 -0.545150876045 -0.000981 0.002944 -0.999995
0.149811387062 -2.103218793869 -0.498946756124 -0.999999 -0.000978 -0.000978
0.159073829651 -2.112284660339 -0.415777593851 0.999999 0.000978 0.000978
0.424506068230 -2.208857059479 -0.356281280518 0.196100 -0.980501 0.012764
0.397086977959 -2.213302612305 -0.340511143208 -0.235460 -0.971719 -0.017928
0.385902643204 -2.209058284760 -0.290156990290 -0.670768 -0.741079 -0.029531
0.384810417891 -2.202502965927 -0.395461231470 -0.958573 -0.284249 -0.018458
0.431458532810 -2.090080022812 -0.427459716797 -0.000978 -0.000978 -0.999999
0.500747442245 -2.151796340942 -0.303808748722 0.999999 0.000979 -0.000979
0.453902721405 -2.046531438828 -0.222211703658 0.001112 -0.150135 0.988665
0.394381672144 -2.084009408951 -0.227249950171 0.021307 -0.137934 0.990212
0.382584810257 -2.066533565521 -0.303575873375 -0.999999 0.000978 -0.000978
0.382698982954 -2.068754911423 -0.375796169043 -0.999999 -0.000978 -0.000978
0.387734949589 -2.210385799408 -0.249900415540 -0.509556 -0.693330 0.509556
0.491226702929 -2.195957899094 -0.382704436779 0.670768 -0.741079 -0.029531
0.500713407993 -2.075033664703 -0.315843760967 0.999999 -0.000978 -0.000978
-0.511254310608 -2.069397926331 -0.522508323193 -0.142978 -0.699842 0.699842
-0.271342605352 -2.089761734009 -0.503698885441 -0.079888 -0.681224 0.727704
-0.014245123602 -2.101680755615 -0.495744675398 -0.026599 -0.765765 0.642570
0.316775918007 -2.085387229919 -0.503187239170 0.073808 -0.681642 0.727953
-0.532248198986 -2.039279937744 -0.536982655525 0.000978 0.000978 -0.999999
-0.533604145050 -2.062777757645 -0.536278247833 -0.053528 -0.257681 -0.964746
-0.111634917557 -2.103068590164 -0.536982655525 0.000978 0.000978 -0.999999
0.198679938912 -2.113099098206 -0.534506022930 0.052994 -0.706113 -0.706113
0.313042581081 -2.089916944504 -0.536982774734 0.000978 0.000978 -0.999999
0.397815644741 -2.067187070847 -0.536982774734 0.000978 0.000978 -0.999999
0.682285070419 -2.041715860367 -0.463695675135 -0.762485 -0.454211 0.460770
-0.515048980713 -2.040879487991 -0.496240168810 -0.139662 -0.677288 0.722340
-0.430194586515 -2.055385112762 -0.493596047163 -0.139662 -0.677288 0.722340
-0.506866037846 -2.058265209198 -0.510971963406 -0.139662 -0.677288 0.722340
-0.154772579670 -2.084215641022 -0.509513318539 0.001257 0.936483 0.350710
-0.149811014533 -2.161475658417 -0.394714534283 0.999999 0.000978 -0.000978
-0.155437722802 -2.138208627701 -0.394312143326 0.000978 0.000978 0.999999
-0.417747914791 -2.210533857346 -0.364082217216 -0.204638 -0.978753 0.012863
-0.453254461288 -2.144968748093 -0.237065434456 -0.021354 -0.138241 0.990168
-0.502742946148 -2.046690702438 -0.313271105289 -0.999999 -0.000978 -0.000978
-0.502791225910 -2.176602363586 -0.297181874514 -0.999999 0.000979 -0.000979
-0.488465428352 -2.180408954620 -0.425493836403 -0.214681 -0.236559 -0.947603
-0.452104270458 -2.161036968231 -0.427459597588 -0.000978 -0.000978 -0.999999
-0.413125962019 -2.071202039719 -0.427459627390 0.000978 -0.000978 -0.999999
-0.401831775904 -2.098819017410 -0.426561594009 0.220763 -0.001168 -0.975327
-0.398075729609 -2.073824882507 -0.425711929798 0.220763 -0.001168 -0.975327
-0.384652584791 -2.178370237350 -0.336495190859 0.999999 0.000978 -0.000978
-0.384659498930 -2.177793264389 -0.340261727571 0.999999 0.000978 -0.000978
-0.384596824646 -2.136838197708 -0.304851651192 0.999999 0.000978 -0.000978
-0.384584158659 -2.042206525803 -0.283672422171 0.999999 0.000978 -0.000978
-0.390610456467 -2.208067893982 -0.377904146910 0.670768 -0.741079 -0.029531
0.884771764278 -1.141563296318 -0.085260868073 0.994948 -0.025119 0.097201
0.883297562599 -1.022715091705 -0.038855612278 0.994218 -0.025267 0.104365
0.878281772137 -1.003322362900 0.027411192656 0.996222 -0.035773 0.079134
0.852870523930 -1.216726541519 0.099744014442 0.953314 -0.046968 0.298307
0.855587780476 -1.118408679962 0.108535669744 0.961812 -0.056577 0.267799
0.837054967880 -1.092829465866 0.152350604534 0.808853 -0.100199 0.579411
0.812926828861 -0.995685935020 0.204281523824 0.816980 -0.103029 0.567388
0.847348272800 -0.457902312279 0.166126847267 0.821564 -0.009569 0.570037
0.844922542572 -0.493252694607 0.169039800763 0.821564 -0.009569 0.570037
0.845380663872 -0.573191046715 0.167058318853 0.821564 -0.009569 0.570037
0.810886502266 -0.941963851452 0.210695430636 0.821564 -0.009569 0.570037
0.821738541126 -0.197717487812 0.213720142841 0.869716 -0.014787 0.493332
0.820704519749 -0.376981377602 0.210202276707 0.869716 -0.014787 0.493332
0.825394570827 -0.186435669661 0.207604706287 0.869716 -0.014787 0.493332
0.836626946926 -0.288727790117 0.184734612703 0.869716 -0.014787 0.493332
0.817013263702 -0.440530478954 0.214822202921 0.869716 -0.014787 0.493332
0.816036045551 0.218809351325 0.235941916704 0.869716 -0.014787 0.493332
0.846333205700 0.775105118752 0.197928607464 0.869716 -0.014787 0.493332
0.834521055222 0.629773378372 0.214736595750 0.869716 -0.014787 0.493332
0.825248777866 0.334344387054 0.222893506289 0.869716 -0.014787 0.493332
0.816084206104 0.723795294762 0.253305703402 0.892424 -0.017290 0.450867
0.810877561569 0.526636540890 0.256069332361 0.892424 -0.017290 0.450867
0.825643837452 0.910391449928 0.241511404514 0.892424 -0.017290 0.450867
0.828002631664 0.743259847164 0.230433568358 0.892424 -0.017290 0.450867
0.818647980690 1.192311525345 0.262078702450 0.892578 -0.001315 0.450890
0.823810875416 1.180232524872 0.251803725958 0.892578 -0.001315 0.450890
0.836114525795 1.461627960205 0.229009225965 0.892578 -0.001315 0.450890
0.821180284023 1.402197599411 0.267557024956 0.945233 -0.016362 0.325986
0.845377087593 1.686921954155 0.212449014187 0.945233 -0.016362 0.325986
0.817295074463 1.759759783745 0.290710538626 0.962379 0.003623 0.271688
0.795577824116 1.809235334396 0.295913904905 0.867350 0.420763 0.265825
0.795113503933 1.825672149658 0.261128276587 0.356975 0.900518 0.248267
0.842079997063 1.782105088234 0.195059567690 0.987910 0.064150 0.141130
0.855119705200 1.714969277382 0.152102723718 0.972417 0.114773 0.203060
0.852255582809 1.274787425995 0.182829827070 0.980402 0.001152 0.197002
0.851309001446 1.616867065430 0.184865713120 0.980402 0.001152 0.197002
0.855359673500 1.490601181984 0.165666237473 0.980402 0.001152 0.197002
0.856396198273 1.197630286217 0.169644966722 0.963408 0.010907 0.267815
0.863471329212 1.130673766136 0.146594509482 0.963408 0.010907 0.267815
0.860323607922 1.254190325737 0.153383642435 0.963408 0.010907 0.267815
0.851186692715 1.026819825172 0.192257687449 0.963794 -0.006031 0.266581
0.850926220417 0.674010396004 0.186508283019 0.963794 -0.006031 0.266581
0.862247526646 0.861334860325 0.149213671684 0.963794 -0.006031 0.266581
0.866997361183 0.275440126657 0.125417470932 0.953706 -0.003682 0.300718
0.871457517147 0.758880794048 0.116731442511 0.953706 -0.003682 0.300718
0.873255491257 0.433614015579 0.107325747609 0.953706 -0.003682 0.300718
0.875993251801 0.370228052139 0.097905986011 0.953706 -0.003682 0.300718
0.862612366676 0.057462874800 0.136598691344 0.954177 -0.006156 0.299181
0.859107732773 -0.014087364078 0.146364986897 0.954177 -0.006156 0.299181
0.859290242195 -0.238164886832 0.141491889954 0.954177 -0.006156 0.299181
0.868071496487 -0.286903440952 0.112653195858 0.954177 -0.006156 0.299181
0.863129973412 -0.342233926058 0.127296343446 0.954177 -0.006156 0.299181
0.871679723263 -0.316532462835 0.099211186171 0.963431 -0.008483 0.267822
0.872690618038 -0.616050720215 0.086805835366 0.963431 -0.008483 0.267822
0.872672915459 -0.746050834656 0.083059206605 0.963431 -0.008483 0.267822
0.863557994366 -0.653257012367 0.118477888405 0.963431 -0.008483 0.267822
0.870739102364 -0.727238774300 0.090548031032 0.963431 -0.008483 0.267822
0.877300083637 -0.519577741623 0.070930719376 0.998248 -0.003110 0.059086
0.880417406559 -0.149573087692 0.038999535143 0.998248 -0.003110 0.059086
0.880744874477 -0.365721493959 0.021178983152 0.998248 -0.003110 0.059086
0.881981134415 -0.043958436698 0.018445290625 0.998248 -0.003110 0.059086
0.881879389286 -0.054199315608 0.019591836259 0.998248 -0.003110 0.059086
0.878356039524 0.039440859109 0.084712445736 0.998248 -0.003110 0.059086
0.883913218975 0.338561117649 0.007519120350 0.998248 -0.003110 0.059086
0.885475218296 0.908927857876 0.013762816787 0.998248 -0.003110 0.059086
0.879949927330 0.105764001608 0.061427582055 0.998248 -0.003110 0.059086
0.882057070732 0.332257926464 0.038667112589 0.998248 -0.003110 0.059086
0.883988499641 0.764759421349 0.030720084906 0.998248 -0.003110 0.059086
0.879466593266 0.811124742031 0.065355427563 0.990424 0.003312 0.138019
0.876154363155 0.596511185169 0.093227699399 0.990424 0.003312 0.138019
0.883053719997 0.764238476753 0.040660843253 0.990424 0.003312 0.138019
0.874685227871 0.881306231022 0.098120659590 0.990424 0.003312 0.138019
0.876557886600 0.951032876968 0.083376511931 0.990424 0.003312 0.138019
0.878151357174 1.080130219460 0.062955088913 0.991558 0.028010 0.126606
0.874511659145 1.218748450279 0.064422987401 0.992093 0.023330 0.123317
0.870566427708 1.488373517990 0.051501873881 0.993413 0.018661 0.113062
0.866176724434 1.492442846298 0.108387283981 0.997549 0.013723 0.068614
0.869413554668 1.470559597015 0.065870784223 0.997549 0.013723 0.068614
0.866619944572 1.639202356339 0.074120014906 0.997549 0.013723 0.068614
0.872153103352 1.627410173416 -0.025458225980 0.999326 0.029724 0.021524
0.874176800251 1.552133202553 -0.018766766414 0.999385 0.027675 0.021525
0.874468207359 1.387787461281 0.036046080291 0.977122 0.022449 0.211493
0.866693019867 1.729661464691 -0.060881603509 0.991311 0.130172 0.018914
0.847776174545 1.815128564835 -0.117413997650 0.826546 0.562491 0.020629
0.285574316978 1.875541448593 -0.042736329138 -0.000981 0.999987 -0.004907
0.582664132118 1.875183224678 -0.126535475254 -0.000981 0.999987 -0.004907
0.343912661076 1.875384926796 -0.076049685478 -0.000981 0.999987 -0.004907
0.346121162176 1.875654578209 -0.013454392552 0.000979 0.999995 -0.002938
0.588049888611 1.875747919083 0.028547748923 0.000979 0.999995 -0.002938
0.260052949190 1.875740051270 0.009674350731 0.000979 0.999995 -0.002938
0.434499323368 1.875539064407 -0.046090841293 0.000979 0.999995 -0.002938
0.614112019539 1.875527620316 -0.040788386017 0.000979 0.999995 -0.002938
0.087177097797 1.870598196983 0.103135988116 0.001042 0.997558 0.069839
0.214588955045 1.872225403786 0.080155462027 0.001042 0.997558 0.069839
0.052848864347 1.872759103775 0.072632908821 0.001042 0.997558 0.069839
0.261543005705 1.874871253967 0.042803458869 0.001042 0.997558 0.069839
0.101709902287 1.868967056274 0.130832448602 -0.003073 0.998835 0.048149
0.444450199604 1.872822284698 0.074022881687 -0.003073 0.998835 0.048149
0.691482603550 1.872544169426 0.097316533327 -0.003073 0.998835 0.048149
0.442435830832 1.870816707611 0.116027504206 -0.003073 0.998835 0.048149
0.011574586853 1.864060997963 0.175091564655 -0.003226 0.994541 0.104292
0.444034069777 1.868947148323 0.142748102546 -0.003226 0.994541 0.104292
0.015597472899 1.864141106606 0.174460366368 -0.003226 0.994541 0.104292
0.630854189396 1.865315675735 0.184017732739 -0.003226 0.994762 0.102165
0.186880767345 1.862590432167 0.195001840591 -0.003226 0.994762 0.102165
0.448869496584 1.862912416458 0.200860276818 -0.003226 0.994541 0.104292
0.767855525017 1.757542371750 0.395315885544 0.834251 0.350354 0.425767
0.704887509346 1.639558076859 0.586638152599 0.800676 0.332687 0.498234
0.704945981503 1.719901442528 0.529736995697 0.756880 0.379254 0.532258
0.706265032291 1.772802591324 0.456398755312 0.223494 0.868478 0.442489
0.693571031094 1.855451703072 0.249784305692 0.001139 0.983039 0.183394
0.159976392984 1.860532641411 0.212782084942 -0.003356 0.987830 0.155502
-0.535979449749 1.862524867058 0.207525849342 0.003226 0.994541 0.104292
-0.664312720299 1.867082476616 0.168139964342 0.003226 0.994762 0.102165
-0.253211349249 1.862306356430 0.200022220612 0.003226 0.994762 0.102165
-0.151038289070 1.867060542107 0.151055470109 0.003226 0.994541 0.104292
-0.404594421387 1.868046045303 0.150045812130 0.003226 0.994541 0.104292
-0.071718506515 1.864948630333 0.168604835868 0.003226 0.994541 0.104292
-0.476495921612 1.871862292290 0.096457064152 0.003073 0.998835 0.048149
-0.688397288322 1.871888399124 0.110871352255 0.003073 0.998835 0.048149
-0.473246693611 1.872465848923 0.083544179797 0.003073 0.998835 0.048149
-0.207330405712 1.870953798294 0.098106727004 -0.001042 0.997558 0.069839
-0.471969842911 1.874211907387 0.052097454667 -0.001042 0.997558 0.069839
-0.519348859787 1.874099493027 0.053680375218 -0.001042 0.997558 0.069839
-0.623297512531 1.875305891037 0.036642089486 -0.001042 0.997558 0.069839
-0.692479968071 1.875393748283 -0.079823896289 -0.000979 0.999995 -0.002938
-0.467113465071 1.875503420830 -0.055880494416 -0.000979 0.999995 -0.002938
-0.422514855862 1.875725507736 0.013082668185 -0.000979 0.999995 -0.002938
-0.329684287310 1.875753283501 0.017347577959 -0.000979 0.999995 -0.002938
-0.599444627762 1.875598788261 -0.018704567105 -0.000979 0.999995 -0.002938
-0.082625031471 1.875713944435 0.000393708237 0.000981 0.999987 -0.004907
-0.481486499310 1.875286579132 -0.101658433676 0.000981 0.999987 -0.004907
-0.452842026949 1.875138998032 -0.129250258207 0.000981 0.999987 -0.004907
-0.078301019967 1.874266386032 -0.107278771698 0.002979 0.999912 -0.012908
-0.145341604948 1.875308275223 -0.047831073403 0.002979 0.999912 -0.012908
-0.023559648544 1.874828219414 -0.051668718457 0.002979 0.999912 -0.012908
-0.199838116765 1.875203609467 -0.069665886462 0.002979 0.999912 -0.012908
0.184750854969 1.874567627907 -0.112647719681 -0.002979 0.999912 -0.012908
0.332096785307 1.874753713608 -0.137103855610 -0.002979 0.999912 -0.012908
0.041337687522 1.875507950783 -0.006161121652 -0.002979 0.999912 -0.012908
0.052949406207 1.873986959457 -0.121312752366 -0.002979 0.999912 -0.012908
-0.607497155666 1.875054121017 -0.146710723639 -0.000983 0.999976 -0.006883
-0.767211318016 1.871011257172 -0.142345100641 -0.065552 0.997849 0.001041
-0.871681511402 1.695800423622 -0.120354905725 -0.999118 0.038150 0.017528
-0.871081531048 1.673687815666 -0.038668368012 -0.999326 0.029724 0.021524
-0.869615435600 1.520659089088 0.054307483137 -0.993413 0.018661 0.113062
-0.875587522984 1.203891277313 0.058529894799 -0.992093 0.023330 0.123317
-0.878874897957 1.150039672852 0.042245451361 -0.991558 0.028010 0.126606
-0.873977184296 0.901051342487 0.102786272764 -0.990424 0.003312 0.138019
-0.877459704876 0.280857235193 0.090110138059 -0.990424 0.003312 0.138019
-0.879658162594 0.519838333130 0.069711901248 -0.990424 0.003312 0.138019
-0.874982476234 0.663609325886 0.100275710225 -0.990424 0.003312 0.138019
-0.881818234921 0.950975537300 0.045810047537 -0.990424 0.003312 0.138019
-0.883571803570 0.168995007873 0.003574316390 -0.998248 -0.003110 0.059086
-0.883356273174 0.527891874313 0.027844734490 -0.998248 -0.003110 0.059086
-0.883936583996 0.683784008026 0.026946194470 -0.998248 -0.003110 0.059086
-0.882715046406 0.506572902203 0.037505552173 -0.998248 -0.003110 0.059086
-0.879766464233 0.183243155479 0.068990617990 -0.998248 -0.003110 0.059086
-0.884843349457 0.904007077217 -0.018621802330 -0.999780 -0.000999 -0.020974
-0.884763300419 0.545810520649 -0.013005373999 -0.999780 -0.000999 -0.020974
-0.884388923645 0.616110086441 -0.041315265000 -0.999987 -0.000981 -0.004907
-0.884302079678 0.660445570946 -0.059262119234 -0.999987 -0.000981 -0.004907
-0.884240627289 0.881616532803 -0.076884344220 -0.999987 -0.000981 -0.004907
-0.882175743580 0.772839128971 -0.179404437542 -0.999627 -0.003014 -0.027126
-0.883258402348 0.552851438522 -0.113360099494 -0.999627 -0.003014 -0.027126
-0.882285475731 0.724203944206 -0.169690117240 -0.999627 -0.003014 -0.027126
-0.882281780243 0.585764110088 -0.170531213284 -0.999917 0.000989 -0.012857
-0.882380366325 0.536971807480 -0.163957923651 -0.999917 0.000989 -0.012857
-0.882874131203 0.163874894381 -0.133256167173 -0.999917 0.000989 -0.012857
-0.882225215435 0.590380966663 -0.174712419510 -0.999917 0.000989 -0.012857
-0.883921146393 0.120495617390 -0.055154606700 -0.999917 0.000989 -0.012857
-0.882164299488 0.433296918869 -0.182034045458 -0.999917 0.000989 -0.012857
-0.882852315903 0.363097786903 -0.131434857845 -0.999917 0.000989 -0.012857
-0.883039176464 0.620710134506 -0.198780193925 -0.985676 -0.003395 0.168617
-0.883561372757 0.782426297665 -0.199003279209 -0.985676 -0.003395 0.168617
-0.890112698078 0.126352190971 -0.217770934105 -0.880921 0.011994 0.473112
-0.897736847401 0.534884274006 -0.274525552988 -0.995380 0.018413 0.094231
-0.899616956711 0.302877724171 -0.249531343579 -0.995380 0.018413 0.094231
-0.892056822777 0.664484381676 -0.239780113101 -0.995380 0.018413 0.094231
-0.897760510445 0.609305381775 -0.298732489347 -0.999948 0.008902 -0.004945
-0.900180399418 0.341904193163 -0.286584258080 -0.999948 0.008902 -0.004945
-0.897415220737 0.649733006954 -0.295537024736 -0.999948 0.008902 -0.004945
-0.894022583961 0.727930963039 -0.334690511227 -0.996223 0.009589 -0.086304
-0.893333494663 0.687957763672 -0.347269266844 -0.996223 0.009589 -0.086304
-0.898669660091 0.276176959276 -0.332581430674 -0.996223 0.009589 -0.086304
-0.897651255131 0.419908195734 -0.327913969755 -0.996223 0.009589 -0.086304
-0.894948244095 0.404365003109 -0.361056804657 -0.996223 0.009589 -0.086304
-0.896176636219 0.611694395542 -0.323028862476 -0.996223 0.009589 -0.086304
-0.888276100159 0.741693377495 -0.399782121181 -0.996223 0.009589 -0.086304
-0.884581685066 0.299274325371 -0.458378344774 -0.992690 -0.001087 -0.120688
-0.892340123653 0.201062649488 -0.394065797329 -0.992690 -0.001087 -0.120688
-0.894351422787 0.130323499441 -0.377393841743 -0.992690 -0.001087 -0.120688
-0.886776149273 0.289171814919 -0.440187662840 -0.992690 -0.001087 -0.120688
-0.888986170292 0.254946798086 -0.421867996454 -0.992690 -0.001087 -0.120688
-0.880579054356 0.247769147158 -0.491557419300 -0.992690 -0.001087 -0.120688
-0.891822695732 -0.360664844513 -0.403683751822 -0.992690 0.001087 -0.120688
-0.888681232929 -0.197830989957 -0.427812337875 -0.992690 0.001087 -0.120688
-0.889515519142 -0.030822686851 -0.418935507536 -0.992690 0.001087 -0.120688
-0.900308489799 -0.869563698769 -0.339318901300 -0.992690 0.001087 -0.120688
-0.889322400093 -0.320946782827 -0.423943012953 -0.992690 0.001087 -0.120688
-0.885026335716 -0.024095937610 -0.456068485975 -0.992690 0.001087 -0.120688
-0.898343384266 -0.319957792759 -0.349154770374 -0.992690 0.001087 -0.120688
-0.889074146748 -0.299725204706 -0.425751924515 -0.992690 0.001087 -0.120688
-0.895605742931 -0.630600810051 -0.375495433807 -0.992690 0.001087 -0.120688
-0.887685477734 -0.172061055899 -0.435763835907 -0.992690 0.001087 -0.120688
-0.880950748920 -0.909332752228 -0.487988412380 -0.991465 -0.001096 -0.130369
-0.888642668724 -0.539622068405 -0.429328858852 -0.991465 -0.001096 -0.130369
-0.899823486805 -0.970943570137 -0.343149006367 -0.991465 -0.001096 -0.130369
-0.891777932644 -0.622088968754 -0.405198991299 -0.991465 -0.001096 -0.130369
-0.886184096336 -0.770985543728 -0.447971463203 -0.991465 -0.001096 -0.130369
-0.882685542107 -0.498280644417 -0.475067347288 -0.991465 -0.001096 -0.130369
-0.891992449760 -0.724569559097 -0.403456687927 -0.991465 -0.001096 -0.130369
-0.880648374557 -0.133953258395 -0.491038739681 -0.991465 -0.001096 -0.130369
-0.881299316883 -0.624059498310 -0.485583215952 -0.991465 -0.001096 -0.130369
-0.901721000671 -1.015112280846 -0.283301115036 -0.997738 -0.058565 0.033009
-0.898674249649 -0.504727780819 -0.236961141229 -0.825507 -0.001360 0.564391
-0.896045446396 -0.839603126049 -0.234506502748 -0.825507 -0.001360 0.564391
-0.902473509312 -0.221396669745 -0.263573437929 -0.999987 -0.000981 -0.004907
-0.902327299118 0.037861492485 -0.300396382809 -0.999987 -0.000981 -0.004907
-0.902446746826 -0.536656320095 -0.268757164478 -0.999987 -0.000981 -0.004907
-0.902486443520 -0.654048860073 -0.258573740721 -0.999987 -0.000981 -0.004907
-0.902287542820 -0.193379312754 -0.310853093863 -0.999995 0.000979 -0.002938
-0.902276635170 -0.660867810249 -0.314890384674 -0.999995 0.000979 -0.002938
-0.902426838875 -0.663301408291 -0.274077475071 -0.999995 0.000979 -0.002938
-0.902276873589 -0.460582822561 -0.314361751080 -0.999995 0.000979 -0.002938
-0.902273058891 -0.644897103310 -0.315816491842 -0.999995 0.000979 -0.002938
-0.895438134670 -0.085820287466 -0.229007527232 -0.880452 -0.006640 0.474089
-0.888439655304 -0.057039596140 -0.215621799231 -0.880452 -0.006640 0.474089
-0.882231295109 -0.161564633250 -0.187003493309 -0.999889 0.000991 -0.014865
-0.882361650467 -0.263236999512 -0.178951293230 -0.999889 0.000991 -0.014865
-0.882166147232 -0.975391268730 -0.201204806566 -0.999889 0.000991 -0.014865
-0.883085012436 -0.748998284340 -0.133365273476 -0.999889 0.000991 -0.014865
-0.883186280727 -0.601902902126 -0.124449312687 -0.999889 0.000991 -0.014865
-0.883065283298 -0.779012680054 -0.135118335485 -0.999889 0.000991 -0.014865
-0.882237255573 -0.101174078882 -0.185867190361 -0.999889 0.000991 -0.014865
-0.882775127888 -0.905516862869 -0.157189190388 -0.999889 0.000991 -0.014865
-0.883724570274 -0.701449275017 -0.087444670498 -0.999889 0.000991 -0.014865
-0.883202016354 -0.998130917549 -0.177366152406 -0.999189 0.037996 -0.013350
-0.892049729824 -1.063564777374 -0.200419634581 -0.975866 0.144062 0.164106
-0.885383188725 -1.116271376610 -0.084827117622 -0.994948 -0.025119 0.097201
-0.878686249256 -1.078673005104 -0.008773094043 -0.994218 -0.025267 0.104365
-0.856381893158 -1.347900986671 0.054726168513 -0.973503 -0.085569 0.212062
-0.842995405197 -1.596518158913 0.035457957536 -0.939287 -0.102881 0.327347
-0.828054130077 -1.721278667450 0.037926889956 -0.963989 -0.130688 0.231616
-0.837737143040 -1.767095804214 -0.034728996456 -0.975218 -0.144710 0.167360
-0.810802817345 -1.981103897095 -0.318066000938 -0.773429 -0.633061 0.032285
-0.775268137455 -2.005689859390 -0.211721375585 -0.438124 -0.898750 0.017207
-0.733965754509 -2.025986433029 -0.280573427677 -0.417317 -0.908738 0.006500
-0.626424133778 -2.044098377228 -0.308504641056 -0.147960 -0.988993 0.001112
-0.609920024872 -2.046434879303 -0.245366215706 -0.147960 -0.988993 0.001112
-0.620219767094 -2.045008182526 -0.300041019917 -0.147960 -0.988993 0.001112
-0.499531507492 -2.060697793961 -0.206778272986 -0.131049 -0.990274 0.046722
-0.425154328346 -2.072443246841 -0.247075945139 -0.131049 -0.990274 0.046722
-0.362738758326 -2.078678369522 -0.202966019511 -0.131049 -0.990274 0.046722
-0.339508026838 -2.070147275925 -0.252255320549 0.918161 0.364171 0.156073
-0.358733445406 -2.048608064651 -0.090914577246 0.939918 -0.269932 0.209024
-0.382659971714 -2.076174020767 -0.186382040381 -0.136621 -0.990221 -0.028228
-0.782729983330 -1.754092216492 0.100656442344 -0.812189 -0.163639 0.559975
-0.770272731781 -1.817464947701 0.090012192726 -0.283652 -0.213787 0.934793
-0.751339912415 -1.559414148331 0.145953267813 -0.334900 -0.190766 0.922741
-0.773324131966 -1.405128598213 0.164007723331 -0.337951 -0.132718 0.931759
-0.786586999893 -1.224372506142 0.185006275773 -0.341240 -0.132933 0.930529
-0.763774335384 -1.325019955635 0.178896918893 -0.341240 -0.132933 0.930529
-0.769107758999 -1.183094382286 0.197407662868 -0.339557 -0.136098 0.930687
-0.795952856541 -1.154820084572 0.191716507077 -0.339557 -0.136098 0.930687
-0.716717958450 -1.064259052277 0.239299535751 -0.409397 -0.162322 0.897800
-0.822245538235 -0.503763496876 0.203703895211 -0.869716 -0.014787 0.493332
-0.813780069351 -0.842096567154 0.208559378982 -0.869716 -0.014787 0.493332
-0.824162781239 -0.450036197901 0.201921865344 -0.869716 -0.014787 0.493332
-0.836842596531 -0.172152996063 0.187827944756 -0.869716 -0.014787 0.493332
-0.827489554882 -0.383308261633 0.198039904237 -0.869716 -0.014787 0.493332
-0.843442022800 -0.763788819313 0.166703179479 -0.821564 -0.009569 0.570037
-0.833552598953 -0.810632228851 0.180187016726 -0.821564 -0.009569 0.570037
-0.830254673958 -0.858774006367 0.184146121144 -0.821564 -0.009569 0.570037
-0.830358862877 -0.684833943844 0.186870411038 -0.821564 -0.009569 0.570037
-0.859375834465 -0.254877030849 0.140899270773 -0.954177 -0.006156 0.299181
-0.854043424129 -0.094232350588 0.160922303796 -0.954177 -0.006156 0.299181
-0.881647169590 0.055638041347 0.029761943966 -0.998248 -0.003110 0.059086
-0.880076766014 -0.418774545193 0.029510539025 -0.998248 -0.003110 0.059086
-0.878840625286 -0.246751427650 0.060250904411 -0.998248 -0.003110 0.059086
-0.879439711571 -0.529059827328 0.034069418907 -0.998248 -0.003110 0.059086
-0.879036903381 -0.450423210859 0.045366965234 -0.998248 -0.003110 0.059086
-0.879122972488 -0.912329256535 0.028594598174 -0.996878 -0.001053 0.078950
-0.882898986340 -0.497230708599 -0.009324646555 -0.996878 -0.001053 0.078950
-0.880528271198 -0.775141239166 0.014103237540 -0.996878 -0.001053 0.078950
-0.880981981754 -0.539126694202 0.013628328219 -0.996878 -0.001053 0.078950
-0.881470918655 -0.917210519314 -0.000750033185 -0.996878 -0.001053 0.078950
-0.884159803391 -0.032168749720 -0.014827485196 -0.996878 -0.001053 0.078950
-0.884427130222 -0.735629677773 -0.035651486367 -0.999917 0.000989 -0.012857
-0.883852839470 -0.504375934601 -0.073843963444 -0.999917 0.000989 -0.012857
-0.883319258690 -0.397761672735 -0.111700512469 -0.999917 0.000989 -0.012857
-0.883434891701 0.012641206384 -0.094014748931 -0.999917 0.000989 -0.012857
-0.883494138718 -0.530217528343 -0.101428180933 -0.999917 0.000989 -0.012857
-0.883936464787 -0.119949169457 -0.059140559286 -0.999917 0.000989 -0.012857
-0.883442997932 -0.335563659668 -0.101019293070 -0.999917 0.000989 -0.012857
-0.883297383785 -0.467802166939 -0.114881299436 -0.999917 0.000989 -0.012857
-0.883663296700 -0.598146140575 -0.090174064040 -0.999917 0.000989 -0.012857
-0.882998228073 -0.184830129147 -0.131219461560 -0.999917 0.000989 -0.012857
-0.874370217323 -1.081327795982 0.042148441076 -0.996222 -0.035773 0.079134
-0.855543732643 -1.217873096466 0.091061398387 -0.953314 -0.046968 0.298307
-0.857012987137 -1.310385227203 0.064533121884 -0.951816 -0.071031 0.298330
-0.819275200367 -1.464121103287 0.113481350243 -0.806479 -0.100265 0.582699
-0.791122913361 -1.555738210678 0.133961811662 -0.804396 -0.128408 0.580051
-0.828458547592 -1.653602957726 0.059121116996 -0.816339 -0.131382 0.562432
-0.801558434963 -1.435627698898 0.142910584807 -0.808853 -0.100199 0.579411
-0.812994062901 -1.187438130379 0.169736310840 -0.808853 -0.100199 0.579411
-0.849267303944 -1.145488381386 0.125544935465 -0.961812 -0.056577 0.267799
-0.869345128536 -0.407066583633 0.104931280017 -0.963431 -0.008483 0.267822
-0.861732780933 -0.917073965073 0.117292694747 -0.963431 -0.008483 0.267822
-0.872648060322 -0.759241342545 0.082761168480 -0.963431 -0.008483 0.267822
-0.864240288734 -0.908626437187 0.108545027673 -0.963431 -0.008483 0.267822
-0.878958404064 -0.123183794320 0.065260745585 -0.998248 -0.003110 0.059086
-0.864298939705 -0.480200707912 0.120890438557 -0.963431 -0.008483 0.267822
-0.865512311459 -0.128539830446 0.123818986118 -0.954177 -0.006156 0.299181
-0.858908355236 -0.527476191521 0.137161955237 -0.954177 -0.006156 0.299181
-0.808542430401 -1.101645112038 0.191442400217 -0.816980 -0.103029 0.567388
-0.871529340744 0.839315831661 0.117414601147 -0.953706 -0.003682 0.300718
-0.863039493561 0.432339310646 0.139774635434 -0.953706 -0.003682 0.300718
-0.868784129620 0.401139676571 0.121165297925 -0.953706 -0.003682 0.300718
-0.861777365208 0.095274627209 0.139959841967 -0.953706 -0.003682 0.300718
-0.877368867397 0.232238352299 0.091715171933 -0.990424 0.003312 0.138019
-0.862208187580 0.570435285568 0.143983915448 -0.953706 -0.003682 0.300718
-0.859638333321 0.624483704567 0.154136210680 -0.963794 -0.006031 0.266581
-0.852873086929 0.825208961964 0.182350054383 -0.963794 -0.006031 0.266581
-0.858043074608 1.032767534256 0.167632550001 -0.963794 -0.006031 0.266581
-0.868810534477 1.084558367729 0.129035964608 -0.963408 0.010907 0.267815
-0.867417097092 1.290275454521 0.126455947757 -0.963408 0.010907 0.267815
-0.850154876709 1.096236348152 0.195910796523 -0.963408 0.010907 0.267815
-0.866901338100 1.391451597214 0.117117196321 -0.997549 0.013723 0.068614
-0.865628242493 1.680343627930 0.080599486828 -0.997549 0.013723 0.068614
-0.867611706257 1.459590554237 0.093930952251 -0.997549 0.013723 0.068614
-0.852316975594 1.700226783752 0.173814773560 -0.972417 0.114773 0.203060
-0.848625361919 1.675541520119 0.197779148817 -0.980402 0.001152 0.197002
-0.851463198662 1.322002530098 0.186406821012 -0.980402 0.001152 0.197002
-0.855847120285 1.426153182983 0.163739964366 -0.980402 0.001152 0.197002
-0.834049046040 1.430955290794 0.232925444841 -0.892578 -0.001315 0.450890
-0.836459398270 1.193397521973 0.226863503456 -0.892578 -0.001315 0.450890
-0.827744603157 1.147301197052 0.243844673038 -0.892578 -0.001315 0.450890
-0.810723662376 0.520785868168 0.256149381399 -0.892424 -0.017290 0.450867
-0.819776356220 0.627608537674 0.242303133011 -0.892424 -0.017290 0.450867
-0.813001096249 0.358649432659 0.245424196124 -0.892424 -0.017290 0.450867
-0.811768114567 0.266822278500 0.244481086731 -0.860513 -0.012158 0.509283
-0.820630729198 0.224096298218 0.227980166674 -0.869716 -0.014787 0.493332
-0.835240960121 0.402322381735 0.207148253918 -0.869716 -0.014787 0.493332
-0.823589444160 0.261474967003 0.223797291517 -0.869716 -0.014787 0.493332
-0.843419730663 0.832719087601 0.204669430852 -0.869716 -0.014787 0.493332
-0.833451509476 0.355024307966 0.208992272615 -0.869716 -0.014787 0.493332
-0.765084266663 0.161156222224 0.378081381321 -0.948398 -0.008701 0.316961
-0.763337731361 0.207534492016 0.384451389313 -0.948398 -0.008701 0.316961
-0.762257397175 0.188472822309 0.387203216553 -0.948398 -0.008701 0.316961
-0.631728470325 0.784528493881 0.777057945728 -0.948187 0.001236 0.317711
-0.633235991001 0.435352057219 0.773301720619 -0.948187 0.001236 0.317711
-0.628585934639 0.667226970196 0.782085537910 -0.832674 -0.001354 0.553762
-0.626281380653 0.197135955095 0.784741818905 -0.832674 -0.001354 0.553762
-0.653686344624 0.217934861779 0.712236344814 -0.949175 0.001234 0.314746
-0.698200821877 0.165057733655 0.578440010548 -0.949175 0.001234 0.314746
-0.688443005085 0.130421876907 0.607894897461 -0.949175 0.001234 0.314746
-0.620681762695 0.141276121140 0.789795815945 -0.772224 -0.035165 0.634377
-0.601568996906 0.045129910111 0.799955785275 -0.552421 -0.048949 0.832127
-0.592725038528 0.089167267084 0.806290984154 -0.427947 -0.041587 0.902847
-0.601992785931 0.251573830843 0.808550238609 -0.427862 -0.001300 0.903843
-0.604129135609 0.327726304531 0.807552695274 -0.427862 -0.001300 0.903843
-0.609498083591 0.916035532951 0.805131614208 -0.427862 -0.001300 0.903843
-0.582706987858 1.122853398323 0.810537397861 -0.392106 0.051838 0.918458
-0.647484898567 1.620986819267 0.657640218735 -0.270818 0.584397 0.764943
-0.636813700199 1.647788047791 0.639606893063 -0.209344 0.624931 0.752088
-0.586013793945 1.620809674263 0.674634695053 -0.107876 0.663508 0.740351
-0.598536849022 1.688346982002 0.605501592159 -0.014966 0.844909 0.534701
-0.631909191608 1.708313465118 0.573113203049 -0.006778 0.844534 0.535459
-0.700878381729 1.783163905144 0.438813865185 -0.223494 0.868478 0.442489
-0.752653896809 1.809259772301 0.354011803865 -0.418853 0.804006 0.422063
-0.705578267574 1.860637903214 0.219097748399 -0.112539 0.978227 0.174374
-0.743597865105 1.860540866852 0.189090907574 -0.113725 0.985220 0.128091
-0.824982643127 1.696075201035 0.268478900194 -0.940997 0.061341 0.332808
-0.813605904579 1.226871371269 0.280311405659 -0.945233 -0.016362 0.325986
-0.820175886154 1.349779725075 0.267726361752 -0.945233 -0.016362 0.325986
-0.803438723087 1.148484826088 0.303531825542 -0.942798 -0.029264 0.332079
-0.720408380032 1.070526003838 0.532205402851 -0.942798 -0.029264 0.332079
-0.781403899193 1.107244491577 0.362456560135 -0.942798 -0.029264 0.332079
-0.779863059521 1.099619865417 0.366170883179 -0.942798 -0.029264 0.332079
-0.699190676212 1.019983410835 0.588206291199 -0.941995 -0.001248 0.335625
-0.711347877979 1.025680780411 0.554165244102 -0.941995 -0.001248 0.335625
-0.660354256630 0.967247426510 0.696892738342 -0.941995 -0.001248 0.335625
-0.620560944080 0.913979291916 0.793312072754 -0.813364 0.001362 0.581753
-0.623334944248 0.892527341843 0.789470732212 -0.813364 0.001362 0.581753
-0.622258424759 1.087341547012 0.789983868599 -0.815937 0.004100 0.578126
-0.767215132713 1.702198028564 0.428496509790 -0.936811 -0.013982 0.349556
-0.787557125092 1.727545738220 0.373593717813 -0.937307 0.001258 0.348502
-0.812518358231 1.825649380684 0.216125831008 -0.823695 0.475390 0.309082
-0.740317165852 1.713052272797 0.480584144592 -0.800676 0.332687 0.498234
-0.738914906979 1.679237723351 0.503605365753 -0.937948 -0.013961 0.346495
-0.694513022900 1.598170876503 0.618396878242 -0.917205 -0.019571 0.397934
-0.645713865757 1.466576099396 0.743272542953 -0.907621 0.106697 0.406005
-0.686959922314 1.723254203796 0.531789004803 -0.204364 0.791335 0.576215
-0.617421805859 1.224034309387 0.787666082382 -0.580082 0.046350 0.813238
-0.552378654480 1.118278026581 0.817437827587 -0.130199 0.058763 0.989745
-0.572091221809 1.189054131508 0.809676647186 -0.203702 0.054240 0.977529
-0.569498181343 0.978411138058 0.821004092693 -0.202338 0.001156 0.979315
-0.542934298515 0.875455677509 0.826087415218 -0.065688 0.003128 0.997835
-0.477642953396 0.707471013069 0.830833733082 -0.065688 0.003128 0.997835
-0.451791524887 0.911779940128 0.832092463970 -0.065688 0.003128 0.997835
-0.500443279743 0.773147940636 0.829160273075 -0.065688 0.003128 0.997835
-0.504033863544 0.590495705605 0.829338967800 -0.065688 0.003128 0.997835
-0.520410954952 1.041297912598 0.824563443661 -0.066834 0.060261 0.995943
-0.455359339714 1.215409755707 0.818527996540 -0.066834 0.060261 0.995943
-0.351412892342 1.281338214874 0.818469166756 -0.030813 0.060563 0.997689
-0.426886022091 1.060950517654 0.829348266125 -0.030813 0.060563 0.997689
-0.349069565535 1.407335042953 0.811027169228 -0.030813 0.060563 0.997689
-0.372698992491 1.151906013489 0.825548529625 -0.030813 0.060563 0.997689
-0.335632026196 1.270418286324 0.819592952728 -0.030813 0.060563 0.997689
-0.381984561682 1.488282084465 0.799075841904 -0.029630 0.207413 0.977805
-0.287662982941 1.511047124863 0.792071342468 -0.023451 0.558679 0.829052
-0.219666674733 1.511853337288 0.793537616730 -0.006805 0.559390 0.828877
-0.049814939499 1.538597941399 0.776873409748 -0.006805 0.559390 0.828877
0.009598627687 1.507512807846 0.798188686371 0.006805 0.559390 0.828877
0.210041329265 1.536588668823 0.776917695999 0.006805 0.559390 0.828877
0.086671568453 1.481319785118 0.806478798389 0.008159 0.208646 0.977957
-0.047735422850 1.469137668610 0.809382617474 -0.008159 0.208646 0.977957
-0.107010155916 1.468416929245 0.809049844742 -0.008159 0.208646 0.977957
-0.098292320967 1.434241533279 0.814267754555 -0.007286 0.059331 0.998212
-0.217226669192 1.200276255608 0.827242493629 -0.007286 0.059331 0.998212
-0.110150456429 1.260758757591 0.824513971806 -0.007286 0.059331 0.998212
-0.192782267928 1.320463418961 0.820277094841 -0.007286 0.059331 0.998212
-0.179541915655 1.245812177658 0.824836432934 -0.007286 0.059331 0.998212
-0.314415931702 1.129751801491 0.828615307808 -0.030813 0.060563 0.997689
-0.252093940973 1.324274420738 0.818884372711 -0.030813 0.060563 0.997689
-0.302892088890 1.037064552307 0.834486663342 -0.030813 0.060563 0.997689
-0.340821117163 1.058963179588 0.832044839859 -0.030813 0.060563 0.997689
-0.247825890779 1.299095749855 0.820513367653 -0.030813 0.060563 0.997689
-0.400753855705 0.590322256088 0.835791826248 -0.029250 0.005043 0.999559
-0.314756542444 0.802086949348 0.837460279465 -0.029250 0.005043 0.999559
-0.396422088146 0.415423929691 0.836671113968 -0.029250 0.005043 0.999559
-0.321947723627 0.844840645790 0.837061643600 -0.029250 0.005043 0.999559
-0.429676413536 0.570810616016 0.835009038448 -0.029250 0.005043 0.999559
-0.433145105839 0.295292139053 0.836085915565 -0.029250 0.005043 0.999559
-0.384431898594 0.712253928185 0.835758149624 -0.029250 0.005043 0.999559
-0.347728163004 0.850916266441 0.836263358593 -0.029250 0.005043 0.999559
-0.471967041492 0.328855603933 0.832911312580 -0.079115 0.005274 0.996852
-0.456485956907 0.533071696758 0.833277404308 -0.079115 0.005274 0.996852
-0.539806008339 0.273901373148 0.827706933022 -0.079115 0.005274 0.996852
-0.516344070435 0.356144160032 0.829235792160 -0.079115 0.005274 0.996852
-0.473866164684 0.138818249106 0.828277289867 -0.080128 -0.049394 0.995560
-0.523986935616 0.233750179410 0.828920602798 -0.080128 -0.049394 0.995560
-0.541509866714 0.025090739131 0.817267477512 -0.080128 -0.049394 0.995560
-0.550147533417 0.019244175404 0.815725803375 -0.251271 -0.048274 0.966712
-0.566423058510 0.589364051819 0.822346031666 -0.251210 -0.001191 0.967932
-0.574486196041 -0.225551068783 0.799053847790 -0.191353 -0.043976 0.980536
-0.628045320511 -0.337473988533 0.742659389973 -0.690220 -0.226943 0.687090
-0.636972427368 -0.393140435219 0.711125493050 -0.731168 -0.286388 0.619173
-0.701404988766 -0.687296330929 0.499218106270 -0.754116 -0.285384 0.591494
-0.709469914436 -0.648587346077 0.507061123848 -0.810630 -0.236241 0.535788
-0.763940274715 -0.889406859875 0.314889967442 -0.815529 -0.253202 0.520385
-0.713896274567 -0.845536053181 0.387827485800 -0.458859 -0.515181 0.723904
-0.682460486889 -0.697920739651 0.506562411785 -0.594357 -0.427871 0.680930
-0.669099092484 -0.608987271786 0.573635280132 -0.567426 -0.389797 0.725318
-0.532579421997 -0.259268254042 0.800800979137 -0.050072 -0.157202 0.986296
-0.451766669750 -0.027239114046 0.820363223553 -0.046261 -0.057019 0.997301
-0.493174314499 -0.162661835551 0.810703754425 -0.046261 -0.057019 0.997301
-0.478562116623 -0.172750517726 0.810812175274 -0.046261 -0.057019 0.997301
-0.362943828106 0.073554500937 0.829057335854 -0.030690 -0.056089 0.997954
-0.348440706730 0.086060762405 0.830204963684 -0.030690 -0.056089 0.997954
-0.369239509106 -0.023184478283 0.823352456093 -0.030690 -0.056089 0.997954
-0.434569895267 0.162127315998 0.831962406635 -0.030690 -0.056089 0.997954
-0.356984406710 0.147397458553 0.833446562290 -0.030690 -0.056089 0.997954
-0.289669662714 0.593141555786 0.839107215405 -0.029250 0.005043 0.999559
-0.258196622133 0.400899559259 0.840874016285 -0.029250 0.005043 0.999559
-0.290171205997 0.262691944838 0.840508460999 -0.029250 0.005043 0.999559
-0.249901399016 0.794585347176 0.839435160160 -0.029250 0.005043 0.999559
-0.328265786171 0.242202758789 0.839455187321 -0.029250 0.005043 0.999559
-0.292747199535 0.583206117153 0.839057683945 -0.029250 0.005043 0.999559
-0.351884484291 0.318794846535 0.838419377804 -0.029250 0.005043 0.999559
-0.292048454285 0.415281713009 0.839798271656 -0.029250 0.005043 0.999559
-0.060262992978 0.842785954475 0.841414391994 -0.008902 0.004945 0.999948
-0.208237290382 0.319798529148 0.842443227768 -0.008902 0.004945 0.999948
-0.091237515211 0.792505741119 0.841376066208 -0.008902 0.004945 0.999948
-0.058862276375 0.863748431206 0.841336071491 -0.008902 0.004945 0.999948
-0.210752516985 0.777668952942 0.840460240841 -0.008902 0.004945 0.999948
-0.189959973097 0.386563360691 0.842306852341 -0.008902 0.004945 0.999948
-0.132987141609 0.736467719078 0.841274142265 -0.008902 0.004945 0.999948
-0.208395808935 0.371891975403 0.842218697071 -0.008902 0.004945 0.999948
-0.046441491693 1.351572275162 0.819621562958 -0.007286 0.059331 0.998212
-0.120249107480 1.045755863190 0.837249994278 -0.007286 0.059331 0.998212
-0.028515242040 1.180385947227 0.829974830151 -0.007286 0.059331 0.998212
-0.069481879473 1.158055186272 0.830970525742 -0.007286 0.059331 0.998212
-0.145249485970 1.115566730499 0.832882881165 -0.007286 0.059331 0.998212
0.005139894783 1.190957188606 0.829536139965 0.007286 0.059331 0.998212
0.043000057340 1.049369096756 0.837667644024 0.007286 0.059331 0.998212
0.023761682212 1.166127681732 0.830863952637 0.007286 0.059331 0.998212
0.073472335935 1.193762302399 0.828808903694 0.007286 0.059331 0.998212
0.104789718986 1.141207218170 0.831685721874 0.007286 0.059331 0.998212
0.117715023458 1.320236682892 0.820905804634 0.007286 0.059331 0.998212
0.081678688526 1.354832887650 0.819138348103 0.007286 0.059331 0.998212
0.194314420223 1.062534809113 0.835642635822 0.007286 0.059331 0.998212
0.190965354443 1.313759088516 0.820691704750 0.007286 0.059331 0.998212
0.206999391317 1.406329393387 0.815041065216 0.007286 0.059331 0.998212
0.316820412874 1.485007166862 0.801722645760 0.029630 0.207413 0.977805
0.407171577215 1.532096028328 0.774281680584 0.023451 0.558679 0.829052
0.463628172874 1.518425822258 0.778610110283 0.115434 0.556711 0.822647
0.588044762611 1.612133145332 0.682109236717 0.107876 0.663508 0.740351
0.634319305420 1.656159639359 0.633344352245 0.209344 0.624931 0.752088
0.502046167850 1.512250900269 0.779434323311 0.055838 0.657173 0.751669
0.384454190731 1.479031562805 0.800964593887 0.029630 0.207413 0.977805
0.306151390076 1.333082914352 0.816739857197 0.030813 0.060563 0.997689
0.374868065119 1.204476475716 0.822349250317 0.030813 0.060563 0.997689
0.324113577604 1.337137341499 0.815960109234 0.030813 0.060563 0.997689
0.434074431658 1.218966722488 0.819711804390 0.030813 0.060563 0.997689
0.344058632851 1.273134589195 0.819178581238 0.030813 0.060563 0.997689
0.386587888002 0.996631562710 0.834390282631 0.030813 0.060563 0.997689
0.235338777304 1.373893976212 0.816427826881 0.030813 0.060563 0.997689
0.225012704730 1.211899161339 0.826395630836 0.030813 0.060563 0.997689
0.328679889441 1.043717861176 0.833317518234 0.030813 0.060563 0.997689
0.269423484802 1.274755358696 0.821317672729 0.030813 0.060563 0.997689
0.322428613901 0.825048625469 0.837132036686 0.029250 0.005043 0.999559
0.367243409157 0.845408022404 0.835702359676 0.029250 0.005043 0.999559
0.309359043837 0.781999826431 0.837707996368 0.029250 0.005043 0.999559
0.384939610958 0.611672163010 0.836174011230 0.029250 0.005043 0.999559
0.368762522936 0.737481117249 0.836119413376 0.029250 0.005043 0.999559
0.333588391542 0.765192747116 0.837054312229 0.029250 0.005043 0.999559
0.408794134855 0.387090444565 0.836421966553 0.029250 0.005043 0.999559
0.396030753851 0.581141531467 0.835972666740 0.029250 0.005043 0.999559
0.369666993618 0.247686520219 0.838191509247 0.029250 0.005043 0.999559
0.257498145103 0.852190136909 0.838960707188 0.029250 0.005043 0.999559
0.245171979070 0.723381817341 0.839882016182 0.029250 0.005043 0.999559
0.292367875576 0.397050559521 0.839866876602 0.029250 0.005043 0.999559
0.239295899868 0.707652330399 0.840125441551 0.029250 0.005043 0.999559
0.341494232416 0.403333723545 0.838368296623 0.029250 0.005043 0.999559
0.305378377438 0.247331589460 0.840118825436 0.029250 0.005043 0.999559
0.374108910561 0.345445543528 0.837639451027 0.029250 0.005043 0.999559
0.115944311023 0.764732599258 0.841292619705 0.008902 0.004945 0.999948
0.205911159515 0.900661885738 0.839972794056 0.008902 0.004945 0.999948
0.197761639953 0.415559232235 0.842118620872 0.008902 0.004945 0.999948
0.192202880979 0.924922168255 0.839981079102 0.008902 0.004945 0.999948
0.098411910236 0.888625562191 0.840905308723 0.008902 0.004945 0.999948
0.098254300654 0.666179418564 0.841859996319 0.008902 0.004945 0.999948
0.117636732757 0.822959303856 0.841029167175 0.008902 0.004945 0.999948
0.170858383179 0.678079962730 0.841214001179 0.008902 0.004945 0.999948
0.040590509772 0.461133390665 0.843211293221 0.008902 0.004945 0.999948
0.101001530886 0.275341153145 0.843512594700 0.008902 0.004945 0.999948
0.036146998405 0.387531936169 0.843563199043 0.008902 0.004945 0.999948
0.057864166796 0.410516798496 0.843286752701 0.008902 0.004945 0.999948
0.044396057725 0.366196632385 0.843587040901 0.008902 0.004945 0.999948
0.052922241390 0.742989659309 0.841902256012 0.008902 0.004945 0.999948
0.098489254713 0.493976116180 0.842596113682 0.008902 0.004945 0.999948
0.082226693630 0.702569007874 0.841835319996 0.008902 0.004945 0.999948
-0.114446952939 0.587915837765 0.842062711716 -0.008902 0.004945 0.999948
-0.035420451313 0.277056336403 0.844042599201 -0.008902 0.004945 0.999948
-0.113686196506 0.596283435822 0.842033088207 -0.008902 0.004945 0.999948
-0.092917129397 0.664915561676 0.841909110546 -0.008902 0.004945 0.999948
-0.005577343050 0.465611785650 0.843479037285 -0.008902 0.004945 0.999948
-0.065123081207 0.309816271067 0.843658804893 -0.008902 0.004945 0.999948
-0.185662150383 0.247515484691 0.842938065529 -0.008902 0.004945 0.999948
-0.006766409148 0.539264202118 0.843153655529 -0.008902 0.004945 0.999948
-0.217146545649 -0.057596281171 0.825986146927 -0.007272 -0.057137 0.998340
-0.146146997809 0.129939079285 0.837185025215 -0.007272 -0.057137 0.998340
-0.193615332246 0.194028854370 0.840424358845 -0.007272 -0.057137 0.998340
