-0.808568596840 -1.214770674706 -0.490399032831 -0.059331 0.007286 -0.998212
-0.756815433502 -1.144825816154 -0.480911791325 0.978785 -0.202385 0.031955
-0.771935820580 -1.215841412544 -0.463576555252 0.978785 -0.202385 -0.031955
-0.817725241184 -1.112813115120 -0.516936898232 0.001119 -0.987835 0.155503
-0.769562959671 -1.160187721252 -0.319694936275 0.001384 -0.707106 -0.707106
-0.818397760391 -1.204434871674 -0.297726601362 -0.999995 -0.002938 -0.000979
-0.775465548038 -1.237170696259 -0.391344159842 0.999030 -0.030085 -0.032160
-0.818261861801 -1.270873546600 -0.427448272705 -0.999995 -0.002938 0.000979
-0.781894266605 -1.187471866608 -0.341757386923 -0.026753 0.702617 -0.711065
-0.804637193680 -1.353737711906 -0.606132745743 -0.977928 -0.034543 -0.206068
-0.811309635639 -1.375567436218 -0.507233440876 -0.001384 0.707106 0.707106
-0.790048897266 -1.227135300636 -0.588505327702 -0.026700 -0.706855 -0.706855
-0.775775253773 -1.234664440155 -0.468060255051 0.978785 -0.202385 0.031955
-0.802855134010 -1.160989284515 -0.353509575129 -0.120711 -0.884741 -0.450181
-0.816472887993 -1.243876218796 -0.448805809021 -0.978211 0.205128 0.032014
-0.775145351887 -1.350709676743 -0.369846761227 0.978507 0.034480 -0.203311
-0.801295578480 -1.394236683846 -0.411614477634 -0.166305 -0.697260 0.697260
-0.794693410397 -1.417517781258 -0.467050015926 -0.250603 -0.956006 -0.152484
-0.784141540527 -1.418521642685 -0.396754741669 -0.023891 -0.704089 -0.709710
-0.699939966202 -1.447056770325 -0.506982922554 0.999995 0.002938 0.000979
-0.750234901905 -1.439098238945 -0.421268969774 -0.999995 -0.002938 0.000979
-0.723199307919 -1.422023057938 -0.361581116915 0.001384 -0.707106 0.707106
-0.727397203445 -1.405667185783 -0.348667681217 0.001316 -0.454044 0.890978
-0.700024247169 -1.405862689018 -0.580699086189 0.999995 0.002938 0.000979
-0.750366330147 -1.374857425690 -0.559806644917 -0.999995 -0.002938 0.000979
-0.750434756279 -1.341411948204 -0.388635665178 -0.999995 -0.002938 0.000979
-0.750426888466 -1.345274686813 -0.469704061747 -0.999995 -0.002938 0.000979
-0.725178480148 -1.365924715996 -0.599111735821 0.001119 -0.155503 -0.987835
-0.700253665447 -1.293680191040 -0.392793029547 0.999995 0.002938 0.000979
-0.702058136463 -1.321144223213 -0.327103972435 -0.001119 0.155503 0.987835
-0.750507414341 -1.305876135826 -0.390686243773 -0.999995 -0.002938 0.000979
-0.750568389893 -1.276088595390 -0.483940422535 -0.999995 -0.002938 0.000979
-0.700273275375 -1.284094810486 -0.578090608120 0.999995 0.002938 0.000979
-0.750602185726 -1.259555101395 -0.485108584166 -0.999995 -0.002938 0.000979
-0.737901210785 -1.217779397964 -0.383176535368 -0.001316 0.890978 0.454044
-0.747209906578 -1.352679967880 -0.329079926014 0.001119 -0.155503 0.987835
-0.700108110905 -1.364869356155 -0.352360486984 0.999995 0.002938 0.000979
-0.805263698101 0.969152092934 -0.440694361925 0.001119 -0.987835 0.155503
-0.678201615810 0.974034667015 -0.411508172750 0.001119 -0.987835 0.155503
-0.744933724403 0.995865166187 -0.341267764568 0.001316 -0.890978 0.454044
-0.702044129372 1.107010245323 -0.212765678763 0.001316 -0.454044 0.890978
-0.676390290260 1.043726801872 -0.269727170467 0.708898 -0.498730 0.498730
-0.658573865891 1.031297206879 -0.505627691746 0.999995 0.002938 0.000979
-0.658525288105 1.007513761520 -0.465912282467 0.999995 0.002938 0.000979
-0.663234353065 1.025535106659 -0.614627420902 0.707150 -0.629477 -0.322020
-0.730334460735 0.999402523041 -0.595912516117 0.001316 -0.890978 -0.454044
-0.792011201382 0.977215051651 -0.540338218212 0.001119 -0.987835 -0.155503
-0.832600653172 1.024079918861 -0.330431491137 -0.999995 -0.002938 0.000979
-0.828920066357 1.004212260246 -0.359126150608 -0.705527 -0.630919 0.322758
-0.721442818642 1.116762042046 -0.298773407936 -0.001384 0.707106 -0.707106
-0.734406948090 1.059834599495 -0.378309279680 -0.001316 0.890978 -0.454044
-0.740971028805 1.046615600586 -0.424167245626 -0.001119 0.987835 -0.155503
-0.699121415615 1.043850064278 -0.488127857447 -0.001119 0.987835 0.155503
-0.660959482193 1.077164888382 -0.585704684258 -0.001316 0.890978 0.454044
-0.667163610458 1.113775730133 -0.628425955772 -0.001384 0.707106 0.707106
-0.661228179932 1.140189647675 -0.651572644711 -0.001316 0.454044 0.890978
-0.658680081367 1.083222627640 -0.605920493603 0.999995 0.002938 0.000979
-0.658601284027 1.044681549072 -0.382434964180 0.999995 0.002938 -0.000979
-0.658943653107 1.212100386620 -0.217359125614 0.999995 0.002938 -0.000979
-0.659054279327 1.266167163849 -0.714609503746 0.999995 0.002938 0.000979
-0.744654893875 1.148080945015 -0.655680418015 -0.001316 0.454044 0.890978
-0.716927528381 1.373700141907 -0.661294519901 0.001316 -0.454044 0.890978
-0.728619694710 1.357729673386 -0.260876923800 0.001316 -0.454044 -0.890978
-0.664115965366 1.268591642380 -0.239220306277 0.001119 -0.155503 -0.987835
-0.707786738873 1.476338267326 -0.384852230549 0.001316 -0.890978 -0.454044
-0.710353374481 1.481829404831 -0.396542072296 0.001119 -0.987835 -0.155503
-0.730242073536 1.491404056549 -0.457250595093 0.001119 -0.987835 -0.155503
-0.721860766411 1.487301826477 -0.499054521322 0.001119 -0.987835 0.155503
-0.689740061760 1.443691968918 -0.603971838951 0.001384 -0.707106 0.707106
-0.675678670406 1.321865320206 -0.754486382008 0.707156 0.111188 -0.698261
-0.658954977989 1.217621326447 -0.720370650291 0.999995 0.002938 0.000979
-0.737747192383 1.262679338455 -0.765529096127 0.001119 -0.155503 -0.987835
-0.734093785286 1.207037448883 -0.756715118885 0.001119 -0.155503 -0.987835
-0.709053575993 1.144032597542 -0.736402034760 0.001316 -0.454044 -0.890978
-0.663495302200 1.125260949135 -0.710394203663 0.707885 -0.319115 -0.630131
-0.710897088051 1.023030281067 -0.642131090164 0.001384 -0.707106 -0.707106
-0.763541877270 1.004637002945 -0.606319069862 0.001316 -0.890978 -0.454044
-0.719878494740 1.077152848244 -0.696271955967 0.001384 -0.707106 -0.707106
-0.797063291073 1.124803662300 -0.726696133614 0.001316 -0.454044 -0.890978
-0.745555400848 1.359311342239 -0.751395642757 -0.001119 0.155503 -0.987835
-0.789078116417 1.371129512787 -0.745350599289 -0.001316 0.454044 -0.890978
-0.824546575546 1.456114411354 -0.588884234428 -0.933658 -0.319519 0.161834
-0.728456318378 1.562332749367 -0.433325707912 -0.001119 0.987835 0.155503
-0.810554444790 1.476416587830 -0.254935383797 -0.001384 0.707106 0.707106
-0.806877136230 1.413570404053 -0.206589192152 -0.001316 0.454044 0.890978
-0.703663766384 1.422933816910 -0.211252525449 -0.001316 0.454044 0.890978
-0.681473672390 1.365275382996 -0.264672458172 0.001316 -0.454044 -0.890978
-0.659446954727 1.458141088486 -0.323791384697 0.999995 0.002938 -0.000979
-0.659442305565 1.455860137939 -0.342390537262 0.999995 0.002938 -0.000979
-0.666362583637 1.450065612793 -0.684462785721 0.706049 0.502413 -0.499075
-0.760628044605 1.474983096123 -0.676896929741 -0.001384 0.707106 -0.707106
-0.810757696629 1.524439811707 -0.613172888756 -0.001316 0.890978 -0.454044
-0.659613788128 1.539693593979 -0.469767034054 0.999995 0.002938 0.000979
-0.659587264061 1.526721000671 -0.520890891552 0.999995 0.002938 0.000979
-0.724374711514 1.477203249931 -0.674750924110 -0.001384 0.707106 -0.707106
-0.780887603760 1.516878008842 -0.628133594990 -0.001316 0.890978 -0.454044
-0.781177878380 1.349268078804 -0.177321806550 -0.001119 0.155503 0.987835
-0.833005607128 1.287972092628 -0.713227927685 -0.933805 -0.056475 0.353296
-0.816125988960 1.145696163177 -0.275756776333 -0.001316 0.454044 -0.890978
-0.759250879288 1.089808702469 -0.329532265663 0.999995 0.002938 -0.000979
-0.786197662354 1.194749355316 -0.277830004692 -0.123819 0.451157 -0.883813
-0.797277569771 1.144939541817 -0.315927177668 -0.087563 0.988874 -0.120253
-0.794774413109 1.128620862961 -0.319317340851 -0.123651 0.701680 -0.701680
-0.818729579449 1.180038094521 -0.439975291491 -0.059331 -0.007286 0.998212
-0.781763672829 1.223857998848 -0.537290930748 0.999995 0.002938 0.000979
-0.781870126724 1.275923490524 -0.488946855068 0.999995 0.002938 0.000979
-0.779343783855 1.367805957794 -0.355969220400 0.999030 -0.030085 -0.032160
-0.782000839710 1.339826822281 -0.413438856602 0.999995 0.002938 0.000979
-0.781990170479 1.334602355957 -0.512724637985 0.999995 0.002938 0.000979
-0.774127721786 1.238483667374 -0.604969143867 -0.085257 -0.996101 -0.022663
-0.774017572403 1.328842282295 -0.681497931480 0.001119 -0.155503 0.987835
-0.814217567444 1.137409210205 -0.623184025288 -0.123651 0.701680 0.701680
-0.759174764156 1.052620053291 -0.465663075447 0.999995 0.002938 0.000979
-0.803171992302 1.111683845520 -0.595525145531 -0.123651 0.701680 0.701680
-0.823096632957 1.104719161987 -0.618758201599 -0.999995 -0.002938 0.000979
-0.792014896870 1.093700647354 -0.321690380573 -0.001384 0.707106 -0.707106
-0.779961287975 1.123222470284 -0.492366224527 -0.087587 -0.022708 -0.995898
-0.760012447834 1.462135553360 -0.549504101276 0.999995 0.002938 -0.000979
-0.773417532444 1.404546141624 -0.642946541309 0.001384 -0.707106 0.707106
-0.792894661427 1.487699866295 -0.434671938419 0.001119 -0.987835 -0.155503
-0.798179090023 1.470166921616 -0.373103022575 0.001316 -0.890978 -0.454044
-0.791299760342 1.379529953003 -0.272049993277 0.001316 -0.454044 -0.890978
-0.811729431152 1.258976459503 -0.261272668839 -0.121463 0.155816 -0.980290
-0.797235429287 1.326205492020 -0.271437764168 -0.121463 -0.155816 -0.980290
-0.780307531357 1.360983729362 -0.378822684288 0.999030 -0.030085 -0.032160
-0.791051506996 1.366125702858 -0.384693652391 -0.026753 0.702617 -0.711065
-0.790425360203 1.257278919220 -0.660725235939 -0.594724 0.769551 -0.232582
-0.808067381382 1.270231485367 -0.598765611649 -0.593297 -0.770820 -0.232024
-0.807760000229 1.346412658691 -0.650999367237 -0.121015 -0.451315 0.884121
-0.804149270058 1.387455105782 -0.567251145840 -0.026753 0.702617 0.711065
-0.821941137314 1.346486330032 -0.471443682909 -0.253831 0.955520 -0.150172
-0.771779656410 1.419498205185 -0.437395483255 -0.087587 0.022708 0.995898
-0.759967148304 1.439984321594 -0.362606883049 0.999995 0.002938 0.000979
-0.823872506618 1.484065055847 -0.460178166628 -0.999995 -0.002938 0.000979
-0.802939951420 1.443283796310 -0.481744885445 -0.978211 0.205128 -0.032014
-0.802994370461 1.244334578514 -0.291146963835 -0.977928 -0.034543 0.206068
-0.794050395489 1.241126537323 -0.380523651838 -0.253729 -0.152769 0.955135
-0.771775960922 1.272495031357 -0.325881958008 0.978384 -0.029576 -0.204668
-0.707339406013 1.128244519234 -0.456666857004 0.001119 -0.987835 0.155503
-0.705242037773 1.156977772713 -0.417473256588 0.999995 0.002938 0.000979
-0.738204360008 1.153085589409 -0.546379923820 0.001316 -0.890978 -0.454044
-0.736133813858 1.156618952751 -0.550297379494 0.001384 -0.707106 -0.707106
-0.705331504345 1.200743198395 -0.439749002457 0.999995 0.002938 0.000979
-0.705306231976 1.188365936279 -0.509892165661 0.999995 0.002938 0.000979
-0.755601525307 1.196492671967 -0.535124182701 -0.999995 -0.002938 0.000979
-0.755649209023 1.219816207886 -0.367333084345 -0.999995 -0.002938 0.000979
-0.755657076836 1.223678946495 -0.452495276928 -0.999995 -0.002938 0.000979
-0.705444097519 1.255774617195 -0.506643295288 0.999995 0.002938 0.000979
-0.705484688282 1.275613427162 -0.540998041630 0.999995 0.002938 0.000979
-0.705547690392 1.306418657303 -0.403890401125 0.999995 0.002938 0.000979
-0.755820274353 1.303426265717 -0.480104982853 -0.999995 -0.002938 0.000979
-0.755909025669 1.346834897995 -0.445940703154 -0.999995 -0.002938 0.000979
-0.755934596062 1.359333395958 -0.464619189501 -0.999995 -0.002938 0.000979
-0.755954205990 1.368930578232 -0.415565878153 -0.999995 -0.002938 0.000979
-0.705709099770 1.385315895081 -0.404084414244 0.999995 0.002938 0.000979
-0.718914866447 1.354763269424 -0.571727991104 -0.001384 0.707106 -0.707106
-0.755767881870 1.277810215950 -0.504605770111 -0.999995 -0.002938 0.000979
-0.705389499664 1.229081988335 -0.342882633209 0.999995 0.002938 0.000979
0.655903995037 -1.572443842888 -0.487098902464 -0.999995 -0.002938 0.000979
0.657374203205 -1.591869115829 -0.562309741974 -0.705527 -0.630919 -0.322758
0.655768334866 -1.506109952927 -0.674327671528 -0.999995 -0.002938 -0.000979
0.655839145184 -1.540734767914 -0.322753310204 -0.999995 -0.002938 0.000979
0.699902117252 -1.508123159409 -0.225118041039 0.001384 -0.707106 0.707106
0.801728725433 -1.555002927780 -0.272206008434 0.001384 -0.707106 0.707106
0.741804361343 -1.582426428795 -0.310348927975 0.001316 -0.890978 0.454044
0.776780247688 -1.599103450775 -0.343219876289 0.001316 -0.890978 0.454044
0.709861218929 -1.624794602394 -0.440436989069 0.001119 -0.987835 0.155503
0.762013375759 -1.626941442490 -0.475631773472 0.001119 -0.987835 -0.155503
0.718191087246 -1.611884355545 -0.562228024006 0.001316 -0.890978 -0.454044
0.802658915520 -1.596519827843 -0.592043459415 0.001316 -0.890978 -0.454044
0.779366254807 -1.556806087494 -0.656333148479 0.001384 -0.707106 -0.707106
0.704114258289 -1.437939763069 -0.742630183697 0.001316 -0.454044 -0.890978
0.655626416206 -1.436732292175 -0.721474051476 -0.999995 -0.002938 0.000979
0.725586593151 -1.541491985321 -0.537804901600 -0.001316 0.890978 0.454044
0.731509268284 -1.553582668304 -0.467466503382 -0.001119 0.987835 0.155503
0.675593674183 -1.521186590195 -0.352439552546 -0.001316 0.890978 -0.454044
0.695127606392 -1.461153268814 -0.282499700785 -0.001384 0.707106 -0.707106
0.655721545219 -1.483262777328 -0.244064733386 -0.999995 -0.002938 -0.000979
0.656001448631 -1.428706288338 -0.204175531864 -0.707150 -0.322020 0.629477
0.712859988213 -1.475870609283 -0.207002103329 0.001316 -0.454044 0.890978
0.815325438976 -1.444197893143 -0.196560382843 0.707885 -0.319115 0.630131
0.829861521721 -1.531370043755 -0.280660152435 0.999995 0.002938 0.000979
0.759848773479 -1.220368266106 -0.744117200375 -0.001316 0.454044 -0.890978
0.691312491894 -1.164736747742 -0.715700268745 -0.001316 0.454044 -0.890978
0.661942064762 -1.336230397224 -0.751810431480 -0.707156 -0.111188 -0.698261
0.722437918186 -1.371078968048 -0.759247839451 0.001119 -0.155503 -0.987835
0.728225350380 -1.393825292587 -0.755643308163 0.001119 -0.155503 -0.987835
0.736255049706 -1.454005956650 -0.651589155197 -0.001316 0.454044 0.890978
0.820796489716 -1.460277080536 -0.650508105755 0.934059 0.164671 0.316888
0.821212768555 -1.427002191544 -0.668885350227 0.934059 0.164671 0.316888
0.829967260361 -1.583076477051 -0.513675689697 0.999995 0.002938 0.000979
0.829104721546 -1.161365866661 -0.662992358208 0.999995 0.002938 0.000979
0.707753837109 -1.117718935013 -0.675516009331 -0.001384 0.707106 -0.707106
0.655151367188 -1.204506993294 -0.705224394798 -0.999995 -0.002938 -0.000979
0.752326726913 -1.390656828880 -0.248873531818 -0.001119 0.155503 -0.987835
0.658401727676 -1.334617972374 -0.181810691953 -0.707156 -0.111188 0.698261
0.750025033951 -1.419289827347 -0.178693488240 0.001119 -0.155503 0.987835
0.829674363136 -1.439857244492 -0.240728422999 0.999995 0.002938 0.000979
0.700161695480 -1.304932951927 -0.242510169744 0.001119 -0.155503 -0.987835
0.655248761177 -1.252107977867 -0.236439988017 -0.999995 -0.002938 -0.000979
0.673004984856 -1.185855150223 -0.205478191376 -0.707885 0.319115 0.630131
0.734594583511 -1.194967508316 -0.199147954583 -0.001316 0.454044 0.890978
0.679924607277 -1.192548155785 -0.284369736910 0.001384 -0.707106 -0.707106
0.654995083809 -1.128090858459 -0.296814680099 -0.999995 -0.002938 -0.000979
0.674108684063 -1.115772485733 -0.257077574730 -0.708898 0.498730 0.498730
0.731773257256 -1.150287747383 -0.222162798047 -0.001384 0.707106 0.707106
0.747856378555 -1.125808954239 -0.561219990253 0.001316 -0.890978 0.454044
0.705764949322 -1.166863918304 -0.620295703411 0.001384 -0.707106 0.707106
0.716256618500 -1.169889926910 -0.623343110085 0.001384 -0.707106 0.707106
0.730437695980 -1.248878598213 -0.675791859627 0.001316 -0.454044 0.890978
0.668541669846 -1.312627077103 -0.688994824886 0.001119 -0.155503 0.987835
0.827270388603 -1.140852332115 -0.623699903488 0.934576 -0.251563 0.251563
0.792060852051 -1.060777783394 -0.596313178539 -0.001316 0.890978 -0.454044
0.713907420635 -1.059189915657 -0.592883050442 -0.001316 0.890978 -0.454044
0.654899954796 -1.081601023674 -0.363510578871 -0.999995 -0.002938 0.000979
0.666995167732 -1.062884569168 -0.346220016479 -0.707150 0.629477 0.322020
0.729754805565 -1.056274175644 -0.343072295189 -0.001316 0.890978 0.454044
0.828973650932 -1.097329974174 -0.323993295431 0.999995 0.002938 0.000979
0.727984607220 -1.105994820595 -0.436447829008 0.001119 -0.987835 -0.155503
0.709549188614 -1.112557649612 -0.395249128342 0.001119 -0.987835 -0.155503
0.671518266201 -1.105356812477 -0.489091992378 0.001119 -0.987835 0.155503
0.821586906910 -1.103682160378 -0.518438935280 0.935001 -0.350134 0.056389
0.828900754452 -1.061654448509 -0.518455982208 0.999995 0.002938 0.000979
0.819371998310 -1.105778217316 -0.435797750950 0.935001 -0.350134 -0.056389
0.828886806965 -1.054845213890 -0.449032574892 0.999995 0.002938 0.000979
0.810596466064 -1.039998173714 -0.543067991734 0.705693 0.699775 -0.110958
0.798553526402 -1.039485931396 -0.546568870544 -0.001119 0.987835 -0.155503
0.824781179428 -1.529940128326 -0.267357766628 0.708898 -0.498730 0.498730
0.760182142258 -1.440988898277 -0.658196747303 -0.001316 0.454044 0.890978
0.820221185684 -1.545361399651 -0.434846937656 0.999995 0.002938 0.000979
0.773336946964 -1.392946481705 -0.654316961765 0.121015 0.451315 0.884121
0.812552034855 -1.544321775436 -0.524890780449 -0.001119 0.987835 0.155503
0.770908772945 -1.445797324181 -0.274561017752 -0.001316 0.454044 -0.890978
0.756223618984 -1.456236243248 -0.297893732786 -0.999995 -0.002938 0.000979
0.765666842461 -1.523958563805 -0.443914443254 0.119044 0.980579 -0.155862
0.796123802662 -1.471889495850 -0.439282894135 0.059331 -0.007286 0.998212
0.795581579208 -1.488310098648 -0.460076183081 0.593724 -0.229075 -0.771373
0.789686083794 -1.520637273788 -0.525919616222 0.119044 0.980579 0.155862
0.788623809814 -1.515304565430 -0.537388563156 0.120711 0.884741 0.450181
0.809862852097 -1.489825844765 -0.589487791061 0.120715 0.701936 0.701936
0.802879214287 -1.456601023674 -0.578951239586 0.985554 0.120949 0.118554
0.788177192211 -1.443885087967 -0.601241827011 0.026700 0.706855 -0.706855
0.778334617615 -1.393827080727 -0.442469388247 -0.999995 -0.002938 0.000979
0.820161581039 -1.516246318817 -0.367185920477 0.999995 0.002938 0.000979
0.806709766388 -1.523387193680 -0.408587366343 0.119044 0.980579 -0.155862
0.801081120968 -1.509506225586 -0.378202497959 0.120711 0.884741 -0.450181
0.765311002731 -1.476022362709 -0.338408738375 -0.169270 0.696903 -0.696903
0.755932331085 -1.313822031021 -0.251033425331 -0.999995 -0.002938 -0.000979
0.771031081676 -1.355796098709 -0.342044711113 0.089926 -0.995688 0.022752
0.778245568275 -1.350313663483 -0.487510025501 -0.999995 -0.002938 0.000979
0.778222441673 -1.339013099670 -0.454538017511 -0.999995 -0.002938 0.000979
0.778118193150 -1.288015365601 -0.450611412525 -0.999995 -0.002938 0.000979
0.819399058819 -1.143468379974 -0.347091495991 0.999995 0.002938 0.000979
0.801565170288 -1.155924081802 -0.357612967491 0.123819 -0.883813 -0.451157
0.799093246460 -1.133688926697 -0.401918530464 0.123819 -0.883813 -0.451157
0.813876688480 -1.388491511345 -0.661221921444 0.121463 0.155816 0.980290
0.758052527905 -1.343454003334 -0.651301145554 -0.978384 0.029576 0.204668
0.755625963211 -1.164053797722 -0.579417109489 -0.999995 -0.002938 -0.000979
0.757737457752 -1.307512521744 -0.651776134968 -0.978507 -0.034480 0.203311
0.787928342819 -1.300927042961 -0.589683175087 0.085257 0.996101 -0.022663
0.778005540371 -1.103597760201 -0.479361325502 0.001119 -0.987835 0.155503
0.780698001385 -1.109061121941 -0.416406005621 0.001119 -0.987835 -0.155503
0.786849617958 -1.190187573433 -0.286511629820 0.001384 -0.707106 -0.707106
0.816042780876 -1.131194353104 -0.526620209217 0.124178 -0.979897 0.156144
0.801687061787 -1.166392445564 -0.440826535225 0.977523 0.208364 0.032148
0.777786195278 -1.188701510429 -0.346328973770 0.023891 0.704089 -0.709710
0.792574942112 -1.254933953285 -0.376930058002 0.986245 -0.115678 -0.118063
0.762488543987 -1.210294961929 -0.305034965277 0.087563 -0.988874 -0.120253
0.781733274460 -1.150026202202 -0.555662810802 0.123819 -0.883813 0.451157
0.801478564739 -1.222545742989 -0.662448704243 0.001316 -0.454044 0.890978
0.784383893013 -1.252813935280 -0.677853226662 0.001316 -0.454044 0.890978
0.791887402534 -1.511817336082 -0.595778405666 -0.001316 0.890978 0.454044
0.805931925774 -1.482629418373 -0.626094222069 -0.001384 0.707106 0.707106
0.722995698452 -1.448284626007 -0.532107114792 0.001316 -0.890978 -0.454044
0.703862726688 -1.437836050987 -0.380313098431 0.001384 -0.707106 0.707106
0.752275526524 -1.416882991791 -0.553629696369 0.999995 0.002938 0.000979
0.701934456825 -1.386383056641 -0.541007101536 -0.999995 -0.002938 0.000979
0.701943278313 -1.390707850456 -0.393582552671 -0.999995 -0.002938 0.000979
0.721853315830 -1.403301239014 -0.348972618580 0.001316 -0.454044 0.890978
0.701817333698 -1.329109191895 -0.560158789158 -0.999995 -0.002938 0.000979
0.701894462109 -1.366836071014 -0.465744942427 -0.999995 -0.002938 0.000979
0.752051293850 -1.307243704796 -0.363116562366 0.999995 0.002938 0.000979
0.752067446709 -1.315161347389 -0.566768050194 0.999995 0.002938 0.000979
0.701787889004 -1.314705610275 -0.546498060226 -0.999995 -0.002938 0.000979
0.701765120029 -1.303581476212 -0.340578675270 -0.999995 -0.002938 0.000979
0.751966238022 -1.265683293343 -0.472127795219 0.999995 0.002938 0.000979
0.729309737682 -1.198870301247 -0.414397656918 -0.001316 0.890978 0.454044
0.701574683189 -1.210474610329 -0.519705891609 -0.999995 -0.002938 0.000979
0.650635182858 1.003432750702 -0.401360124350 -0.999995 -0.002938 0.000979
0.650587797165 1.026614904404 -0.470878481865 -0.999995 -0.002938 0.000979
0.654808223248 1.031079530716 -0.619242489338 -0.705527 -0.630919 -0.322758
0.650484681129 1.077029228210 -0.314249932766 -0.999995 -0.002938 0.000979
0.658915162086 1.058880090714 -0.270595401525 -0.706049 -0.502413 0.499075
0.748597204685 1.083315253258 -0.230865791440 0.001384 -0.707106 0.707106
0.672519385815 0.978277146816 -0.402165710926 0.001119 -0.987835 0.155503
0.760968327522 0.970068573952 -0.455134451389 0.001119 -0.987835 0.155503
0.678066670895 0.978947460651 -0.532291352749 0.001119 -0.987835 -0.155503
0.760822176933 0.978457033634 -0.528126001358 0.001119 -0.987835 -0.155503
0.675820767879 1.028279781342 -0.644544124603 0.001384 -0.707106 -0.707106
0.678611755371 1.122616529465 -0.295782536268 -0.001384 0.707106 -0.707106
0.650393962860 1.121362566948 -0.279707521200 -0.999995 -0.002938 0.000979
0.734923958778 1.093699336052 -0.221045508981 0.001316 -0.454044 0.890978
0.718347072601 1.162593841553 -0.185924813151 0.001316 -0.454044 0.890978
0.824634075165 1.024270296097 -0.407722115517 0.999995 0.002938 -0.000979
0.816293716431 1.406138896942 -0.715966105461 0.707150 0.322020 -0.629477
0.708247125149 1.364687561989 -0.750193476677 -0.001316 0.454044 -0.890978
0.652365803719 1.228283882141 -0.742269933224 -0.707156 -0.111188 -0.698261
0.684162080288 1.233149766922 -0.760391473770 0.001119 -0.155503 -0.987835
0.769545078278 1.188599944115 -0.753307819366 0.001119 -0.155503 -0.987835
0.691172063351 1.280404806137 -0.764358639717 -0.001119 0.155503 -0.987835
0.688721358776 1.359868407249 -0.751772046089 -0.001119 0.155503 -0.987835
0.650323212147 1.155964732170 -0.679396748543 -0.999995 -0.002938 -0.000979
0.667746007442 1.140528798103 -0.650360345840 -0.001316 0.454044 0.890978
0.823789417744 1.026422023773 -0.424095898867 0.932937 0.355592 -0.056422
0.815279901028 1.120144605637 -0.633654296398 0.933552 0.254861 0.252045
0.821843028069 1.130800127983 -0.666095435619 0.934059 0.164671 0.316888
0.823997080326 1.335681557655 -0.707294881344 0.999995 0.002938 -0.000979
0.824229061604 1.222276926041 -0.711019039154 0.999995 0.002938 0.000979
0.824611902237 1.035103321075 -0.602853298187 0.999995 0.002938 0.000979
0.693461179733 1.473106741905 -0.681747496128 -0.001384 0.707106 -0.707106
0.696897506714 1.247539997101 -0.687952220440 -0.001119 0.155503 0.987835
0.715757727623 1.238817334175 -0.243732005358 -0.001119 0.155503 -0.987835
0.650180637836 1.225672841072 -0.198206827044 -0.999995 -0.002938 0.000979
0.710869133472 1.246713042259 -0.167765572667 0.001119 -0.155503 0.987835
0.824135303497 1.135681629181 -0.254950493574 0.934059 0.164671 -0.316888
0.820955157280 1.069773316383 -0.329962581396 0.933658 0.319519 -0.161834
0.649982929230 1.322327375412 -0.212211877108 -0.999995 -0.002938 0.000979
0.666477680206 1.285624146461 -0.169727236032 -0.707402 0.107809 0.698541
0.649867475033 1.378751277924 -0.223308816552 -0.999995 -0.002938 0.000979
0.713200628757 1.425898313522 -0.211286276579 -0.001316 0.454044 0.890978
0.813038229942 1.387674570084 -0.201229795814 0.707150 0.322020 0.629477
0.823881328106 1.392281174660 -0.241024896502 0.999995 0.002938 0.000979
0.696380734444 1.422526359558 -0.302323877811 0.001384 -0.707106 -0.707106
0.649771690369 1.425577163696 -0.281504511833 -0.999995 -0.002938 0.000979
0.802543878555 1.464982748032 -0.240201994777 -0.001384 0.707106 0.707106
0.701565265656 1.484509587288 -0.395231336355 0.001316 -0.890978 -0.454044
0.670088887215 1.476573944092 -0.379783272743 0.001316 -0.890978 -0.454044
0.674936830997 1.415167093277 -0.635287940502 0.001384 -0.707106 0.707106
0.749568521976 1.283319354057 -0.689201593399 0.001119 -0.155503 0.987835
0.696724057198 1.275910615921 -0.690357923508 0.001119 -0.155503 0.987835
0.716325819492 1.555488705635 -0.558366358280 -0.001316 0.890978 -0.454044
0.649617552757 1.500949621201 -0.618745326996 -0.999995 -0.002938 0.000979
0.695441484451 1.544641017914 -0.350724428892 -0.001316 0.890978 0.454044
0.774901747704 1.516496896744 -0.295169562101 -0.001316 0.890978 0.454044
0.812425673008 1.539207100868 -0.357614010572 0.705527 0.630919 0.322758
0.823575794697 1.541665911674 -0.483149021864 0.999995 0.002938 0.000979
0.793020248413 1.557747721672 -0.545568287373 -0.001119 0.987835 -0.155503
0.687637388706 1.558811664581 -0.392806380987 -0.001119 0.987835 0.155503
0.745440304279 1.557580351830 -0.384285748005 -0.001119 0.987835 0.155503
0.814742386341 1.133158445358 -0.641885161400 0.999995 0.002938 0.000979
0.785250246525 1.174017906189 -0.641324222088 0.121015 0.451315 0.884121
0.750858128071 1.166911602020 -0.278708338737 -0.999995 -0.002938 -0.000979
0.787900090218 1.176416039467 -0.492096573114 0.087587 -0.022708 -0.995898
0.786770164967 1.103104352951 -0.461084693670 0.593724 -0.229075 -0.771373
0.764916360378 1.138811469078 -0.469733148813 -0.978785 0.202385 0.031955
0.763031780720 1.103793978691 -0.575213551521 0.120711 0.884741 0.450181
0.752337753773 1.137046694756 -0.609737217426 -0.169270 0.696903 0.696903
0.781435191631 1.208406329155 -0.545772910118 0.080087 0.714955 -0.694569
0.784321606159 1.207658767700 -0.392794936895 0.985554 0.120949 -0.118554
0.814898908138 1.056653976440 -0.405017852783 0.999995 0.002938 -0.000979
0.789987206459 1.075961112976 -0.403054088354 0.119044 0.980579 -0.155862
0.790676593781 1.149305105209 -0.305442094803 0.082734 0.989318 -0.120023
0.750682413578 1.252807021141 -0.256413429976 -0.999995 -0.002938 0.000979
0.804495334625 1.204666852951 -0.249169647694 -0.001119 0.155503 -0.987835
0.772985160351 1.221475124359 -0.461109876633 -0.999995 -0.002938 0.000979
0.782711327076 1.256802439690 -0.377901315689 0.253831 -0.150172 0.955520
0.782046735287 1.278082847595 -0.377086609602 0.253729 0.152769 0.955135
0.772948741913 1.239267230034 -0.503907382488 -0.999995 -0.002938 0.000979
0.772782206535 1.320710062981 -0.405393898487 -0.999995 -0.002938 0.000979
0.772766888142 1.328187465668 -0.423792421818 -0.999995 -0.002938 0.000979
0.761884391308 1.391651630402 -0.308032661676 0.123651 -0.701680 -0.701680
0.814297735691 1.350562810898 -0.274236142635 0.999995 0.002938 0.000979
0.751391947269 1.345924496651 -0.283918708563 0.123819 -0.451157 -0.883813
0.764169335365 1.325254321098 -0.273751258850 0.121463 -0.155816 -0.980290
0.814112186432 1.441274642944 -0.339732021093 0.999995 0.002938 -0.000979
0.783591866493 1.456712007523 -0.391621917486 0.123819 -0.883813 -0.451157
0.751324594021 1.280541777611 -0.689642131329 0.001119 -0.155503 0.987835
0.803179085255 1.243661284447 -0.546222805977 0.089926 -0.995688 -0.022752
0.772839426994 1.316258072853 -0.659049570560 0.121463 -0.155816 0.980290
0.750215649605 1.481031537056 -0.462823122740 -0.999995 -0.002938 0.000979
0.750589013100 1.298478603363 -0.671310842037 -0.999995 -0.002938 0.000979
0.785031437874 1.445100545883 -0.605579793453 0.001384 -0.707106 0.707106
0.807200133801 1.458138465881 -0.587245106697 0.001316 -0.890978 0.454044
0.767413675785 1.490612626076 -0.497384518385 0.001119 -0.987835 0.155503
0.764074265957 1.493770718575 -0.452894598246 0.001119 -0.987835 -0.155503
0.762635588646 1.487041234970 -0.410425275564 0.001119 -0.987835 -0.155503
0.789400398731 1.450626373291 -0.490768343210 0.059331 0.007286 -0.998212
0.786951303482 1.471345067024 -0.467375755310 0.641801 -0.757414 0.120060
0.789156019688 1.348890900612 -0.367866456509 0.986245 -0.115678 -0.118063
0.771722674370 1.342976331711 -0.550721526146 -0.998887 -0.034373 0.032289
0.773721098900 1.397679328918 -0.573410987854 0.023891 0.704089 0.709710
0.777906715870 1.399661898613 -0.605649173260 -0.166305 -0.697260 0.697260
0.771542966366 1.064112305641 -0.554337143898 -0.001316 0.890978 0.454044
0.720376133919 1.142999649048 -0.520729780197 0.001316 -0.890978 -0.454044
0.696715354919 1.165197849274 -0.499215632677 -0.999995 -0.002938 0.000979
0.704337298870 1.157657504082 -0.381907135248 0.001384 -0.707106 0.707106
0.746992409229 1.166013479233 -0.413443684578 0.999995 0.002938 0.000979
0.746962010860 1.180882453918 -0.565390884876 0.999995 0.002938 0.000979
0.696640908718 1.201599955559 -0.514478504658 -0.999995 -0.002938 0.000979
0.746922850609 1.200029730797 -0.360388100147 0.999995 0.002938 0.000979
0.746813535690 1.253462672234 -0.337789565325 0.999995 0.002938 0.000979
0.746692895889 1.312409162521 -0.529120445251 0.999995 0.002938 0.000979
0.746776342392 1.271631121635 -0.380549371243 0.999995 0.002938 0.000979
0.696489214897 1.275761127472 -0.389296233654 -0.999995 -0.002938 0.000979
0.746648192406 1.334292173386 -0.511160075665 0.999995 0.002938 0.000979
0.746464490891 1.402187585831 -0.422338455915 -0.001119 0.987835 0.155503
0.696304440498 1.366094708443 -0.474789947271 -0.999995 -0.002938 0.000979
0.559745311737 -1.987153530121 -0.137785151601 0.084139 -0.426213 0.900702
0.653348922729 -1.980665922165 -0.144703343511 0.178046 -0.406755 0.896019
0.672836065292 -1.559850454330 0.135994687676 0.365343 -0.371561 0.853503
0.703815102577 -1.425253152847 0.167152345181 0.460585 -0.269573 0.845690
0.781033158302 -1.429595112801 0.076633796096 0.777394 -0.119941 0.617473
0.741496741772 -1.460226774216 0.116622261703 0.744080 -0.215923 0.632235
0.744127392769 -1.525794863701 0.091256253421 0.744577 -0.212958 0.632657
0.627896308899 -1.703558802605 0.093196518719 0.228128 -0.387082 0.893379
0.616534233093 -1.666996955872 0.110803946853 0.253012 -0.313735 0.915181
0.618000566959 -1.564691185951 0.151568740606 0.282730 -0.357527 0.890077
0.663157820702 -1.526087164879 0.152692586184 0.282730 -0.357527 0.890077
0.639620482922 -1.459587335587 0.186375334859 0.411512 -0.289129 0.864328
0.600654900074 -1.414124131203 0.212629243731 0.258998 -0.284755 0.922949
0.668069064617 -0.750819385052 0.460852265358 0.736902 -0.254050 0.626446
0.658669650555 -0.588503062725 0.522752404213 0.889418 -0.044810 0.454893
0.735437929630 -0.937301576138 0.297437876463 0.960840 -0.043731 0.273633
0.758363783360 -1.081855535507 0.188478201628 0.916355 -0.144099 0.373537
0.756084084511 -0.946536958218 0.214048132300 0.973554 -0.008281 0.228306
0.765911161900 -1.039604902267 0.168712019920 0.973554 -0.008281 0.228306
0.786157667637 -0.952315688133 0.117472201586 0.919014 -0.016898 0.393863
0.765061616898 -1.221891045570 0.136789277196 0.813690 -0.087850 0.574623
0.793534934521 -1.278272151947 0.083971180022 0.869496 -0.034125 0.492760
0.800739943981 -1.212933659554 0.072338730097 0.919404 -0.030166 0.392157
0.791013598442 -1.473447561264 0.047305606306 0.827079 -0.224733 0.515204
0.789616703987 -1.601484060287 -0.024912040681 0.914609 -0.271049 0.300038
0.550780117512 -1.716221570969 0.105287492275 0.176821 -0.395332 0.901358
0.520975828171 -1.566703557968 0.172304689884 0.171507 -0.367109 0.914230
0.512260735035 -1.584015607834 0.166969120502 0.171507 -0.367109 0.914230
0.553993165493 -1.547066330910 0.173581779003 0.208911 -0.352988 0.912006
0.496861428022 -1.409807920456 0.236533418298 0.174802 -0.331424 0.927148
0.493690669537 -1.392120480537 0.238172113895 0.034578 -0.040865 0.998566
0.636729896069 -0.480991154909 0.582010447979 0.835393 -0.130210 0.534008
0.580603599548 -0.460687786341 0.636963844299 0.350416 -0.281824 0.893188
0.547050476074 -0.263828188181 0.698672056198 0.384385 -0.170044 0.907377
0.590590417385 -0.334426134825 0.663760423660 0.639025 -0.129592 0.758190
0.545513391495 -0.068969801068 0.723620533943 0.292924 -0.049455 0.954856
0.563352465630 0.084597989917 0.721784234047 0.312519 -0.001235 0.949911
0.538412034512 0.218597486615 0.730566918850 0.337207 -0.003761 0.941423
0.566372334957 0.492116838694 0.715149462223 0.397170 0.035627 0.917053
0.527820765972 0.773782491684 0.715227127075 0.372944 0.051395 0.926429
0.548677742481 0.964422762394 0.694620847702 0.413375 0.055206 0.908886
0.532480657101 0.946171283722 0.703242063522 0.426629 0.049796 0.903055
0.543704211712 1.189588546753 0.676412761211 0.553077 0.108873 0.825986
0.525339365005 1.213778972626 0.687804937363 0.603401 0.079205 0.793494
0.553841710091 1.321425795555 0.655559599400 0.603401 0.079205 0.793494
0.573966920376 1.374381542206 0.635581493378 0.586047 0.075943 0.806710
0.595826804638 1.447413325310 0.600094318390 0.862019 0.023078 0.506351
0.589937806129 1.302074193954 0.618277370930 0.830427 0.066491 0.553146
0.594681143761 1.196757912636 0.622967243195 0.826064 0.057895 0.560594
0.596042573452 1.033994436264 0.635668635368 0.840695 0.046008 0.539551
0.576057136059 0.871904969215 0.680998325348 0.840695 0.046008 0.539551
0.567037999630 0.617957413197 0.706961274147 0.724705 0.041128 0.687831
0.586565256119 0.305632382631 0.698511481285 0.754181 0.023787 0.656236
0.570999860764 0.061470977962 0.716587007046 0.732842 0.001380 0.680398
0.581848919392 0.046583436430 0.703312635422 0.781483 -0.012448 0.623803
0.502347409725 0.058433517814 0.739403486252 0.208650 -0.005828 0.977973
0.505791723728 0.299543231726 0.739986717701 0.208650 -0.005828 0.977973
0.489605545998 0.626056909561 0.732279658318 0.209328 0.052029 0.976460
0.509254395962 0.633875668049 0.727645277977 0.209328 0.052029 0.976460
0.496207505465 1.054862856865 0.707495629787 0.209328 0.052029 0.976460
0.498533338308 1.276452183723 0.688959062099 0.208186 0.093497 0.973610
0.498518764973 1.411550521851 0.676016747952 0.245433 0.090289 0.965200
0.596338629723 1.649406552315 0.536620259285 0.868370 0.259147 0.422819
0.612891077995 1.572164416313 0.549810469151 0.886783 0.229468 0.401199
0.631940901279 1.545276284218 0.517045378685 0.905484 0.052472 0.421124
0.524564445019 1.922516345978 0.188500493765 0.202792 0.667203 0.716740
0.686924219131 1.624179959297 0.356510549784 0.917915 0.167791 0.359552
0.688701629639 1.602333307266 0.362117886543 0.917915 0.167791 0.359552
0.708984255791 1.463118195534 0.329285532236 0.922813 -0.040809 0.383079
0.667316257954 1.503326058388 0.438435941935 0.940919 -0.001250 0.338631
0.639585793018 1.458878517151 0.510747492313 0.933019 -0.001263 0.359825
0.459797710180 1.344629764557 0.689324319363 0.123355 0.092810 0.988013
0.448699921370 1.208824872971 0.703435838223 0.123355 0.092810 0.988013
0.380130887032 1.473002433777 0.688819229603 0.146211 0.086776 0.985440
0.442492872477 1.557355880737 0.672172427177 0.146211 0.086776 0.985440
-0.374209403992 1.410650849342 0.695955634117 -0.045086 0.086874 0.995199
-0.349702209234 1.472149252892 0.691728651524 -0.045086 0.086874 0.995199
-0.277885973454 1.172422289848 0.721019566059 -0.045086 0.086874 0.995199
-0.374162048101 1.243138194084 0.710504472256 -0.045086 0.086874 0.995199
-0.255111455917 1.268075823784 0.713747859001 -0.045086 0.086874 0.995199
-0.289845496416 1.433943033218 0.697768628597 -0.047394 0.084868 0.995264
-0.206190019846 1.405669569969 0.704144954681 -0.047394 0.084868 0.995264
-0.205143243074 1.300069093704 0.713274598122 -0.047394 0.084868 0.995264
-0.169741511345 1.556997418404 0.692851483822 -0.047394 0.084868 0.995264
-0.220285370946 1.303847908974 0.712235569954 -0.047394 0.084868 0.995264
-0.278945147991 1.634503960609 0.681081354618 -0.047298 0.082497 0.995468
-0.255927413702 1.665000081062 0.679323792458 -0.032307 0.116974 0.992609
-0.292566061020 1.703981041908 0.672921180725 -0.036872 0.201012 0.978895
-0.161289557815 1.717163085938 0.675415337086 -0.046261 0.188601 0.980964
-0.143820390105 1.809300780296 0.652294099331 -0.058873 0.938049 0.341465
-0.051191553473 1.759868383408 0.668864727020 -0.012671 0.185456 0.982571
-0.077699370682 1.708796858788 0.678103744984 -0.009930 0.126880 0.991868
-0.110926203430 1.646774649620 0.685362637043 -0.018733 0.117908 0.992848
-0.077348567545 1.476230144501 0.700784862041 -0.018159 0.080114 0.996620
-0.058735426515 1.543716073036 0.695691287518 -0.018159 0.080114 0.996620
-0.027879836038 1.504563093185 0.699371099472 -0.018159 0.080114 0.996620
-0.038222510368 1.392087101936 0.708220183849 -0.018159 0.080114 0.996620
-0.102291248739 1.437997579575 0.703480482101 -0.003176 0.085761 0.996311
-0.150743633509 1.323329210281 0.713180601597 -0.003176 0.085761 0.996311
-0.098723068833 1.307752251625 0.714654624462 -0.003176 0.085761 0.996311
-0.072946839035 -0.390111893415 0.716874837875 -0.016013 -0.289457 0.957057
-0.291399270296 -0.385273247957 0.709680676460 -0.056577 -0.267799 0.961812
0.265293926001 1.329121112823 0.707661211491 0.045086 0.086874 0.995199
0.330149561167 1.457837700844 0.693536221981 0.045086 0.086874 0.995199
0.332673728466 1.208227992058 0.715144395828 0.045086 0.086874 0.995199
0.310728341341 1.330254316330 0.705514431000 0.045086 0.086874 0.995199
0.330918341875 1.481920719147 0.691405773163 0.045086 0.086874 0.995199
0.205522119999 1.322305798531 0.710985243320 0.047394 0.084868 0.995264
0.260199278593 1.451134324074 0.697323620319 0.047394 0.084868 0.995264
0.230024456978 1.597163438797 0.686151385307 0.047394 0.084868 0.995264
0.222655743361 1.315874218941 0.710737466812 0.047394 0.084868 0.995264
0.157984256744 1.428060531616 0.704096496105 0.047394 0.084868 0.995264
0.411126315594 1.730071783066 0.656176805496 0.100048 0.226690 0.968815
0.377538800240 1.738599896431 0.657651484013 0.100235 0.229653 0.968097
-0.457375615835 1.159544467926 0.707866072655 -0.123355 0.092810 0.988013
-0.459558457136 1.474497914314 0.678215324879 -0.123355 0.092810 0.988013
-0.485201925039 1.142460465431 0.706001937389 -0.123355 0.092810 0.988013
-0.394748836756 1.319508910179 0.701341032982 -0.146211 0.086776 0.985440
-0.380666553974 1.319927096367 0.703397452831 -0.146211 0.086776 0.985440
-0.405316382647 1.737845182419 0.655692100525 -0.100235 0.229653 0.968097
-0.385771870613 1.766239881516 0.627433300018 -0.259783 0.912869 0.314933
0.078490957618 1.683816909790 0.681244790554 0.009927 0.129050 0.991588
0.257266670465 1.678480625153 0.677473902702 0.030081 0.116982 0.992678
0.249262228608 1.714634656906 0.672208786011 0.036872 0.201012 0.978895
0.024327296764 1.592745184898 0.692184686661 0.016023 0.080117 0.996657
0.034978192300 1.592635393143 0.692011654377 0.016023 0.080117 0.996657
0.106679044664 1.496476769447 0.698513686657 0.016023 0.080117 0.996657
0.108376242220 1.182279229164 0.725400924683 0.003176 0.085761 0.996311
0.063491143286 1.265033364296 0.718410372734 0.003176 0.085761 0.996311
0.129921630025 1.247632384300 0.719748318195 0.003176 0.085761 0.996311
-0.491800874472 0.712514042854 0.728424251080 -0.209328 0.052029 0.976460
-0.499404996634 0.461370915174 0.740260899067 -0.209328 0.052029 0.976460
-0.531505227089 0.594636857510 0.725957810879 -0.372993 0.048766 0.926552
-0.573021411896 0.883391261101 0.691688776016 -0.412425 0.052393 0.909484
-0.572302222252 0.495384335518 0.714816987514 -0.412425 0.052393 0.909484
-0.565735578537 1.228425741196 0.662180542946 -0.555260 0.105833 0.824916
-0.549409151077 1.221645116806 0.675192713737 -0.603537 0.076342 0.793672
-0.564730823040 1.412778615952 0.645436227322 -0.584819 0.072924 0.807879
-0.538314878941 1.627575397491 0.645147383213 -0.587404 0.076118 0.805706
-0.466083407402 1.732973098755 0.637853503227 -0.444660 0.837833 0.316723
-0.597633481026 1.077299475670 0.641957104206 -0.840353 0.043059 0.540326
-0.583503544331 1.903704047203 0.190167382360 -0.226478 0.641947 0.732538
-0.441706717014 1.964816927910 0.174221262336 -0.206643 0.666539 0.716257
-0.414303481579 2.009236574173 0.126082360744 -0.122959 0.783681 0.608872
-0.474593460560 1.894908189774 0.228159919381 -0.162578 0.645754 0.746036
0.262483775616 1.791255712509 0.643935739994 0.168081 0.932086 0.320882
-0.691833257675 1.597304701805 0.381494373083 -0.919209 0.161882 0.358956
-0.737772047520 1.560183882713 0.280965209007 -0.919209 0.161882 0.358956
-0.721287310123 1.642928123474 0.287971466780 -0.911811 0.150794 0.381918
-0.737654328346 1.593906998634 0.265571236610 -0.935945 0.166788 0.310144
-0.755720555782 1.559707045555 0.229420498013 -0.936742 0.166931 0.307649
-0.742606699467 1.673692464828 0.207472860813 -0.918161 0.156073 0.364171
-0.767599344254 1.708830714226 0.125857591629 -0.928290 0.156796 0.337182
-0.782437086105 1.710607051849 0.047184761614 -0.978476 0.171511 0.114752
-0.788900554180 1.696984648705 0.017399758101 -0.980434 0.096217 0.171728
-0.770585060120 1.790988564491 0.027978939936 -0.964507 0.224576 0.138899
-0.762948751450 1.829651594162 0.004577033222 -0.956866 0.280527 0.075576
-0.757920205593 1.874560356140 -0.317185640335 -0.972215 0.225495 -0.062843
-0.743869602680 1.879549503326 -0.387628704309 -0.918433 0.278269 -0.281153
-0.729906439781 1.852856874466 -0.449579149485 -0.873229 0.355083 -0.333747
-0.696968972683 1.944568991661 -0.433784663677 -0.818013 0.416182 -0.397047
-0.700018763542 1.961554288864 -0.408559739590 -0.740708 0.530485 -0.412234
-0.656715750694 1.942396044731 -0.501312971115 -0.559920 0.680261 -0.473007
-0.634395003319 2.009688377380 -0.429968237877 -0.552808 0.693098 -0.462622
-0.755361199379 1.873466730118 -0.085346393287 -0.953822 0.293188 0.065295
-0.737696349621 1.909938335419 -0.085513494909 -0.895603 0.441686 0.053002
-0.462582707405 2.037848234177 -0.079927243292 -0.202123 0.976315 0.077174
-0.531773388386 2.019746780396 -0.026663549244 -0.227910 0.973138 0.032559
-0.364949852228 2.056289911270 -0.072185263038 -0.167503 0.985378 0.031190
-0.274894237518 2.071523427963 -0.080855347216 -0.156517 0.986640 0.045216
-0.239596933126 2.074966430664 -0.082692444324 -0.086511 0.995427 0.040518
-0.131803259254 2.083077907562 -0.064216084778 -0.034647 0.998472 0.043047
-0.051214497536 2.083872079849 -0.030658757314 -0.015772 0.997816 0.064138
0.012987539172 2.082495927811 -0.001554933377 0.011518 0.997892 0.063873
0.093318589032 2.062087297440 0.086334183812 0.010708 0.972083 0.234394
-0.064644917846 2.076906442642 0.026007372886 -0.015503 0.971890 0.234923
-0.138070598245 2.074752330780 0.026457225904 -0.076291 0.969269 0.233875
-0.203507393599 2.067127943039 0.036504805088 -0.076291 0.969269 0.233875
-0.280840069056 2.044044494629 0.100941523910 -0.151144 0.960749 0.232630
-0.373981744051 2.048922300339 0.019998133183 -0.151144 0.960749 0.232630
-0.428570598364 2.028212547302 0.068583413959 -0.225507 0.947129 0.228240
-0.470279484987 2.009671688080 0.101236969233 -0.246683 0.931756 0.266417
-0.124358154833 2.041345596313 0.129624098539 -0.061429 0.790010 0.610008
-0.167479753494 1.997668862343 0.179922044277 -0.055960 0.713137 0.698788
-0.124448649585 2.004642009735 0.176145210862 -0.023836 0.688443 0.724899
-0.031784199178 1.977586030960 0.204429283738 -0.012526 0.702864 0.711214
0.029855398461 2.029424190521 0.146935418248 0.009648 0.789761 0.613339
0.028539443389 2.055294513702 0.113567553461 0.009648 0.789761 0.613339
0.196876406670 2.046051502228 0.115952678025 0.058480 0.788769 0.611902
0.192367970943 1.962882161140 0.213263988495 0.052885 0.713228 0.698934
0.382066547871 1.969991803169 0.180590629578 0.104871 0.689788 0.716376
0.281717985868 1.997880220413 0.166829958558 0.119761 0.785102 0.607678
0.330754011869 2.022807836533 0.124917805195 0.119761 0.785102 0.607678
0.381115555763 2.037453413010 0.061383381486 0.148199 0.961327 0.232135
0.263880461454 2.059594392776 0.044347994030 0.148199 0.961327 0.232135
0.274230718613 2.068505525589 -0.030252745375 0.151641 0.987404 0.045145
0.356667459011 2.056553363800 -0.053787443787 0.162266 0.986258 0.031072
0.486772865057 2.029179573059 -0.017205620185 0.224566 0.973919 0.032424
0.457838982344 2.020536184311 0.067696928978 0.219738 0.948559 0.227927
0.547436594963 1.985521316528 0.111385144293 0.240561 0.932702 0.268697
0.711926460266 1.672306060791 0.270385891199 0.935523 0.172733 0.308156
0.735364258289 1.625648379326 0.225435823202 0.935966 0.170050 0.308302
0.724611461163 1.486186265945 0.293745756149 0.931371 -0.056646 0.359638
0.796684384346 0.278029859066 0.161190241575 0.813727 0.004103 0.581233
0.773876488209 0.451570153236 0.191605791450 0.813727 0.004103 0.581233
0.790728330612 0.178601413965 0.170345738530 0.813727 0.004103 0.581233
0.778053581715 0.143735408783 0.188348412514 0.813727 0.004103 0.581233
0.067477382720 1.960186362267 0.220071092248 0.021033 0.688487 0.724944
0.012715786695 1.969713091850 0.212390065193 0.009724 0.701495 0.712608
0.380707204342 1.934197545052 0.213639497757 0.162210 0.644292 0.747379
-0.757425725460 1.247798919678 0.223953142762 -0.886428 -0.017329 0.462542
-0.776143014431 1.241648077965 0.187817245722 -0.886428 -0.017329 0.462542
-0.775091588497 1.504825472832 0.190051436424 -0.894164 0.001313 0.447738
-0.783701419830 1.298227429390 0.170826971531 -0.948398 0.008701 0.316961
-0.784587085247 1.531137585640 0.156518518925 -0.946790 0.132577 0.293277
-0.792867958546 1.634920001030 0.060623452067 -0.982103 0.140300 0.125660
-0.808916330338 1.590698838234 -0.014930504374 -0.982103 0.140300 0.125660
-0.821835577488 1.453802227974 -0.006791345775 -0.990528 0.098244 0.095932
-0.820988774300 1.498746275902 -0.044448703527 -0.990528 0.098244 0.095932
-0.824351787567 1.512946367264 -0.113742187619 -0.993570 0.097673 0.057257
-0.814246594906 1.615587234497 -0.148972779512 -0.991782 0.127937 -0.001093
-0.817819654942 1.587135314941 -0.149361103773 -0.990591 0.124826 -0.056114
-0.794828593731 1.744849443436 -0.206974342465 -0.991118 0.121756 -0.053482
-0.786858141422 1.764781475067 -0.287040054798 -0.982032 0.118038 -0.147244
-0.774320006371 1.700383901596 -0.398587703705 -0.978567 0.094542 -0.182944
-0.763524115086 1.732145428658 -0.428014695644 -0.961917 0.112331 -0.249195
-0.758598446846 1.737283945084 -0.444143742323 -0.934373 0.173032 -0.311458
-0.547194719315 2.013572454453 -0.495996445417 -0.213053 0.844659 -0.491081
-0.387260079384 2.071672201157 -0.449042618275 -0.113305 0.864850 -0.489078
-0.298913031816 2.058234453201 -0.493857711554 -0.116010 0.866493 -0.485522
-0.160793572664 2.085777521133 -0.458051860332 -0.031184 0.874498 -0.484025
-0.007403237745 2.077421903610 -0.490130841732 -0.044650 0.894346 -0.445143
0.193797841668 2.068674564362 -0.489092677832 0.041797 0.893915 -0.446283
0.048774108291 2.110669612885 -0.419527202845 0.025703 0.875269 -0.482953
0.411689609289 2.044593095779 -0.491517573595 0.113025 0.865570 -0.487867
0.320632815361 2.091671228409 -0.428698837757 0.110199 0.865847 -0.488023
