-0.747310698032 -1.287208199501 0.021182127297 -0.993513 -0.014240 0.112825
-0.807565450668 -0.930782258511 -0.409742206335 -0.390755 -0.827388 -0.403411
-0.757464826107 -0.980879843235 -0.420230656862 0.010901 -0.002973 0.999936
-0.784727036953 -1.063753008842 -0.420110702515 0.022971 -0.000999 0.999736
-0.771214485168 -1.171256780624 -0.420414686203 0.022971 -0.000999 0.999736
-0.463676154613 -1.901628971100 -0.043027359992 -0.008884 0.999960 0.000987
-0.476303130388 -1.901683568954 -0.138953715563 -0.008884 0.999960 0.000987
-0.689222276211 -1.887312650681 -0.078189820051 0.142410 0.974183 0.175177
-0.678076624870 -1.877726912498 -0.140856936574 0.142410 0.974183 0.175177
-0.613820433617 -1.894612908363 -0.098454177380 0.142410 0.974183 0.175177
-0.728618085384 -1.729517340660 -0.024648234248 -0.993350 -0.095623 0.064123
-0.718727171421 -1.741380691528 0.081314265728 -0.992572 -0.073903 0.096642
-0.707853555679 -1.903785228729 0.039906732738 -0.993415 -0.093379 0.066378
-0.640278577805 -1.931707382202 -0.022566091269 -0.981279 -0.143333 -0.128632
-0.561966776848 -1.945671558380 -0.024715589359 0.000978 0.000978 0.999999
-0.458911418915 -2.011994123459 -0.024715583771 0.000978 0.000978 0.999999
-0.567872703075 -1.942814350128 -0.024715589359 -0.000978 -0.000978 -0.999999
-0.457956671715 -1.999855637550 -0.024715587497 -0.000978 -0.000978 -0.999999
-0.422249764204 -1.972256422043 -0.064827457070 -0.998002 -0.059943 -0.019981
-0.416423410177 -2.094239473343 -0.100144863129 -0.939198 0.342109 -0.029470
-0.431393325329 -2.090488672256 -0.022327248007 -0.191554 0.175917 -0.965588
-0.572062551975 -2.011920928955 0.012207450345 0.443832 0.832772 0.330913
-0.369458377361 -2.140613317490 -0.101361133158 -0.770140 -0.629314 -0.104152
-0.390383541584 -2.112621545792 -0.156368955970 -0.628965 -0.771978 -0.091937
-0.410399526358 -2.100445985794 -0.105126649141 -0.723336 -0.685495 -0.082958
-0.385148197412 -2.128747701645 -0.257105261087 -0.498543 -0.820486 0.279747
-0.370976328850 -2.148138761520 -0.285044848919 0.615485 0.758116 -0.215497
-0.399950742722 -2.016686677933 -0.253339290619 -0.953410 -0.060148 -0.295621
-0.401205033064 -2.053705930710 -0.241689369082 0.953410 0.060148 0.295621
-0.415899157524 -2.040020465851 -0.189606383443 0.997816 0.064138 0.015772
-0.420216172934 -1.973716020584 -0.187153086066 -0.997816 -0.064138 -0.015772
-0.420581817627 -1.983662843704 -0.119102507830 -0.997816 -0.064138 -0.015772
-0.417826414108 -2.027672052383 -0.120715297759 0.998002 0.059943 0.019981
-0.410785824060 -1.802016615868 -0.031432539225 0.986622 -0.162355 0.014760
-0.423194944859 -1.888829231262 -0.160905614495 0.986622 -0.162355 0.014760
-0.393972486258 -1.718850374222 -0.175585895777 0.985371 -0.169019 0.021846
-0.385011166334 -1.587165832520 -0.109708391130 0.998073 -0.057966 0.022133
-0.388216227293 -1.614533424377 -0.037113953382 0.998073 -0.057966 0.022133
-0.741046547890 -1.967523574829 -0.464994549751 -0.439626 -0.871800 -0.216087
-0.701587796211 -1.999490022659 -0.416897922754 -0.438072 -0.871658 -0.219783
-0.598813891411 -2.057694435120 -0.365956723690 -0.464714 -0.885233 0.020088
-0.788034915924 -1.950692057610 -0.287772178650 -0.449729 -0.880658 0.148946
-0.626505136490 -2.034260272980 -0.303462207317 -0.404444 -0.859635 0.312175
-0.778427898884 -1.924225926399 -0.210743993521 -0.324022 -0.814007 0.482082
-0.789219319820 -1.904772877693 -0.185531035066 -0.215923 -0.744080 0.632235
-0.373295247555 -2.195519924164 -0.454526990652 -0.540911 -0.813664 0.212993
-0.599892556667 -2.050642251968 -0.474656850100 -0.540911 -0.813664 0.212993
-0.766178190708 -0.961854159832 0.097410932183 -0.698386 -0.695329 0.169630
-0.261520832777 -0.405380427837 0.578658044338 -0.135408 -0.973169 0.186028
0.602531254292 2.141990184784 0.236215651035 -0.989264 -0.089721 0.115356
0.606700062752 2.118069887161 0.236686453223 -0.515283 -0.857011 0.004036
0.611224055290 2.105882406235 0.006913920399 -0.642481 -0.766300 0.001376
0.615242540836 1.943388938904 -0.106227926910 -0.993590 -0.063994 -0.093184
0.617472410202 1.872050166130 0.008261150680 -0.996710 -0.081042 0.001052
0.629473745823 1.721112012863 -0.065833583474 -0.996891 -0.078785 -0.001050
0.633131682873 1.675069928169 -0.086091741920 -0.996891 -0.078785 -0.001050
0.626000642776 1.764828085899 -0.038400407881 -0.996891 -0.078785 -0.001050
0.622857987881 1.804381608963 0.045078143477 -0.996891 -0.078785 -0.001050
0.621562957764 1.820680379868 0.106600075960 -0.996891 -0.078785 -0.001050
0.631767213345 1.657746911049 0.218350842595 -0.977134 0.212622 -0.001162
0.631962001324 1.658663272858 0.076837554574 -0.977134 0.212622 -0.001162
0.610154271126 1.653390407562 0.296365439892 0.451713 0.397057 -0.798937
-0.306965678930 1.793328166008 0.308532178402 0.148037 -0.988795 0.019211
0.613621532917 1.633578538895 -0.052008356899 0.000978 0.999999 0.000978
0.567073047161 1.633638978004 -0.065862998366 0.000978 0.999999 0.000978
0.568701922894 1.633636593819 0.037522062659 0.000978 0.999999 0.000978
0.546970129013 1.617941737175 0.209902510047 -0.999987 -0.004907 0.000981
0.547056436539 1.598888516426 0.152493014932 -0.999987 -0.004907 -0.000981
0.547050178051 1.600323796272 0.194015383720 -0.999987 -0.004907 -0.000981
0.502139627934 1.647180080414 0.296470940113 0.017771 0.055403 -0.998306
-0.518482387066 0.573003530502 0.625603795052 -0.973127 -0.047499 -0.225317
0.307162344456 1.138871431351 0.588209927082 0.132945 0.990941 -0.018992
0.688954770565 1.137259364128 0.282833904028 -0.001369 -0.792878 -0.609379
0.680772662163 1.188595771790 0.256450772285 -0.103040 -0.011931 0.994606
0.098587051034 0.941179633141 -0.124359205365 0.999995 -0.002938 0.000979
0.098453335464 0.887972533703 -0.162843406200 0.999995 -0.002938 0.000979
-0.016269188374 0.877421736717 -0.160637512803 0.001363 0.819039 0.573736
0.020130706951 1.032791137695 0.039129804820 -0.001371 -0.796531 0.604596
0.027431707829 0.934161126614 -0.090618520975 -0.001371 -0.796531 0.604596
0.078129462898 0.930554807186 -0.095195859671 -0.001371 -0.796531 0.604596
-0.004809811246 0.958911955357 -0.058159187436 -0.001371 -0.796531 0.604596
0.016808614135 0.883437514305 -0.157393321395 -0.001371 -0.796531 0.604596
-0.038944434375 1.078643202782 0.099264591932 -0.001371 -0.796531 0.604596
-0.077921554446 0.991840660572 -0.015074953437 -0.001371 -0.796531 0.604596
-0.013339841738 1.106694459915 0.136257663369 -0.001371 -0.796531 0.604596
0.033357668668 1.129461407661 0.166367828846 -0.001371 -0.796531 0.604596
-0.079143971205 0.980902969837 -0.029470287263 -0.001371 -0.796531 0.604596
0.061172612011 1.146481990814 0.250846207142 -0.001383 -0.681775 -0.731560
-0.645159780979 1.187938094139 0.253654778004 0.103037 -0.014100 0.994578
-0.572441875935 1.142931938171 0.245141521096 0.999995 -0.002938 -0.000979
-0.543867826462 0.819649994373 -0.220819219947 0.874172 -0.352415 0.334107
-0.542672872543 0.827864050865 -0.224218606949 0.998439 0.009351 0.055065
-0.562434196472 1.083557963371 0.087015300989 0.998439 0.009351 0.055065
-0.434686422348 0.783536195755 -0.300301432610 0.008163 0.206415 0.978430
-0.375578582287 0.757295906544 -0.295262426138 0.008163 0.206415 0.978430
0.717968344688 0.448229730129 -0.362818032503 -0.210402 0.001162 0.977614
0.699332177639 0.378823280334 -0.365916073322 -0.211026 0.017684 0.977320
0.581722676754 0.824429869652 0.515456736088 -0.001259 -0.353743 -0.935342
0.568976283073 0.744794964790 0.545560777187 -0.001259 -0.353743 -0.935342
0.706273853779 1.251930356026 0.269418001175 0.756798 -0.613240 -0.226259
0.631055533886 2.087682247162 0.222660779953 -0.999995 0.002938 -0.000979
0.613225519657 2.004329442978 0.188759937882 -0.494074 0.053974 0.867743
0.613163292408 1.917869567871 0.030052741989 -0.994485 -0.104739 0.005399
0.628233850002 1.912273645401 0.209243774414 -0.810552 0.585627 0.006857
0.630484700203 1.915398955345 0.208002388477 -0.835535 0.549300 -0.012267
0.630102097988 1.845114231110 0.273196518421 -0.050575 0.168193 0.984456
0.633341968060 1.672620415688 0.287856370211 -0.997628 -0.068187 0.009441
0.622882962227 1.814180612564 0.208384394646 -0.997628 -0.068187 0.009441
0.525086104870 0.532930493355 0.636275768280 0.972628 -0.052608 -0.226335
0.647508919239 0.144635587931 0.449942409992 -0.003475 -0.978752 0.205017
0.525927245617 0.121532216668 0.611763536930 -0.002956 -0.999972 -0.006896
0.599309384823 1.416073203087 0.405424088240 -0.992052 0.125784 -0.003281
0.723621129990 0.132810652256 -0.193947613239 0.003032 0.999505 0.031329
0.736487627029 0.012634053826 -0.208838090301 0.998892 0.032222 0.034301
0.663021147251 0.147247731686 -0.028458610177 0.003331 0.989358 -0.145461
0.623155057430 1.959679841995 0.012172725983 -0.999995 0.002938 0.000979
0.610705852509 1.981913089752 0.124036096036 -0.999999 -0.000978 0.000978
0.706969618797 0.876999199390 -0.104981310666 -0.514392 -0.688649 0.511041
0.701491355896 0.798837840557 -0.222225025296 -0.334502 -0.785839 0.520158
0.573924481869 0.997914612293 0.027430161834 -0.875821 -0.348805 0.333574
0.581492125988 1.142917990685 0.224075049162 -0.999995 0.002938 -0.000979
0.567041873932 1.031562685966 0.025556504726 -0.998378 0.013562 0.055292
0.572377026081 1.086146116257 0.107071585953 -0.998378 0.013562 0.055292
0.419512778521 0.817294597626 -0.307695001364 -0.001131 0.173011 0.984919
0.320810884237 0.812696158886 -0.306953221560 -0.001131 0.173011 0.984919
0.415578246117 0.782791495323 -0.300809562206 -0.008163 0.206415 0.978430
0.098199278116 0.786885678768 -0.215173646808 0.999995 -0.002938 0.000979
-0.090159237385 1.096987009048 0.107815504074 -0.999995 0.002938 -0.000979
-0.247855633497 0.783020913601 -0.301564007998 0.001133 0.173397 0.984851
-0.327011048794 0.831442534924 -0.309944123030 0.001133 0.173397 0.984851
-0.827106237411 -0.967926979065 0.012313194573 -0.337648 -0.915242 0.219831
-0.595568358898 1.648077726364 0.293674260378 -0.032441 0.222283 -0.974442
-0.488820582628 1.732498049736 0.301000654697 -0.017771 0.055403 -0.998306
-0.244990870357 1.815252184868 0.303624540567 0.003062 0.041843 -0.999120
-0.371836900711 1.767221093178 0.301168322563 0.003062 0.041843 -0.999120
-0.393710881472 1.650265216827 0.296173721552 -0.001024 0.048149 -0.998840
-0.085831105709 1.790682435036 0.302441060543 -0.001024 0.048149 -0.998840
-0.222244679928 1.588196635246 0.293333053589 0.001020 0.043880 -0.999036
0.035491496325 1.711148738861 0.298881709576 0.001020 0.043880 -0.999036
-0.344797998667 1.641256809235 0.295701205730 0.001020 0.043880 -0.999036
0.012766659260 1.620694518089 0.294818490744 0.001020 0.043880 -0.999036
0.082414031029 1.664307951927 0.296784222126 0.001020 0.043880 -0.999036
-0.131164431572 1.679217934608 0.297429442406 0.001020 0.043880 -0.999036
-0.358830749989 1.620836257935 0.294782906771 0.001020 0.043880 -0.999036
0.274370729923 1.646932601929 0.296025872231 0.001020 0.043880 -0.999036
-0.400440156460 1.602716088295 0.293964773417 0.001020 0.043880 -0.999036
-0.047904312611 1.639696598053 0.295664697886 0.001020 0.043880 -0.999036
0.164289504290 1.612577199936 0.294471174479 0.001020 0.043880 -0.999036
-0.239444971085 1.704116463661 0.298534959555 0.001020 0.043880 -0.999036
-0.446488201618 1.592990636826 0.293522983789 0.001020 0.043880 -0.999036
-0.053431868553 1.667271852493 0.296901941299 0.001020 0.043880 -0.999036
0.377637147903 1.585295200348 0.293270558119 0.001020 0.043880 -0.999036
0.149698227644 1.763788580894 0.301264762878 0.001024 0.048149 -0.998840
0.176283404231 1.785939693451 0.302369773388 0.001024 0.048149 -0.998840
0.427758336067 1.711569786072 0.298785775900 -0.003062 0.041843 -0.999120
0.364948689938 1.760882973671 0.301050275564 -0.003062 0.041843 -0.999120
-0.586454749107 2.174461126328 0.243404567242 0.989001 -0.094804 0.113530
-0.583051979542 2.189921379089 0.228545233607 0.986212 -0.110904 0.122829
-0.579276978970 2.181976079941 0.085083089769 0.975699 -0.219035 0.005857
-0.548900246620 2.251770973206 0.141531318426 0.755093 -0.607528 0.246465
-0.543575882912 2.228446245193 0.068487770855 0.717120 -0.626876 0.304575
-0.537202298641 2.223849296570 0.046353958547 0.695899 -0.633968 0.337356
0.417236834764 1.553949832916 0.008851014078 -0.004907 0.999987 0.000981
0.383060306311 1.553758263588 0.096854813397 -0.004907 0.999987 0.000981
0.406967282295 1.553894639015 0.112524420023 -0.004907 0.999987 0.000981
0.320283770561 1.553399562836 0.035090811551 -0.004907 0.999987 0.000981
0.372742414474 1.553699493408 0.090894989669 -0.004907 0.999987 0.000981
0.448273807764 1.554131865501 0.196740478277 -0.004907 0.999987 0.000981
0.396814793348 1.553835868835 0.206779599190 -0.004907 0.999987 0.000981
0.394070267677 1.553821444511 0.145666852593 -0.004907 0.999987 0.000981
0.138734206557 1.553576231003 0.209242284298 0.002938 0.999995 0.000979
0.065855726600 1.553759574890 0.227192521095 0.002938 0.999995 0.000979
0.001533672214 1.553921103477 0.131549015641 0.002938 0.999995 -0.000979
0.152003407478 1.553543210030 0.099538505077 0.002938 0.999995 -0.000979
0.102669984102 1.553667426109 -0.018570046872 0.002938 0.999995 0.000979
0.296696782112 1.554071545601 -0.074230678380 -0.000989 0.999940 0.010880
0.281609684229 1.553366184235 -0.013873934746 -0.000989 0.999940 0.010880
-0.082995802164 1.555256128311 -0.092229872942 0.003055 0.999123 0.041757
0.138511449099 1.555434346199 -0.109209857881 0.003055 0.999123 0.041757
0.114573433995 1.554756879807 -0.091301858425 0.003055 0.999123 0.041757
-0.405972927809 1.556216239929 -0.087870001793 0.004955 0.999928 0.010901
-0.290042817593 1.555435419083 -0.070365197957 0.004955 0.999928 0.010901
-0.325862288475 1.555730223656 -0.080893978477 0.004955 0.999928 0.010901
-0.085927203298 1.554141044617 0.015680328012 0.002938 0.999995 0.000979
-0.232753753662 1.554510474205 0.011090276763 0.002938 0.999995 -0.000979
-0.348631203175 1.555353999138 0.015867769718 0.008884 0.999960 0.000987
-0.341011404991 1.555279135704 0.000147625804 0.008884 0.999960 0.000987
-0.447995424271 1.556275010109 0.036148011684 0.008867 0.999960 0.000985
-0.424932956696 1.555885195732 0.229606747627 0.008867 0.999960 0.000985
-0.423236310482 1.556013822556 0.082853674889 0.008867 0.999960 0.000985
-0.402442842722 1.555819272995 0.096788734198 0.008867 0.999960 0.000985
-0.364206045866 1.555385112762 0.200355082750 0.008867 0.999960 0.000985
-0.260983049870 1.554972290993 0.235280722380 0.004945 0.999948 -0.008902
-0.109694398940 1.554381489754 0.249256312847 0.004945 0.999948 -0.008902
-0.291916906834 1.555247902870 0.251178026199 0.004945 0.999948 -0.008902
0.186554640532 1.555073022842 0.287084847689 0.001018 0.999127 -0.041758
0.084052413702 1.554385185242 0.265773296356 0.001018 0.999127 -0.041758
0.375596225262 1.554176568985 0.262639015913 -0.000989 0.999940 -0.010880
0.302582859993 1.553574442863 0.215175032616 -0.000989 0.999940 -0.010880
0.016772281379 1.550057291985 0.138910427690 -0.015370 0.711203 0.702819
-0.164042934775 1.554337263107 0.148223310709 0.002938 0.999995 0.000979
-0.073616608977 1.554110050201 0.202891528606 0.002938 0.999995 0.000979
-0.102502614260 1.554182648659 0.104591667652 0.002938 0.999995 -0.000979
-0.090435057878 1.554152488708 0.050411473960 0.002938 0.999995 0.000979
-0.226142227650 1.545858263969 0.051493067294 -0.680189 0.731524 -0.047057
-0.191639304161 1.554406642914 0.192296728492 0.002938 0.999995 0.000979
-0.527081191540 1.562000632286 0.016469061375 0.598464 0.801148 0.001369
-0.535973548889 1.573682308197 -0.016382940114 0.999960 -0.008867 -0.000985
-0.535688281059 1.603249430656 0.032212957740 0.999960 -0.008867 0.000985
-0.537503182888 1.633844971657 0.190814763308 0.763803 0.645448 0.001376
-0.553954541683 1.636455059052 0.142329648137 0.002938 0.999995 0.000979
-0.573221504688 1.636527419090 0.014827862382 0.002938 0.999995 -0.000979
-0.599617481232 1.636624932289 0.043416649103 0.002938 0.999995 -0.000979
-0.613538563251 1.646984577179 0.062907934189 0.860313 0.509765 -0.001338
-0.619414329529 1.657732367516 -0.098996788263 0.978290 0.207235 -0.001158
-0.612565994263 1.782698631287 0.006363593042 0.996523 -0.083307 -0.001055
-0.619193971157 1.704287171364 0.181348159909 0.996523 -0.083307 -0.001055
-0.621855556965 1.672789454460 0.145013466477 0.996523 -0.083307 -0.001055
-0.608292639256 1.833265423775 -0.001906879246 0.996523 -0.083307 -0.001055
-0.615784108639 1.744610071182 -0.083245843649 0.996523 -0.083307 -0.001055
-0.606628000736 1.866902351379 0.158387750387 0.997187 -0.074763 0.005265
-0.610441386700 1.810097575188 0.092672578990 0.997187 -0.074763 0.005265
-0.610792219639 1.819501399994 0.261959910393 0.997187 -0.074763 0.005265
-0.608333587646 1.843305945396 0.150693222880 0.997187 -0.074763 0.005265
0.251972347498 1.543673753738 0.078474491835 0.002938 0.999995 0.000979
0.556040048599 2.243477582932 0.104957863688 -0.757874 -0.604102 0.246348
0.489301979542 2.262362480164 -0.000604944304 -0.681905 -0.615861 0.394614
0.594579994678 2.260521650314 -0.107838153839 -0.385197 -0.739250 -0.552388
-0.167446196079 2.300933122635 -0.089239679277 0.018185 -0.734414 0.678458
-0.460122317076 2.271412134171 -0.111516170204 -0.001359 -0.561268 0.827633
-0.265325605869 2.279434204102 -0.105830110610 -0.001359 -0.561268 0.827633
0.104292944074 2.265842199326 -0.114500135183 -0.001359 -0.561268 0.827633
0.691136777401 -1.511417031288 0.108952768147 -0.958167 0.038726 -0.283577
0.383590728045 -1.504526019096 -0.024715349078 0.000978 -0.000978 0.999999
0.381206959486 -1.325748801231 -0.024715257809 -0.000978 -0.000978 0.999999
0.369326025248 -1.433386087418 -0.156507313251 -0.985764 -0.166398 0.024099
0.380836963654 -1.629383325577 -0.179945945740 -0.998267 -0.053648 0.024194
0.375404804945 -1.475523710251 -0.060263063759 -0.998267 -0.053648 0.024194
0.382606744766 -1.646397709846 -0.143551260233 -0.998329 -0.053426 0.021999
0.377961248159 -1.510771870613 -0.030575685203 -0.998329 -0.053426 0.021999
0.385653197765 -1.698995828629 -0.146742060781 -0.986253 -0.163803 0.021764
0.392538338900 -1.741679310799 -0.155152186751 -0.986253 -0.163803 0.021764
0.256424039602 -1.610978484154 -0.197500586510 0.002944 0.002944 0.999991
0.270702242851 -1.627986907959 -0.197506174445 0.002944 0.002944 0.999991
0.065684311092 -1.291637301445 -0.197646349669 0.002944 0.002944 0.999991
0.271389365196 -1.440355420113 -0.197694584727 0.000978 0.000978 0.999999
0.338419198990 -1.477573156357 -0.197704985738 0.000978 0.000978 0.999999
0.339333713055 -1.532081484795 -0.197704747319 0.000978 0.000978 0.999999
0.135672897100 -1.313113451004 -0.197673901916 0.000978 0.000978 0.999999
0.354583382607 -1.329675793648 -0.197710186243 0.000978 0.000978 0.999999
0.357701182365 -1.428842544556 -0.197708532214 0.000978 0.000978 0.999999
0.299168884754 -1.326926231384 -0.197700873017 0.000978 0.000978 0.999999
0.352735280991 -1.317043542862 -0.062088176608 -0.991644 -0.128771 -0.007704
0.362939268351 -1.389553189278 -0.173691704869 -0.991644 -0.128771 -0.007704
0.689791381359 -2.004827976227 -0.419564455748 0.434228 -0.872933 -0.222337
-0.659158587456 -1.994807004929 0.037592351437 0.143556 0.186750 0.971862
-0.586767792702 -2.242790937424 -0.168987706304 -0.045265 -0.337548 0.940219
-0.670832633972 -2.209361553192 -0.163484349847 -0.065952 -0.311657 0.947903
-0.717585444450 -2.000709772110 0.039643153548 0.085790 -0.390823 -0.916459
-0.550810456276 -2.110579967499 0.015434687957 -0.392885 -0.238696 -0.888068
-0.671310782433 -1.929671406746 0.045760896057 0.455142 -0.112013 0.883345
-0.730620384216 -1.966632723808 0.050455357879 -0.528414 -0.222087 0.819424
-0.764149546623 -1.859044194221 0.055322628468 -0.718292 -0.166229 0.675591
-0.759337902069 -1.850453853607 0.061239749193 -0.537737 -0.172256 0.825329
-0.785070240498 -1.793814659119 0.050496935844 -0.761468 -0.142681 0.632304
-0.749839603901 -1.595410466194 0.104798652232 -0.221620 -0.124261 0.967184
-0.733334720135 -1.621583342552 0.105232357979 -0.221620 -0.124261 0.967184
0.357758164406 -1.273638963699 0.178595989943 0.074037 -0.101373 0.992090
0.422554850578 -1.275768876076 0.173779964447 0.068911 -0.096023 0.992991
0.502138435841 -1.189897775650 0.175727099180 0.132437 -0.127577 0.982947
0.552244663239 -1.335852265358 0.147393539548 0.198556 -0.142191 0.969720
0.434410691261 -1.355814814568 0.115184545517 -0.332132 -0.937232 -0.106229
0.411821633577 -1.336721062660 -0.001845801249 -0.306927 -0.947127 -0.093527
0.370540380478 -1.329881429672 0.142672866583 -0.466065 -0.880346 -0.088175
0.352067977190 -1.310244560242 0.037971455604 -0.455037 -0.886418 -0.084885
0.312451750040 -1.295349478722 0.096575208008 -0.372063 -0.918313 -0.135169
0.304137468338 -1.281275272369 0.013569116592 -0.242292 -0.962691 -0.120498
0.279687464237 -1.296088814735 0.179386958480 -0.227117 -0.966208 -0.121899
0.231945753098 -1.238870263100 -0.195452481508 -0.209365 -0.970691 -0.118006
0.198840394616 -1.238405466080 -0.135144576430 -0.262003 -0.958069 -0.116011
0.169864952564 -1.265551447868 0.152660831809 -0.262003 -0.958069 -0.116011
0.164387851954 -1.238167285919 -0.060909479856 -0.246770 -0.962533 -0.112403
0.155754163861 -1.221848011017 -0.181192547083 -0.246770 -0.962533 -0.112403
0.026412028819 -1.241770744324 0.159075409174 -0.074940 -0.990366 -0.116446
0.098358243704 -1.234689354897 0.051845118403 -0.074940 -0.990366 -0.116446
0.065736830235 -1.211457371712 -0.125440523028 -0.072647 -0.990534 -0.116466
-0.002157123294 -1.201293110847 -0.170435890555 0.067747 -0.990939 -0.115973
-0.046472381800 -1.204286575317 -0.170995771885 0.067747 -0.990939 -0.115973
-0.070988312364 -1.238121032715 0.103814139962 0.070192 -0.990740 -0.116219
-0.040321711451 -1.231751322746 0.068082429469 0.070192 -0.990740 -0.116219
-0.117455057800 -1.223268508911 -0.074056491256 0.243130 -0.963516 -0.111917
-0.127160012722 -1.238834142685 0.038040176034 0.243130 -0.963516 -0.111917
-0.179178327322 -1.264724254608 0.139187321067 0.256494 -0.959574 -0.115878
-0.169544458389 -1.263168215752 0.147561684251 0.256494 -0.959574 -0.115878
-0.246012762189 -1.266863226891 0.024972341955 0.205921 -0.971490 -0.117488
-0.229906454682 -1.239133000374 -0.175021216273 0.205921 -0.971490 -0.117488
-0.229038655758 -1.276683211327 0.134484633803 0.221689 -0.967488 -0.121737
-0.337767660618 -1.267429590225 -0.144792437553 0.238658 -0.963664 -0.119974
-0.310359388590 -1.270505905151 -0.066184505820 0.238658 -0.963664 -0.119974
-0.300873696804 -1.293408274651 0.133928924799 0.368572 -0.919345 -0.137693
-0.364541828632 -1.313748598099 0.044362179935 0.451708 -0.888128 -0.084782
-0.464290022850 -1.354661941528 0.041528623551 0.303778 -0.948157 -0.093369
-0.466563165188 -1.364523053169 0.123164355755 0.328079 -0.938708 -0.105789
-0.509736418724 -1.369578957558 0.046458877623 0.168754 -0.979264 -0.112092
-0.589381098747 -1.381467700005 0.058571953326 0.061882 -0.993491 -0.095636
-0.641631007195 -1.383983135223 0.049253851175 0.069346 -0.992449 -0.101177
0.658909559250 -1.653866648674 -0.021093387157 -0.994557 0.072555 0.074787
0.664532899857 -1.633353233337 0.033188264817 -0.994620 0.061259 0.083535
0.759255588055 -2.094516038895 -0.098301537335 0.948351 -0.316117 0.026448
0.836872398853 -1.863994717598 -0.136035785079 0.994546 -0.001075 -0.104293
0.760283946991 -1.997316479683 0.006907461211 0.885312 -0.258278 0.386671
0.766468167305 -2.010859966278 -0.015633564442 0.902076 -0.279038 0.329236
0.762409448624 -2.083338022232 -0.094185926020 0.950390 -0.298545 0.087347
0.775371074677 -1.999546647072 -0.039952121675 0.944869 -0.266642 0.190068
0.819779694080 -1.824354887009 -0.035130824894 0.808246 -0.430531 0.401722
0.670272052288 -1.432078361511 0.067065663636 -0.997978 0.003122 0.063479
0.670334517956 -1.519241690636 0.065899908543 -0.997187 -0.005265 0.074763
0.664416730404 -1.574960112572 -0.017100252211 -0.997187 -0.005265 0.074763
0.645152449608 -1.393100142479 0.101934477687 -0.074204 -0.992054 -0.101603
0.663633167744 -1.393067479134 0.058891199529 -0.969909 -0.241567 0.030348
0.707877278328 -1.802983045578 0.084708042443 -0.458474 -0.082219 0.884896
0.690447509289 -1.063508987427 0.160434722900 0.065853 -0.081480 0.994497
0.601087927818 -1.125879406929 0.169398620725 0.142989 -0.128324 0.981370
0.694795668125 -1.290623784065 0.134297832847 0.142989 -0.128324 0.981370
0.634935259819 -1.317640185356 0.137987315655 0.104759 -0.145699 0.983767
0.604808151722 -1.166928768158 0.163377091289 0.104759 -0.145699 0.983767
0.700009405613 -1.323675394058 0.129704028368 -0.395314 -0.115127 0.911303
0.740924477577 -1.561484694481 0.110428199172 0.222670 -0.113243 0.968295
0.745247602463 -1.728885293007 0.087225303054 0.221000 -0.138286 0.965420
0.814703643322 -1.782679200172 -0.006772238761 0.835198 -0.230557 0.499287
0.825240969658 -0.455917537212 -0.409680455923 0.903359 0.003911 -0.428867
0.743554770947 1.719151854515 -0.419430375099 0.858307 0.306648 -0.411432
0.739025354385 1.719461202621 -0.436482608318 0.990809 0.001100 0.135260
0.718647599220 1.789427042007 -0.413432717323 0.588384 0.504088 -0.632218
0.695159673691 1.934276819229 -0.348908990622 -0.005690 0.176379 -0.984306
0.596914887428 2.260379552841 -0.281082391739 0.205802 0.389710 -0.897648
0.458084285259 2.286900758743 -0.135048508644 0.176606 0.983614 0.036257
0.477935016155 2.282249927521 -0.106926850975 0.176606 0.983614 0.036257
0.593081414700 2.264314413071 -0.130339860916 0.158971 0.986991 0.024017
0.547089099884 2.273780107498 -0.212746769190 0.158971 0.986991 0.024017
0.645227670670 2.233947753906 -0.228583678603 0.764697 0.642686 -0.046818
0.712025105953 2.153769493103 -0.065389618278 0.885563 0.447756 -0.123666
0.666288971901 2.208297491074 -0.239892527461 0.925885 0.363012 -0.104689
0.649603843689 2.190717458725 -0.295229673386 0.737037 0.152856 -0.658339
0.700675427914 2.095104217529 -0.266297549009 0.965936 0.220527 -0.135412
0.712560474873 2.107764482498 -0.162481814623 0.948017 0.281043 -0.149262
0.339239239693 2.214066505432 -0.310133397579 0.000981 -0.004907 -0.999987
0.281017601490 2.157379627228 -0.309895008802 0.000981 -0.004907 -0.999987
0.028657648712 2.208805084229 -0.310085415840 -0.000978 0.000978 -0.999999
0.013803204522 2.319549560547 -0.280779123306 0.020220 0.483940 -0.874867
-0.150533273816 2.265320539474 -0.307577520609 -0.020194 0.486001 -0.873725
-0.114252068102 2.305260658264 -0.287269681692 -0.006588 0.451941 -0.892024
-0.190884947777 2.321228742599 -0.222941964865 -0.047925 0.997896 -0.043665
-0.070193752646 2.328201532364 -0.128625914454 -0.019708 0.998901 -0.042528
-0.049203727394 2.324902057648 -0.204805821180 -0.013481 0.998617 -0.050812
0.009472271428 2.329771518707 -0.122134700418 0.017701 0.998541 -0.051020
0.010588746518 2.328610897064 -0.144683092833 0.017701 0.998541 -0.051020
0.169707268476 2.321951150894 -0.214225828648 0.026036 0.998749 -0.042699
0.150231838226 2.321530818939 -0.235444068909 0.026036 0.998749 -0.042699
-0.354801774025 2.303509473801 -0.095753870904 -0.173938 0.984091 0.036188
-0.364444285631 2.303382873535 -0.175336763263 -0.109948 0.993889 0.009797
-0.281210929155 2.316519737244 -0.164021804929 -0.130177 0.991350 -0.016689
-0.515861570835 2.223880052567 -0.309991836548 -0.002944 -0.000981 -0.999995
-0.672997534275 2.166674852371 -0.210810393095 -0.924575 0.366290 -0.104849
-0.689623117447 2.164034605026 -0.099511496723 -0.883188 0.452295 -0.124131
-0.688734710217 2.093251228333 -0.261624336243 -0.964467 0.226553 -0.135932
-0.691654503345 2.059823989868 -0.287886738777 -0.973824 0.170514 -0.150305
-0.711004495621 2.040723562241 -0.183525353670 -0.973824 0.170514 -0.150305
-0.728891849518 2.038676977158 -0.086993739009 -0.946697 0.258190 -0.192618
-0.736860275269 1.955179810524 -0.160240128636 -0.946697 0.258190 -0.192618
-0.710510313511 1.963087797165 -0.279076874256 -0.946697 0.258190 -0.192618
-0.730306506157 1.932695627213 -0.228487938643 -0.920617 0.341863 -0.188663
-0.765094816685 1.882441043854 0.036473155022 -0.971481 0.138783 0.192259
-0.758160054684 1.897326588631 0.060693621635 -0.971481 0.138783 0.192259
-0.729622304440 1.913877487183 0.149590179324 -0.894358 0.120095 0.430931
-0.738244056702 1.703312039375 0.184389367700 -0.861004 0.107446 0.497119
-0.713354766369 1.687738895416 0.218414425850 -0.725173 0.101495 0.681045
-0.700145661831 1.658572912216 0.238855913281 -0.876849 0.106242 0.468880
-0.669754683971 1.624878644943 0.298249810934 -0.776516 0.155303 0.610658
-0.663558602333 1.637837171555 0.302873820066 -0.791606 0.157720 0.590325
-0.642717361450 1.345763444901 0.407225459814 -0.747379 0.162210 0.644292
-0.676878869534 1.406510353088 0.341543138027 -0.897384 0.092928 0.431354
-0.760141074657 1.677599906921 0.150983855128 -0.891119 0.108398 0.440632
-0.762971997261 1.598177194595 0.162774994969 -0.880643 0.091295 0.464901
-0.725621104240 1.441055655479 0.235804215074 -0.747586 0.055747 0.661821
-0.711901664734 1.442756175995 0.259219020605 -0.929631 0.059507 0.363654
-0.697471857071 1.318331718445 0.318776488304 -0.872246 0.097545 0.479241
-0.689387798309 1.302436828613 0.336884915829 -0.894252 0.084573 0.439501
-0.674295544624 1.293673634529 0.368056714535 -0.866501 0.085946 0.491722
-0.650747358799 1.165469527245 0.427842050791 -0.832795 0.096368 0.545129
-0.588795185089 1.051101803780 0.534204423428 -0.777680 0.113627 0.618307
-0.791054189205 1.519559383392 0.115093246102 -0.936432 0.081025 0.341366
-0.777001857758 1.315419077873 0.183077052236 -0.848583 0.066142 0.524911
-0.702164769173 1.233942031860 0.205926477909 -0.421538 -0.806211 0.415126
-0.814590573311 1.110474109650 0.048771787435 -0.104063 -0.622911 0.775341
-0.742377817631 1.033705234528 -0.001911654370 -0.100736 -0.608794 0.786907
-0.741099357605 0.985748827457 -0.040020890534 -0.159204 -0.641366 0.750535
-0.801838397980 0.953709244728 -0.080854028463 -0.272719 -0.780323 0.562779
-0.798282742500 1.258599042892 0.144604578614 -0.944084 0.050231 0.325857
-0.805519461632 1.410087943077 0.094569571316 -0.969270 0.065776 0.237043
-0.798894166946 1.536334276199 0.078766688704 -0.967437 0.095095 0.234569
-0.798281192780 1.591812014580 0.058927308768 -0.970155 0.086375 0.226578
-0.795298993587 1.697115898132 0.018841896206 -0.964156 0.141444 0.224494
-0.789831042290 1.748494982719 0.012077639811 -0.968187 0.147864 0.201866
-0.731824517250 1.863435626030 -0.279702544212 -0.939471 0.249134 -0.235216
-0.726621568203 1.899212479591 -0.271538943052 -0.960126 0.161997 -0.227849
-0.700960516930 1.867462873459 -0.354229718447 -0.483188 0.274998 -0.831207
-0.669782161713 2.052948474884 -0.328538328409 0.045320 0.156876 -0.986578
-0.673211932182 1.893909335136 -0.387309581041 -0.419460 0.335256 -0.843598
-0.589453995228 1.687112331390 -0.473344296217 -0.003743 0.328180 -0.944608
-0.602390289307 1.786372542381 -0.438762843609 -0.003743 0.328180 -0.944608
-0.383373022079 1.888879179955 -0.388582259417 0.063941 0.332753 -0.940844
-0.223019137979 1.640893816948 -0.465375542641 0.063941 0.332753 -0.940844
-0.500459372997 1.776994466782 -0.436112850904 0.063941 0.332753 -0.940844
-0.567874848843 1.775671839714 -0.441165506840 0.063941 0.332753 -0.940844
-0.263400763273 1.577825307846 -0.490425735712 0.063941 0.332753 -0.940844
-0.385641336441 1.810369610786 -0.416501104832 0.063941 0.332753 -0.940844
-0.390558212996 1.613232612610 -0.486552029848 0.063941 0.332753 -0.940844
-0.156755790114 1.613225221634 -0.470653891563 0.063941 0.332753 -0.940844
-0.546880722046 1.768498063087 -0.442274659872 0.063941 0.332753 -0.940844
-0.283368587494 1.710561513901 -0.444842249155 0.063941 0.332753 -0.940844
-0.571025550365 1.715506911278 -0.462656736374 0.063941 0.332753 -0.940844
-0.466229736805 1.954099535942 -0.371152490377 0.063941 0.332753 -0.940844
-0.279993474483 1.585974812508 -0.488672196865 0.063941 0.332753 -0.940844
-0.551851928234 1.741896867752 -0.452020078897 0.063941 0.332753 -0.940844
-0.572427511215 2.078942775726 -0.334224700928 0.063941 0.332753 -0.940844
-0.594558715820 1.918100476265 -0.392611026764 0.063941 0.332753 -0.940844
-0.499069660902 2.067286729813 -0.335724085569 -0.001209 0.276796 -0.960928
-0.124425068498 2.137082576752 -0.316008895636 -0.001209 0.276796 -0.960928
-0.207100048661 2.155160188675 -0.310702353716 -0.001209 0.276796 -0.960928
-0.218332305551 1.991308331490 -0.357952594757 -0.001209 0.276796 -0.960928
-0.111402183771 1.818187236786 -0.408008158207 -0.001209 0.276796 -0.960928
-0.068441808224 1.692710876465 -0.444249361753 -0.001209 0.276796 -0.960928
-0.236140862107 1.998644351959 -0.355816721916 -0.001209 0.276796 -0.960928
-0.230354890227 1.939120411873 -0.372992724180 -0.001209 0.276796 -0.960928
-0.241732850671 2.001110553741 -0.355099081993 -0.001209 0.276796 -0.960928
-0.056921601295 1.577986717224 -0.477354228497 -0.001209 0.276796 -0.960928
-0.475965797901 2.113379478455 -0.322454482317 -0.001209 0.276796 -0.960928
-0.030055522919 1.855651140213 -0.397292315960 -0.001209 0.276796 -0.960928
-0.428492099047 2.008322954178 -0.352810710669 -0.001209 0.276796 -0.960928
-0.417222499847 2.069140195847 -0.335280656815 -0.001209 0.276796 -0.960928
-0.032365560532 1.679217457771 -0.448181718588 -0.001209 0.276796 -0.960928
-0.135224282742 2.126662254333 -0.319002628326 -0.001209 0.276796 -0.960928
-0.030001312494 1.666629552841 -0.451815307140 -0.001209 0.276796 -0.960928
-0.104671686888 1.823008060455 -0.406625092030 -0.001209 0.276796 -0.960928
-0.447210758924 2.102669715881 -0.325575679541 -0.001209 0.276796 -0.960928
-0.192709863186 1.781112074852 -0.418611854315 -0.001209 0.276796 -0.960928
-0.526605188847 2.138327836990 -0.315201789141 -0.001209 0.276796 -0.960928
-0.164353445172 1.895508766174 -0.385645955801 -0.001209 0.276796 -0.960928
-0.441121578217 2.159974575043 -0.309739083052 -0.000978 0.000978 -0.999999
-0.448395788670 2.162453174591 -0.309730857611 -0.000978 0.000978 -0.999999
-0.023103252053 2.218215227127 -0.310042351484 -0.000978 0.000978 -0.999999
0.078926168382 1.885395646095 -0.388542532921 0.003635 0.277438 -0.960737
0.234999433160 2.098884105682 -0.326456397772 0.003635 0.277438 -0.960737
0.411117464304 2.046065807343 -0.341133683920 0.003635 0.277438 -0.960737
0.238481611013 2.054133892059 -0.339355438948 0.003635 0.277438 -0.960737
0.552979707718 2.089685201645 -0.328098505735 0.003635 0.277438 -0.960737
0.084953784943 1.753777265549 -0.426494121552 0.003635 0.277438 -0.960737
0.475002229214 2.045708656311 -0.341033488512 0.003635 0.277438 -0.960737
0.081506058574 1.580280900002 -0.476557314396 0.003635 0.277438 -0.960737
0.161284968257 2.054192543030 -0.339584052563 0.003635 0.277438 -0.960737
0.074794836342 1.946619033813 -0.370893269777 0.003635 0.277438 -0.960737
0.271013468504 1.968803524971 -0.363868921995 0.003635 0.277438 -0.960737
0.471568286419 2.150243997574 -0.310886770487 0.003635 0.277438 -0.960737
0.177511185408 1.703812122345 -0.440614223480 0.003635 0.277438 -0.960737
0.333466231823 2.019038200378 -0.349178016186 0.003635 0.277438 -0.960737
0.228992119431 1.892975449562 -0.385878384113 0.003635 0.277438 -0.960737
0.141109317541 1.810152292252 -0.410051763058 0.003635 0.277438 -0.960737
0.213076725602 1.764238595963 -0.423068523407 0.003635 0.277438 -0.960737
0.083418220282 1.659550189972 -0.453682720661 0.003635 0.277438 -0.960737
0.299220442772 2.077715635300 -0.332358986139 0.003635 0.277438 -0.960737
0.061536867172 1.657428741455 -0.454364359379 0.003635 0.277438 -0.960737
0.401082962751 2.084983587265 -0.329938232899 0.003635 0.277438 -0.960737
0.259290903807 2.044390916824 -0.342099934816 0.003635 0.277438 -0.960737
0.594035267830 1.949741125107 -0.378862619400 -0.061191 0.331992 -0.941295
0.607592642307 2.110636234283 -0.323194801807 -0.061191 0.331992 -0.941295
0.294049054384 1.631533980370 -0.471069693565 -0.061191 0.331992 -0.941295
0.162405192852 1.552696228027 -0.490160942078 -0.061191 0.331992 -0.941295
0.432932794094 1.898742437363 -0.386239141226 -0.061191 0.331992 -0.941295
0.194143787026 1.632269501686 -0.464268863201 -0.061191 0.331992 -0.941295
0.422524213791 1.837838292122 -0.406965702772 -0.061191 0.331992 -0.941295
0.376847535372 1.597503304482 -0.488453745842 -0.061191 0.331992 -0.941295
0.581975579262 1.869233369827 -0.406371831894 -0.061191 0.331992 -0.941295
0.353833705187 1.836454629898 -0.402953892946 -0.061191 0.331992 -0.941295
0.494728744030 1.763270616531 -0.437904983759 -0.061191 0.331992 -0.941295
0.277831912041 1.660592556000 -0.459793418646 -0.061191 0.331992 -0.941295
0.401170581579 1.647450089455 -0.472489923239 -0.061191 0.331992 -0.941295
0.256717741489 1.565145373344 -0.491961061954 -0.061191 0.331992 -0.941295
0.504694223404 1.886016130447 -0.395411789417 -0.061191 0.331992 -0.941295
0.619253873825 1.871883392334 -0.407881528139 -0.061191 0.331992 -0.941295
0.675386965275 1.806931734085 -0.430623769760 0.003740 0.330404 -0.943832
0.666761040688 1.721889495850 -0.460439801216 0.003740 0.330404 -0.943832
0.644997477531 2.084040403366 -0.327570348978 0.880373 0.316692 -0.353058
0.257624089718 1.242081522942 -0.496747314930 0.029133 -0.001005 -0.999575
0.091373428702 1.016716957092 -0.501554310322 0.029133 -0.001005 -0.999575
0.023285361007 1.335008502007 -0.503701746464 0.029133 -0.001005 -0.999575
0.396087348461 1.417534232140 -0.492738515139 0.029133 -0.001005 -0.999575
0.354431957006 1.494748950005 -0.494001090527 0.029133 -0.001005 -0.999575
0.098711796105 1.492720007896 -0.501545011997 0.029133 -0.001005 -0.999575
0.127620428801 1.260427117348 -0.500590980053 0.029133 -0.001005 -0.999575
0.047829300165 1.011465430260 -0.502836763859 0.029133 -0.001005 -0.999575
0.271017819643 1.285416960716 -0.496371030807 0.029133 -0.001005 -0.999575
0.280959635973 1.545804500580 -0.496191054583 0.029133 -0.001005 -0.999575
0.241779312491 1.408756971359 -0.497287362814 0.029133 -0.001005 -0.999575
0.057546667755 1.348248362541 -0.502696633339 0.029133 -0.001005 -0.999575
0.142934739590 1.055712461472 -0.500050067902 0.029133 -0.001005 -0.999575
0.104766219854 1.338919401169 -0.501299440861 0.029133 -0.001005 -0.999575
0.264771074057 1.473577380180 -0.496637284756 0.029133 -0.001005 -0.999575
0.093925863504 1.280863046646 -0.501594007015 0.029133 -0.001005 -0.999575
0.313869118690 1.512773752213 -0.495205700397 0.029133 -0.001005 -0.999575
0.067539677024 1.327710509300 -0.502392888069 0.029133 -0.001005 -0.999575
0.278234332800 1.529058337212 -0.496264159679 0.029133 -0.001005 -0.999575
0.290367782116 1.301841855049 -0.495807290077 0.029133 -0.001005 -0.999575
-0.019151836634 0.917965888977 -0.503250837326 -0.029192 0.001007 -0.999573
-0.239396631718 1.198913574219 -0.496569752693 -0.029192 0.001007 -0.999573
-0.155454754829 1.138004183769 -0.499094903469 -0.029192 0.001007 -0.999573
-0.145580977201 1.428814649582 -0.499255001545 -0.029192 0.001007 -0.999573
-0.370118409395 1.391913175583 -0.492592275143 -0.029192 0.001007 -0.999573
-0.009304583073 1.184195995331 -0.503421425819 -0.029192 0.001007 -0.999573
-0.320154935122 1.519348740578 -0.494020074606 -0.029192 0.001007 -0.999573
-0.150140434504 1.358170151711 -0.499151825905 -0.029192 0.001007 -0.999573
-0.071014329791 1.353793025017 -0.501507759094 -0.029192 0.001007 -0.999573
-0.460462123156 1.586850404739 -0.489815115929 -0.029192 0.001007 -0.999573
-0.466223210096 1.496301651001 -0.489685326815 -0.029192 0.001007 -0.999573
-0.279911220074 1.349725842476 -0.495295196772 -0.029192 0.001007 -0.999573
-0.158444881439 1.175573945045 -0.498988687992 -0.029192 0.001007 -0.999573
-0.427594840527 1.508206367493 -0.490828990936 -0.029192 0.001007 -0.999573
-0.228973254561 1.384746909142 -0.496794432402 -0.029192 0.001007 -0.999573
-0.052183508873 1.339358329773 -0.502074599266 -0.029192 0.001007 -0.999573
-0.482172548771 1.541231393814 -0.489190220833 -0.029192 0.001007 -0.999573
-0.352078229189 1.425431132317 -0.493113547564 -0.029192 0.001007 -0.999573
-0.177266448736 1.222190856934 -0.498407334089 -0.029192 0.001007 -0.999573
-0.144726395607 1.301376700401 -0.499338984489 -0.029192 0.001007 -0.999573
-0.443772137165 1.255728125572 -0.494576215744 -0.000997 0.020933 -0.999780
-0.299292474985 1.170518159866 -0.496430903673 -0.000997 0.020933 -0.999780
-0.484203159809 1.193867206573 -0.495842039585 -0.000997 0.020933 -0.999780
-0.313624680042 0.938167691231 -0.501261711121 -0.000997 0.020933 -0.999780
-0.119033873081 0.985385537148 -0.500386297703 -0.000997 0.020933 -0.999780
-0.521695256233 1.448326230049 -0.490522086620 -0.000997 0.020933 -0.999780
-0.296230345964 1.066722154617 -0.498594164848 -0.000997 0.020933 -0.999780
-0.246554046869 0.946076393127 -0.501134216785 -0.000997 0.020933 -0.999780
-0.522871375084 1.099296092987 -0.497790038586 -0.000997 0.020933 -0.999780
-0.552540838718 1.305153727531 -0.493486553431 -0.000997 0.020933 -0.999780
-0.434920787811 1.319016337395 -0.493263155222 -0.000997 0.020933 -0.999780
-0.520565927029 0.820173859596 -0.503604114056 -0.000997 0.020933 -0.999780
-0.546356320381 1.259185314178 -0.494447290897 -0.000997 0.020933 -0.999780
-0.168897569180 0.905441403389 -0.502023518085 -0.000997 0.020933 -0.999780
-0.102340757847 0.862025022507 -0.502964615822 -0.000997 0.020933 -0.999780
-0.484119355679 0.875472366810 -0.502472698689 -0.000997 0.020933 -0.999780
-0.391617536545 1.104986548424 -0.497744351625 -0.000997 0.020933 -0.999780
-0.190574198961 0.898192644119 -0.502162456512 -0.000997 0.020933 -0.999780
-0.462960690260 1.105065822601 -0.497703164816 -0.000997 0.020933 -0.999780
-0.183124423027 1.028176903725 -0.499459624290 -0.000997 0.020933 -0.999780
-0.213708937168 0.920980870724 -0.501675009727 -0.000997 0.020933 -0.999780
-0.345812082291 1.176056385040 -0.496289759874 -0.000997 0.020933 -0.999780
-0.577810406685 1.322757363319 -0.493105947971 -0.000997 0.020933 -0.999780
-0.330878853798 1.088600635529 -0.498119324446 -0.000997 0.020933 -0.999780
-0.358007758856 0.914701700211 -0.501725733280 -0.000997 0.020933 -0.999780
-0.138914644718 1.019259333611 -0.499669909477 -0.000997 0.020933 -0.999780
-0.225727438927 0.575293064117 -0.503841340542 -0.000978 -0.000978 -0.999999
-0.168145239353 0.782722115517 -0.503885686398 -0.000978 -0.000978 -0.999999
-0.631167590618 -0.234017401934 -0.503532886505 -0.000978 -0.000978 -0.999999
-0.325470089912 0.499024510384 -0.503766119480 -0.000978 -0.000978 -0.999999
-0.500182390213 0.150902926922 -0.503633201122 -0.000978 -0.000978 -0.999999
-0.624260962009 0.407111793756 -0.503541409969 -0.000978 -0.000978 -0.999999
-0.511062502861 0.315177440643 -0.503625869751 -0.000978 -0.000978 -0.999999
-0.606786370277 0.695410490036 -0.503556013107 -0.000978 -0.000978 -0.999999
-0.638971269131 -0.016312612221 -0.503528118134 -0.000978 -0.000978 -0.999999
-0.617518246174 -0.575587391853 -0.503541350365 -0.000978 -0.000978 -0.999999
-0.464648574591 -0.093153715134 -0.503658592701 -0.000978 -0.000978 -0.999999
-0.429988861084 -0.204505145550 -0.503684043884 -0.000978 -0.000978 -0.999999
-0.077659726143 0.747964382172 -0.503953397274 -0.000978 -0.000978 -0.999999
-0.310356765985 0.287450671196 -0.503776371479 -0.000978 -0.000978 -0.999999
-0.462160974741 0.038769781590 -0.503661155701 -0.000978 -0.000978 -0.999999
-0.607918798923 -0.885422825813 -0.503546953201 -0.000978 -0.000978 -0.999999
-0.466356605291 -0.292980372906 -0.503656268120 -0.000978 -0.000978 -0.999999
-0.510998308659 0.584211051464 -0.503627359867 -0.000978 -0.000978 -0.999999
-0.572264134884 0.076342314482 -0.503578722477 -0.000978 -0.000978 -0.999999
-0.175590872765 0.461262404919 -0.503878414631 -0.000978 -0.000978 -0.999999
-0.122161626816 0.656833887100 -0.503919482231 -0.000978 -0.000978 -0.999999
-0.487269014120 -0.155565440655 -0.503641307354 -0.000978 -0.000978 -0.999999
-0.374883323908 0.479677975178 -0.503728926182 -0.000978 -0.000978 -0.999999
-0.084580779076 0.656449556351 -0.503947734833 -0.000978 -0.000978 -0.999999
-0.522493898869 -0.170798599720 -0.503614723682 -0.000978 -0.000978 -0.999999
-0.614021360874 0.507289826870 -0.503549575806 -0.000978 -0.000978 -0.999999
-0.485752850771 0.415411651134 -0.503645360470 -0.000978 -0.000978 -0.999999
-0.486985206604 0.444993525743 -0.503644645214 -0.000978 -0.000978 -0.999999
-0.612736642361 0.340028703213 -0.503549695015 -0.000978 -0.000978 -0.999999
-0.074606418610 0.767894923687 -0.503955781460 -0.000978 -0.000978 -0.999999
-0.657219171524 -0.680193841457 -0.503511011600 -0.000978 -0.000978 -0.999999
-0.406180590391 0.179085731506 -0.503703892231 -0.000978 -0.000978 -0.999999
-0.281554102898 0.113644123077 -0.503797054291 -0.000978 -0.000978 -0.999999
-0.299170643091 0.634620308876 -0.503786563873 -0.000978 -0.000978 -0.999999
-0.262532025576 0.680341601372 -0.503814339638 -0.000978 -0.000978 -0.999999
-0.572138726711 0.602292358875 -0.503581523895 -0.000978 -0.000978 -0.999999
-0.404243916273 0.053887724876 -0.503704667091 -0.000978 -0.000978 -0.999999
-0.463799268007 0.362179338932 -0.503661572933 -0.000978 -0.000978 -0.999999
-0.413639724255 0.412310242653 -0.503699541092 -0.000978 -0.000978 -0.999999
-0.384724587202 0.560475349426 -0.503722012043 -0.000978 -0.000978 -0.999999
-0.448034763336 0.168658256531 -0.503672420979 -0.000978 -0.000978 -0.999999
-0.500423312187 0.701969325542 -0.503635883331 -0.000978 -0.000978 -0.999999
-0.217758774757 0.364078879356 -0.503846228123 -0.000978 -0.000978 -0.999999
-0.461757212877 0.580744981766 -0.503664255142 -0.000978 -0.000978 -0.999999
-0.469515442848 0.783517956734 -0.503659486771 -0.000978 -0.000978 -0.999999
-0.472294509411 -0.008072376251 -0.503653287888 -0.000978 -0.000978 -0.999999
-0.535274803638 0.119832843542 -0.503606736660 -0.000978 -0.000978 -0.999999
-0.405670255423 0.064467132092 -0.503703653812 -0.000978 -0.000978 -0.999999
-0.197042256594 0.723017275333 -0.503863692284 -0.000978 -0.000978 -0.999999
-0.157081305981 0.545065283775 -0.503892719746 -0.000978 -0.000978 -0.999999
-0.603575170040 0.278687894344 -0.503556251526 -0.000978 -0.000978 -0.999999
-0.412019431591 0.543728470802 -0.503701388836 -0.000978 -0.000978 -0.999999
-0.433165729046 0.716147780418 -0.503686428070 -0.000978 -0.000978 -0.999999
-0.304540336132 0.092324912548 -0.503779709339 -0.000978 -0.000978 -0.999999
-0.593645453453 0.326655536890 -0.503563940525 -0.000978 -0.000978 -0.999999
-0.358807474375 0.478296935558 -0.503740966320 -0.000978 -0.000978 -0.999999
-0.320259302855 0.050679862499 -0.503767728806 -0.000978 -0.000978 -0.999999
-0.203913152218 0.750939130783 -0.503858685493 -0.000978 -0.000978 -0.999999
-0.600660622120 0.518499374390 -0.503559708595 -0.000978 -0.000978 -0.999999
-0.380456537008 -0.186711311340 -0.503721237183 -0.000978 -0.000978 -0.999999
-0.666027069092 0.521552205086 -0.503507852554 -0.000978 -0.000978 -0.999999
-0.642762482166 0.090858399868 -0.503525614738 -0.000978 -0.000978 -0.999999
-0.673395514488 -0.483414292336 -0.503499388695 -0.000978 -0.000978 -0.999999
-0.640675187111 0.192969977856 -0.503527581692 -0.000978 -0.000978 -0.999999
-0.660039901733 -0.049270927906 -0.503511250019 -0.000978 -0.000978 -0.999999
-0.666673362255 0.783161997795 -0.503508031368 -0.000978 -0.000978 -0.999999
-0.683399796486 0.478862643242 -0.503493666649 -0.000978 -0.000978 -0.999999
-0.650445282459 -0.039518535137 -0.503519058228 -0.000978 -0.000978 -0.999999
-0.682027459145 0.627308070660 -0.503495156765 -0.000978 -0.000978 -0.999999
-0.737508416176 0.851563096046 -0.502151727676 -0.001016 0.041673 -0.999131
-0.755228400230 0.645124435425 -0.494883596897 -0.150465 0.003344 -0.988610
-0.713281571865 0.676611304283 -0.501138389111 -0.150465 0.003344 -0.988610
-0.745503306389 0.219407558441 -0.497451782227 -0.176775 0.005702 -0.984235
-0.727283060551 0.002681672573 -0.501816332340 -0.176775 0.005702 -0.984235
-0.775900602341 -0.887152314186 -0.501883268356 -0.122260 0.014319 -0.992395
-0.783805191517 -0.742825746536 -0.499309569597 -0.093237 0.009645 -0.995597
-0.765557169914 -0.011625113897 -0.495933771133 -0.109478 0.005420 -0.993974
-0.752637147903 -0.437992632389 -0.499843120575 -0.109478 0.005420 -0.993974
-0.793803691864 0.063336759806 -0.492841124535 -0.095161 0.005346 -0.995448
