-0.071190215647 -1.168254613876 0.262952834368 -0.009854 -0.117153 0.993065
-0.434592932463 -1.142377734184 0.254781961441 -0.075394 -0.124110 0.989400
-0.503754019737 -1.161506414413 0.247195109725 -0.067883 -0.118507 0.990630
-0.557635426521 -1.143498778343 0.245370090008 -0.097748 -0.118946 0.988078
-0.570152640343 -1.497778534889 0.202431097627 -0.053059 -0.111763 0.992317
-0.558114051819 -1.605054259300 0.186686739326 -0.093618 -0.168998 0.981160
-0.487973272800 -1.728352308273 0.169812753797 -0.053044 -0.168562 0.984263
-0.477437585592 -1.849037051201 0.142352908850 -0.068536 -0.240499 0.968227
-0.410402178764 -1.921582341194 0.129212126136 -0.073895 -0.239219 0.968150
-0.387265622616 -2.023834943771 0.099429860711 -0.054870 -0.297317 0.953201
-0.340972542763 -2.073011636734 0.087640173733 -0.122560 -0.362171 0.924019
-0.010077498853 -2.122699260712 0.094175599515 -0.027168 -0.366118 0.930172
-0.146618857980 -2.011103153229 0.125461488962 -0.031224 -0.293504 0.955448
-0.183123871684 -2.050490856171 0.112383499742 -0.026107 -0.292151 0.956016
-0.191775798798 -2.011893272400 0.123820796609 -0.103928 -0.290736 0.951142
-0.270854055882 -1.991072416306 0.121598608792 -0.103928 -0.290736 0.951142
-0.293337404728 -1.977013826370 0.123508222401 -0.095559 -0.291912 0.951660
-0.351979136467 -1.924982666969 0.133037909865 -0.081459 -0.234351 0.968733
-0.391456663609 -1.741699576378 0.173642829061 -0.073286 -0.176607 0.981549
-0.524904549122 -1.568513035774 0.195407524705 -0.065800 -0.175865 0.982213
-0.494026094675 -1.518726348877 0.204369947314 -0.053376 -0.119244 0.991429
-0.588450670242 -1.379608750343 0.214927583933 -0.075264 -0.119264 0.990006
-0.581569015980 -1.288192987442 0.226237237453 -0.074940 -0.116446 0.990366
-0.602035343647 -1.213551402092 0.233427643776 -0.082567 -0.117454 0.989640
-0.445752561092 -1.380349397659 0.224370598793 -0.062870 -0.117738 0.991053
-0.437285512686 -1.485969901085 0.211731567979 -0.063265 -0.123078 0.990378
-0.425519704819 -1.465811491013 0.214964449406 -0.055987 -0.124543 0.990633
-0.313937544823 -1.734149694443 0.179607674479 -0.057878 -0.168910 0.983931
-0.296882033348 -1.916184425354 0.139745175838 -0.070840 -0.229918 0.970628
-0.190526306629 -1.928575634956 0.146379306912 -0.020293 -0.230389 0.972887
-0.139320001006 -1.828750014305 0.171215623617 -0.025241 -0.231980 0.972393
-0.051410783082 -1.963642597198 0.140943393111 -0.017897 -0.232659 0.972394
-0.016768995672 -2.070443630219 0.110625229776 -0.021121 -0.294457 0.955431
-0.004353292286 -1.822779297829 0.175464034081 -0.017897 -0.232659 0.972394
-0.072304911911 -1.684118628502 0.198552131653 -0.014815 -0.167522 0.985757
-0.128163084388 -1.721072077751 0.191376343369 -0.017138 -0.165672 0.986032
-0.152563422918 -1.791287302971 0.179245114326 -0.014787 -0.164934 0.986194
-0.215735867620 -1.701297879219 0.192034468055 -0.075266 -0.166063 0.983239
-0.211807772517 -1.772316694260 0.180406004190 -0.075266 -0.166063 0.983239
-0.308020561934 -1.652641773224 0.193648591638 -0.050478 -0.165522 0.984913
-0.345041662455 -1.511142373085 0.213103204966 -0.041666 -0.118242 0.992110
-0.390186071396 -1.523363947868 0.209757417440 -0.034686 -0.117485 0.992469
-0.448654770851 -1.260259270668 0.239068508148 -0.070455 -0.123584 0.989830
-0.422587543726 -1.257623910904 0.240790292621 -0.016494 -0.117655 0.992918
-0.323202669621 -1.347874283791 0.233119994402 -0.037003 -0.117737 0.992355
-0.301697015762 -1.383928894997 0.229666963220 -0.036931 -0.115268 0.992648
-0.220831274986 -1.565170884132 0.213445097208 -0.062886 -0.115482 0.991317
-0.215911358595 -1.468496084213 0.225030377507 -0.062886 -0.115482 0.991317
-0.189617052674 -1.514601111412 0.220986798406 -0.009835 -0.114743 0.993347
-0.119001820683 -1.535025119781 0.219396457076 -0.012043 -0.117150 0.993041
-0.095477476716 -1.432453036308 0.231719464064 -0.009854 -0.117153 0.993065
-0.047065094113 -1.626769423485 0.208600625396 -0.014815 -0.167522 0.985757
-0.086736783385 -1.421622157097 0.233085110784 -0.009854 -0.117153 0.993065
-0.093837112188 -1.288357734680 0.248626649380 -0.009854 -0.117153 0.993065
-0.116386882961 -1.315249919891 0.245165899396 -0.014264 -0.117402 0.992982
-0.153822809458 -1.374304771423 0.237742617726 -0.012047 -0.114990 0.993294
-0.220527678728 -1.319166541100 0.242150858045 -0.062886 -0.115482 0.991317
-0.292271077633 -1.313792705536 0.238226950169 -0.062886 -0.115482 0.991317
-0.070528201759 -1.304839968681 0.246951237321 -0.009854 -0.117153 0.993065
0.149278402328 -1.237506985664 0.253307163715 0.016498 -0.115485 0.993172
0.122176297009 -1.309855580330 0.245342910290 0.016498 -0.115485 0.993172
0.132500305772 -1.453752875328 0.228403598070 0.016462 -0.115233 0.993202
0.143869623542 -1.567919373512 0.214944079518 0.012047 -0.114990 0.993294
0.125469788909 -1.639084935188 0.204892233014 0.021805 -0.166407 0.985816
0.133532747626 -1.793902277946 0.178717806935 0.017138 -0.165672 0.986032
0.147961497307 -1.836914777756 0.168496981263 0.030116 -0.232492 0.972132
0.157157242298 -1.879888176918 0.157982170582 0.025196 -0.229167 0.973061
0.105307206511 -2.043903112411 0.116382129490 0.036414 -0.292567 0.955552
0.191262200475 -1.993597745895 0.128590896726 0.031247 -0.291218 0.956146
0.176184862852 -2.110832452774 0.092219531536 0.045888 -0.365794 0.929564
0.131690263748 -2.269436836243 0.025662342086 0.058777 -0.452445 0.889853
0.080237030983 -2.265360593796 0.030593313277 0.041998 -0.453850 0.890088
0.274528831244 -2.030617237091 0.108638763428 0.109487 -0.288886 0.951082
0.236306667328 -1.961693048477 0.133964031935 0.109487 -0.288886 0.951082
0.285871207714 -1.904859185219 0.142695978284 0.094510 -0.228084 0.969044
0.224531635642 -1.827413558960 0.166884407401 0.094510 -0.228084 0.969044
0.271186739206 -1.673864364624 0.191795289516 0.077672 -0.163709 0.983446
0.214921325445 -1.586260914803 0.210821524262 0.077672 -0.163709 0.983446
0.281750202179 -1.565561532974 0.208953499794 0.065181 -0.113208 0.991431
0.290532469749 -1.312560915947 0.237518832088 0.065181 -0.113208 0.991431
0.215373456478 -1.350556254387 0.238099485636 0.065181 -0.113208 0.991431
0.371314316988 -1.176355123520 0.250395447016 0.036921 -0.117476 0.992389
0.294837057590 -1.284719586372 0.240576550364 0.036849 -0.115012 0.992680
0.371126621962 -1.309592962265 0.234745115042 0.039330 -0.117990 0.992236
0.296879172325 -1.479965567589 0.217930942774 0.039165 -0.115258 0.992563
0.381686508656 -1.411373019218 0.222339317203 0.043926 -0.116010 0.992276
0.333302080631 -1.611212730408 0.198238715529 0.055182 -0.163196 0.985049
0.347858846188 -1.746177077293 0.174604818225 0.062756 -0.166954 0.983965
0.327731192112 -1.791096925735 0.165957331657 0.076010 -0.228029 0.970683
0.386243402958 -1.880383968353 0.139683753252 0.086696 -0.232447 0.968737
0.300660431385 -2.063747406006 0.095585621893 0.101072 -0.290088 0.951648
0.261118322611 -2.285863637924 0.003566648811 0.148381 -0.445142 0.883081
0.378338187933 -2.252537250519 -0.001831572503 0.180686 -0.450982 0.874053
0.485503464937 -2.159183025360 0.032708227634 0.405447 -0.431088 0.806087
0.596958816051 -2.045270442963 0.038366962224 0.527439 -0.567882 0.631916
0.622875750065 -1.969060420990 0.064562223852 0.453645 -0.386320 0.803096
0.629379093647 -1.947341322899 0.073033556342 0.548355 -0.465019 0.695028
0.665627181530 -1.876441359520 0.082159630954 0.469884 -0.283791 0.835866
0.658309400082 -1.814278125763 0.115067698061 0.626684 -0.398498 0.669676
0.705388665199 -1.718373894691 0.109283879399 0.554727 -0.189975 0.810054
0.606967091560 -1.856872677803 0.129942268133 0.072006 -0.256443 0.963873
0.561903595924 -1.856880307198 0.131734743714 0.022419 -0.206494 0.978191
0.569450974464 -1.740331530571 0.159108340740 0.125444 -0.236662 0.963460
0.566537380219 -1.697912216187 0.168686345220 0.049975 -0.154574 0.986716
0.552995979786 -1.449994444847 0.207756474614 0.077587 -0.116959 0.990101
0.547519564629 -1.221344828606 0.235135912895 0.084876 -0.117431 0.989447
0.593526542187 -1.111813664436 0.243454575539 0.079263 -0.104535 0.991358
0.461260318756 -1.158691644669 0.248938262463 0.077901 -0.122084 0.989458
0.393248528242 -1.997852802277 0.105213351548 0.062698 -0.295575 0.953260
0.420228272676 -1.986157536507 0.107071556151 0.082243 -0.304170 0.949061
0.451332002878 -1.932280182838 0.121675431728 0.090535 -0.303096 0.948650
0.504266440868 -1.855253815651 0.136873245239 0.068577 -0.238149 0.968805
0.493435204029 -1.812584757805 0.148151651025 0.073895 -0.239219 0.968150
0.533610701561 -1.710453748703 0.168744534254 0.055395 -0.168541 0.984137
0.458491265774 -1.580135107040 0.196216195822 0.070758 -0.173897 0.982218
0.502810597420 -1.518075823784 0.202720731497 0.055781 -0.117254 0.991534
0.481274992228 -1.544822573662 0.200784191489 0.055781 -0.117254 0.991534
0.474153280258 -1.377357006073 0.221507549286 0.065555 -0.123060 0.990232
0.526364684105 -1.288058638573 0.228719159961 0.065294 -0.117988 0.990866
0.453493803740 -1.248825430870 0.238572284579 0.072940 -0.121567 0.989900
0.530727744102 -2.036582946777 0.081303179264 -0.013572 -0.292411 0.956196
0.676954388618 -1.353494286537 0.203455716372 0.226693 -0.116548 0.966968
0.672618448734 -1.469092845917 0.189840242267 0.118278 -0.149982 0.981588
0.714100182056 -1.529563069344 0.152287214994 0.767177 -0.208388 0.606641
0.745794713497 -1.395334243774 0.155249655247 0.775445 -0.152078 0.612827
0.744746446609 -1.323454380035 0.172774732113 0.746062 -0.126577 0.653735
0.769702315331 -0.941798925400 0.186447814107 0.876535 -0.076645 0.475196
0.775926887989 -0.935401797295 0.176599472761 0.829276 -0.054910 0.556136
-0.871533751488 -0.901946842670 -0.200038298965 -0.995979 -0.020458 -0.087215
-0.864093422890 -0.841921627522 -0.287265926600 -0.984525 -0.055416 -0.166249
-0.862155139446 -0.820426285267 -0.314924180508 -0.993796 -0.064007 -0.090958
-0.849605202675 -0.898065924644 -0.388891339302 -0.991428 -0.072208 -0.108885
-0.872594237328 -1.020497322083 -0.336508691311 -0.856174 0.515354 -0.037105
-0.878651738167 -1.071936488152 -0.381662517786 -0.978109 0.032089 -0.205605
-0.892081499100 -1.051929712296 -0.294023692608 -0.860057 0.510112 -0.009422
-0.889060735703 -1.046207427979 -0.255774408579 -0.860057 0.510112 -0.009422
-0.895604431629 -1.117997169495 -0.071451105177 -0.887573 0.388034 0.248282
-0.885563433170 -1.102808237076 -0.059232395142 -0.887573 0.388034 0.248282
-0.885251402855 -1.063061118126 -0.004451511428 -0.997860 -0.052183 -0.039403
-0.879917442799 -1.143928050995 0.067095920444 -0.996158 -0.044734 0.075285
-0.879360496998 -0.972480595112 0.078626193106 -0.977023 -0.003494 0.213105
-0.892522811890 -0.892826974392 0.036569025367 -0.978090 -0.117470 0.171877
-0.891098558903 -0.824299573898 0.085834443569 -0.989315 -0.068429 0.128739
-0.877717614174 -0.850182294846 -0.117428876460 -0.998605 -0.005153 -0.052558
-0.876060366631 -0.869010031223 -0.147199273109 -0.998605 -0.005153 -0.052558
-0.871610999107 -0.971506595612 -0.183761775494 -0.995772 -0.020498 -0.089544
-0.861028075218 -1.081132769585 0.131513491273 -0.929668 -0.016670 0.368020
-0.874011874199 -1.145745635033 0.095876157284 -0.929668 -0.016670 0.368020
-0.860593676567 -1.159142732620 0.131193786860 -0.945711 0.037012 0.322895
-0.882087230682 -1.208847284317 0.039617694914 -0.826601 0.268296 0.494720
-0.883547604084 -1.195943355560 0.027765767649 -0.861683 0.328334 0.386910
-0.888721942902 -1.369498014450 0.086055211723 -0.807688 0.055166 0.587024
-0.860859692097 -1.240509390831 0.126246631145 -0.814564 -0.046426 0.578214
-0.838122725487 -0.845267117023 0.173182621598 -0.613142 -0.076462 0.786264
-0.801020860672 -0.811246514320 0.178757265210 -0.063865 -0.090755 0.993823
-0.826772928238 -0.995970606804 0.163456469774 -0.075903 -0.056102 0.995536
-0.815854966640 -1.111019492149 0.157921731472 -0.075903 -0.056102 0.995536
-0.811136841774 -1.140906572342 0.156622692943 -0.075903 -0.056102 0.995536
-0.842347621918 -1.316950201988 0.139230906963 -0.333591 -0.055815 0.941064
-0.919212222099 -1.361071109772 0.042562332004 -0.997722 -0.020060 0.064403
-0.891611635685 -1.565294265747 0.076945014298 -0.572424 -0.122137 0.810811
-0.917967677116 -1.499282240868 0.046060137451 -0.998323 0.009350 -0.057136
-0.916839718819 -1.732319593430 -0.012950323522 -0.998961 0.034232 -0.030083
-0.886096000671 -1.764721035957 0.011216701008 -0.751265 -0.337665 0.567084
-0.852378427982 -1.786918044090 0.036264147609 -0.331610 -0.340695 0.879751
-0.782320916653 -1.842208862305 0.044767208397 -0.348846 -0.277593 0.895125
-0.735748350620 -1.925100564957 0.036902580410 -0.353669 -0.285024 0.890887
-0.840284168720 -1.883772611618 -0.008810350671 -0.830463 -0.357714 0.427050
-0.783010840416 -1.972331166267 0.006597202271 -0.390263 -0.180011 0.902934
-0.732264339924 -1.955552935600 0.032025355846 -0.399072 -0.161631 0.902561
-0.698625266552 -2.089300632477 0.005894789472 -0.209512 -0.201506 0.956818
-0.763273417950 -1.747693181038 0.084420442581 -0.249595 -0.164172 0.954332
-0.809114098549 -1.664450049400 0.088472813368 -0.173213 -0.276867 0.945168
-0.865880727768 -1.642800688744 0.076446719468 -0.576853 -0.242310 0.780081
-0.903782069683 -1.635919451714 0.049174647778 -0.614658 -0.268417 0.741719
-0.805059075356 -1.606902360916 0.105533108115 -0.156334 -0.197679 0.967721
-0.796391725540 -1.515392780304 0.125258088112 -0.014295 -0.117659 0.992951
-0.813536465168 -1.444673299789 0.133419692516 -0.014295 -0.117659 0.992951
-0.801038384438 -1.264768004417 0.150358676910 -0.062206 -0.057841 0.996386
-0.793682575226 -0.879284977913 0.177569121122 -0.878674 -0.053628 0.474401
-0.788547992706 -0.687170028687 0.273118376732 -0.704434 -0.357937 0.612906
-0.777499496937 -0.646453440189 0.304688602686 -0.683858 -0.315254 0.657991
-0.685612618923 -0.416161924601 0.451625376940 -0.283314 -0.367259 0.885920
-0.631667971611 -0.327744096518 0.505521535873 -0.267114 -0.374557 0.887895
-0.652045428753 -0.318690180779 0.502978265285 -0.267763 -0.320438 0.908638
-0.630194067955 -0.196563139558 0.557059347630 -0.362902 -0.338402 0.868209
-0.613278806210 -0.183889850974 0.566337525845 -0.359177 -0.180298 0.915688
-0.597346305847 -0.122110083699 0.580049633980 -0.208661 -0.131853 0.969059
-0.624544680119 0.027256177738 0.593916535378 -0.207255 -0.125879 0.970155
-0.643451333046 1.047145247459 0.526527285576 -0.285540 0.220836 0.932576
-0.637525081635 0.945101678371 0.552017509937 -0.296364 0.212090 0.931228
-0.590348064899 0.754870772362 0.592663109303 -0.179705 0.094131 0.979207
-0.642870426178 1.108962535858 0.509272098541 -0.284786 0.276112 0.917965
-0.634974360466 1.121280312538 0.508299708366 -0.311531 0.236879 0.920237
-0.612386047840 1.282948613167 0.474377185106 -0.321182 0.234765 0.917457
-0.710846006870 1.305969834328 0.418398827314 -0.552663 0.433168 0.711989
-0.727388858795 1.411023497581 0.364040374756 -0.734031 0.216625 0.643640
-0.653742074966 1.532422661781 0.387173235416 -0.602782 0.303802 0.737806
-0.721219718456 1.666674375534 0.321727663279 -0.472269 0.039469 0.880570
-0.766585111618 1.607220292091 0.282910704613 -0.778152 0.101116 0.619884
-0.787833511829 1.641389489174 0.253012180328 -0.729814 0.095448 0.676950
-0.782862484455 1.877011060715 0.192122355103 -0.647752 0.323064 0.689961
-0.833165049553 1.861170053482 0.131603583694 -0.898434 0.319278 0.301458
-0.849567592144 1.860840320587 0.073736093938 -0.904787 0.402284 0.139741
-0.904833674431 1.715938448906 0.046697780490 -0.942302 0.330519 0.053142
-0.928143203259 1.638618707657 0.038821384311 -0.927659 0.237242 0.288384
-0.940783619881 1.561656832695 0.051576904953 -0.986903 0.110448 0.117573
-0.947674930096 1.459076523781 0.052954770625 -0.985699 0.024154 0.166775
-0.935776233673 1.422348976135 0.124953299761 -0.985343 0.012559 0.170123
-0.948638975620 1.319595932961 0.067726410925 -0.985228 0.040712 0.166337
-0.945623517036 1.310220003128 0.087926402688 -0.985228 0.040712 0.166337
-0.949444115162 1.388405442238 0.032784685493 -0.998123 -0.032743 0.051755
-0.949852168560 1.431976675987 0.042045306414 -0.997722 -0.020060 0.064403
-0.946194291115 1.153388381004 0.019781935960 -0.999936 0.006937 0.008919
-0.946417510509 1.048340559006 -0.041962023824 -0.998961 0.034232 -0.030083
-0.938333690166 0.894764780998 -0.195450067520 -0.982631 -0.181969 0.036394
-0.914015173912 0.554411053658 -0.126650944352 -0.998600 -0.049043 -0.019826
-0.927086174488 0.805322706699 -0.095103003085 -0.998600 -0.049043 -0.019826
-0.917145371437 0.666853547096 -0.196855008602 -0.997090 -0.054975 -0.052819
-0.907876074314 0.474659770727 -0.174032807350 -0.997090 -0.054975 -0.052819
-0.908010601997 0.610796928406 -0.245204895735 -0.982125 -0.036462 -0.184663
-0.917586028576 0.738046884537 -0.219170346856 -0.982125 -0.036462 -0.184663
-0.901767015457 0.616319239140 -0.284157276154 -0.992660 -0.023291 -0.118676
-0.898603439331 0.540479600430 -0.295573443174 -0.992660 -0.023291 -0.118676
-0.919442653656 0.675682306290 -0.088121548295 -0.995795 -0.064776 0.064776
-0.907406687737 0.508525609970 -0.068363405764 -0.995795 -0.064776 0.064776
-0.922444880009 0.752833306789 -0.059416383505 -0.951732 -0.044473 0.303690
-0.936611294746 0.962372124195 -0.000954680145 -0.984933 -0.144808 0.094544
-0.935968518257 1.029626369476 0.052320852876 -0.984973 -0.079606 0.153271
-0.928879141808 1.004623770714 0.091047547758 -0.989714 -0.063517 0.128189
-0.927144408226 1.094162821770 0.135526552796 -0.993871 -0.052544 0.097263
-0.886709034443 0.738746166229 0.177525207400 -0.928964 -0.064935 0.364430
-0.904323101044 0.722995877266 0.129781961441 -0.928964 -0.064935 0.364430
-0.885321915150 0.601358652115 0.156899869442 -0.928964 -0.064935 0.364430
-0.910588741302 0.527949988842 0.043237321079 -0.985424 -0.055203 0.160910
-0.916629910469 0.592924952507 0.028547851369 -0.985424 -0.055203 0.160910
-0.917634606361 0.534877955914 0.002473141532 -0.985424 -0.055203 0.160910
-0.918698549271 0.611909329891 0.004747480154 -0.999668 -0.011119 0.023248
-0.920174777508 0.777220189571 0.020821034908 -0.999668 -0.011119 0.023248
-0.920139849186 0.732056021690 0.000712200999 -0.999668 -0.011119 0.023248
-0.913452625275 0.669341206551 -0.019302366301 -0.952459 -0.016143 -0.304240
-0.911771774292 0.547016561031 -0.020160673186 -0.892036 -0.003953 -0.451947
-0.919144213200 1.216976284981 0.166243016720 -0.793230 -0.035099 0.607909
-0.869830965996 0.729375541210 0.202044278383 -0.793230 -0.035099 0.607909
-0.884459376335 0.742744863033 0.183759540319 -0.793230 -0.035099 0.607909
-0.883116722107 0.813611149788 0.189647123218 -0.793230 -0.035099 0.607909
-0.907124280930 1.453874945641 0.169916465878 -0.805498 0.067006 0.588798
-0.860125958920 1.361660599709 0.230912849307 -0.531832 0.084124 0.842661
-0.864077329636 1.054966092110 0.226434156299 -0.705251 -0.035333 0.708077
-0.855880379677 0.729144454002 0.218023478985 -0.742478 -0.035356 0.668937
-0.872343003750 1.080198168755 0.218845009804 -0.742478 -0.035356 0.668937
-0.846743047237 0.987607836723 0.239450559020 -0.539947 -0.034523 0.840991
-0.820174753666 0.783760190010 0.248582720757 -0.549567 -0.034607 0.834733
-0.849074602127 1.324526786804 0.243788495660 -0.520283 0.054400 0.852260
-0.839573502541 1.705309152603 0.198460713029 -0.664323 0.143108 0.733618
-0.856645226479 1.630943655968 0.183836400509 -0.944468 0.107901 0.310382
-0.860649824142 1.623406529427 0.175288856030 -0.625429 0.303871 0.718680
-0.895772278309 1.562851905823 0.167201489210 -0.890265 0.222935 0.397150
-0.922307848930 1.628015279770 0.063703700900 -0.903071 0.216679 0.370826
-0.926614820957 1.494169354439 0.128637641668 -0.895828 0.153366 0.417098
-0.914772212505 1.437812328339 0.160982504487 -0.831648 0.075346 0.550167
-0.834271073341 1.773109555244 0.190129503608 -0.672544 0.139925 0.726709
-0.816604971886 1.548265218735 0.246611848474 -0.521483 0.132927 0.842844
-0.814827442169 1.414379954338 0.259461611509 -0.547156 0.051777 0.835428
-0.778244853020 1.309579610825 0.305734485388 -0.745764 0.076749 0.661775
-0.722819805145 1.491565108299 0.347446560860 -0.721412 0.061918 0.689733
-0.638790547848 1.642214775085 0.363760292530 -0.201794 0.350635 0.914513
-0.643463313580 1.429634809494 0.423209130764 -0.461101 0.241964 0.853721
0.605834245682 1.314408659935 0.446666836739 0.379399 0.306262 0.873075
0.555236101151 1.362659692764 0.455128192902 0.390604 0.228467 0.891757
0.684146225452 1.310796737671 0.398573935032 0.543298 0.443610 0.712767
0.674367070198 1.357343554497 0.382758319378 0.810584 0.417283 0.410888
0.654982924461 1.429166793823 0.373445451260 0.730040 0.233927 0.642121
0.750590860844 1.282062411308 0.274327099323 0.743832 0.092066 0.661996
0.755093753338 1.519818186760 0.250374883413 0.545426 0.063422 0.835756
0.731668889523 1.536716938019 0.262999296188 0.518927 0.145535 0.842338
0.718513250351 1.633588194847 0.258191019297 0.727463 0.111120 0.677089
0.678921997547 1.853612899780 0.246650025249 0.762757 0.266886 0.589044
0.698030412197 1.958070158958 0.173430025578 0.690683 0.326652 0.645179
0.670711338520 1.908130168915 0.229698300362 0.747129 0.299172 0.593544
0.755227208138 1.788697123528 0.197821527719 0.669003 0.156252 0.726650
0.770549833775 1.385728240013 0.250909924507 0.518322 0.066019 0.852633
0.792015671730 1.190193057060 0.244657486677 0.547910 -0.020598 0.836284
0.783966004848 0.999228298664 0.244989827275 0.547910 -0.020598 0.836284
0.783508718014 0.857837200165 0.241650268435 0.540298 -0.020518 0.841224
0.806307315826 1.182116389275 0.231670543551 0.705591 -0.018164 0.708386
0.821219503880 1.732635617256 0.089733272791 0.898682 0.236805 0.369180
0.838786602020 1.648714780807 0.101328685880 0.901605 0.270039 0.337917
0.857169806957 1.511515140533 0.137709021568 0.874806 0.124563 0.468186
0.861440241337 1.398475170135 0.155034646392 0.830827 0.093594 0.548605
0.833821952343 1.525495529175 0.174942001700 0.803309 0.082206 0.589862
0.819822072983 1.233878374100 0.218774437904 0.793678 -0.018007 0.608071
0.839544296265 1.083479046822 0.188555374742 0.793678 -0.018007 0.608071
0.858382999897 1.163407802582 0.166373923421 0.793678 -0.018007 0.608071
0.845053672791 0.939142286777 0.177054882050 0.793678 -0.018007 0.608071
0.815302550793 0.578547835350 0.204345360398 0.742366 -0.020971 0.669667
0.810772836208 1.069690704346 0.224174678326 0.742366 -0.020971 0.669667
0.868858158588 1.055047869682 0.134811431170 0.930379 -0.043061 0.364061
0.855866432190 1.021807074547 0.164032876492 0.930379 -0.043061 0.364061
0.843088567257 0.629879653454 0.149639263749 0.930379 -0.043061 0.364061
0.860894858837 0.772366464138 0.121226981282 0.930379 -0.043061 0.364061
0.865542531013 0.682227671146 0.078313127160 0.986489 -0.033460 0.160377
0.866933643818 0.618600606918 0.056466951966 0.986489 -0.033460 0.160377
0.872093379498 0.723285317421 -0.001145072281 0.999669 0.011096 0.023201
0.868323564529 0.913073956966 0.073496580124 0.999669 0.011096 0.023201
0.873280167580 0.591368556023 0.008128249086 0.999669 0.011096 0.023201
0.870952606201 0.814186036587 -0.004846624099 0.891934 0.014578 -0.451931
0.868390977383 0.840370118618 -0.037594571710 0.952344 -0.023777 0.304099
0.864475727081 0.521366238594 -0.081406503916 0.996951 -0.042034 0.065745
0.876797139645 0.825483262539 -0.072694823146 0.996951 -0.042034 0.065745
0.870933175087 0.643522083759 -0.151204735041 0.999430 -0.027620 -0.019436
0.875581085682 0.781569719315 -0.110305681825 0.999430 -0.027620 -0.019436
0.863300859928 0.482295662165 -0.201406404376 0.998123 -0.032743 -0.051755
0.866572618484 0.554625034332 -0.183811724186 0.998123 -0.032743 -0.051755
0.861477315426 0.555190443993 -0.243545755744 0.982460 -0.015008 -0.185871
0.861999213696 0.693748116493 -0.251628369093 0.982460 -0.015008 -0.185871
0.881906211376 0.891598224640 -0.176116198301 0.986347 -0.160730 0.035846
0.887256562710 0.961929440498 -0.069306388497 0.987680 -0.123903 0.095582
0.884691298008 0.964454531670 -0.039576955140 0.987680 -0.123903 0.095582
0.884195029736 1.195782780647 0.070739679039 0.985447 -0.028882 0.167514
0.876355528831 1.227793455124 0.124395564198 0.985764 -0.038316 0.163713
0.887277185917 1.329491734505 0.051735199988 0.997609 0.039562 -0.056670
0.892336845398 1.032648682594 -0.066516697407 0.997954 0.056089 -0.030690
0.886492133141 1.503457188606 -0.011382030323 0.998584 -0.028291 -0.045057
0.781248152256 1.878034114838 0.044931717217 0.934607 0.351621 0.053593
0.768549263477 1.895281672478 0.074429325759 0.895598 0.422882 0.138113
0.782643020153 1.848493218422 0.105296567082 0.870740 0.362681 0.332075
0.771732628345 1.764420866966 0.187671884894 0.941687 0.127983 0.311201
0.745467841625 1.904803991318 0.145370364189 0.814071 0.377563 0.441287
0.872320890427 1.166010856628 0.136655956507 0.994784 -0.029613 0.097614
0.878249824047 0.984483003616 0.048922628164 0.990852 -0.041995 0.128255
0.701973199844 1.531100749969 0.296696513891 0.776244 0.116806 0.619517
0.665739059448 1.495359539986 0.340526640415 0.719389 0.077026 0.690323
0.667348802090 1.519470810890 0.335093855858 0.591294 0.314175 0.742742
0.599821865559 1.525752067566 0.386293143034 0.594195 0.317226 0.739121
0.654987633228 1.598339438438 0.325208455324 0.470054 0.050706 0.881180
0.680302321911 1.610463261604 0.310996443033 0.470054 0.050706 0.881180
0.579581260681 0.911723375320 0.564008474350 0.299782 0.130399 0.945054
0.573918163776 0.686348974705 0.594911515713 0.178106 0.099494 0.978968
0.563491821289 0.608040392399 0.604597270489 0.081467 0.068075 0.994348
0.570297896862 0.306958943605 0.614503264427 -0.011228 -0.035726 0.999299
0.584209978580 0.076977401972 0.599103450775 0.122669 -0.139673 0.982570
0.558437824249 0.001831632107 0.594205975533 0.110267 -0.087053 0.990082
0.601466476917 0.016884732991 0.588838219643 0.209818 -0.120804 0.970249
0.599430501461 -0.241057723761 0.537073433399 0.322472 -0.349723 0.879606
0.644052684307 -0.419723272324 0.450209736824 0.292968 -0.362078 0.884912
0.694533109665 -0.545301258564 0.379919111729 0.404123 -0.366383 0.838122
0.735508143902 -0.578141033649 0.347023934126 0.418735 -0.307485 0.854467
0.729277551174 -0.669486880302 0.313676238060 0.529787 -0.253241 0.809441
0.747153818607 -0.747311830521 0.258026689291 0.711931 -0.340489 0.614183
0.784513354301 -0.802255928516 0.178134456277 0.066109 -0.088519 0.993878
0.814400076866 -1.238096833229 0.149591878057 0.078099 -0.053899 0.995488
0.791404843330 -1.189331412315 0.153958365321 0.064388 -0.055657 0.996372
0.802244007587 -1.433950066566 0.132760360837 0.016494 -0.117655 0.992918
0.845065772533 -1.558129787445 0.105541497469 0.161532 -0.192546 0.967901
0.742774248123 -1.627303719521 0.108628518879 0.252313 -0.158863 0.954516
0.835607051849 -1.738384127617 0.056626543403 0.337673 -0.334645 0.879767
0.749493837357 -1.832376718521 0.058790236712 0.357498 -0.268494 0.894486
0.732412517071 -1.901821732521 0.044381424785 0.359776 -0.276176 0.891228
0.680225789547 -1.979182720184 0.037058383226 0.181454 -0.336183 0.924151
0.704372763634 -2.088021039963 0.004368329421 0.154591 -0.241796 0.957933
0.659981906414 -2.055357217789 0.019455892965 0.135077 -0.250482 0.958652
0.903130590916 -1.746823072433 -0.004192401655 0.757267 -0.323165 0.567548
0.895652413368 -1.581337690353 0.069333314896 0.581943 -0.228121 0.780579
0.917084872723 -1.316914439201 0.021886942908 0.995928 0.083628 0.033668
0.863891422749 -1.003144145012 -0.327963262796 0.844210 0.534712 -0.037306
0.837415337563 -0.914353609085 -0.367864042521 0.992747 -0.050593 -0.109056
0.842201590538 -0.892558872700 -0.332890778780 0.994883 -0.042968 -0.091445
0.850125312805 -0.949744045734 -0.260714262724 0.985089 -0.035969 -0.168243
0.868028104305 -1.008630156517 -0.271013736725 0.848492 0.529123 -0.009473
0.889866709709 -1.043671727180 -0.267339885235 0.848492 0.529123 -0.009473
0.879930377007 -1.036306262016 -0.182963192463 0.870651 0.469483 0.146804
0.874550759792 -1.037754416466 -0.146723896265 0.870651 0.469483 0.146804
0.859665691853 -0.836403787136 -0.189786300063 0.995910 0.001063 -0.090344
0.859166741371 -0.901636362076 -0.196932360530 0.996315 0.001059 -0.085761
0.866507709026 -0.831524252892 -0.068029299378 0.998426 0.017736 -0.053208
0.867334544659 -0.957366585732 -0.092536188662 0.998426 0.017736 -0.053208
0.870555102825 -1.029329299927 -0.055421743542 0.998419 0.017773 -0.053319
0.872617483139 -1.033308625221 -0.033749274909 0.997844 0.003122 -0.065552
0.849843561649 -1.359259486198 0.129896074533 0.627369 -0.043902 0.777484
0.874787569046 -0.833883047104 0.086339846253 0.980434 -0.096217 0.171728
0.845118999481 -0.907981574535 0.148092225194 0.878847 -0.176939 0.443080
0.837167322636 -0.908229053020 0.156750202179 0.633516 -0.023774 0.773365
0.863224148750 -1.027603149414 0.103366121650 0.929954 0.003817 0.367656
0.869352579117 -1.099678158760 0.085290826857 0.976832 0.017675 0.213277
0.780375182629 -0.742166996002 0.188495993614 0.895622 -0.286659 0.340129
-0.782796800137 -0.875912129879 0.198576286435 -0.885632 -0.042044 0.462481
-0.464498758316 -0.111390858889 0.610080122948 -0.122200 -0.164168 0.978834
-0.331197321415 -0.188582852483 0.610714673996 -0.065165 -0.162320 0.984584
-0.294411063194 -0.231913849711 0.606170058250 -0.132110 -0.211633 0.968379
-0.261423140764 -0.180099040270 0.618888616562 -0.032190 -0.213408 0.976433
-0.236330613494 -0.185453295708 0.618454337120 -0.019978 -0.203303 0.978912
-0.238550484180 -0.079745270312 0.637561202049 -0.021348 -0.140445 0.989858
-0.362770408392 -0.004588873126 0.635858833790 -0.158173 -0.138246 0.977686
-0.414281159639 -0.087292842567 0.618891894817 -0.117818 -0.113058 0.986578
-0.507690429688 -0.025877129287 0.610180437565 -0.264507 -0.113360 0.957698
-0.559277355671 -0.083897255361 0.592907547951 -0.214043 -0.077946 0.973709
-0.519311845303 0.163080453873 0.623077034950 -0.271756 -0.035986 0.961693
-0.445942670107 0.072205483913 0.631950736046 -0.122084 -0.077901 0.989458
-0.325388789177 0.063714861870 0.648692071438 -0.174507 -0.096406 0.979925
-0.267329007387 0.035699989647 0.652317941189 -0.031811 -0.095434 0.994927
-0.119856938720 -0.165818497539 0.626963019371 -0.052319 -0.217793 0.974592
-0.121376618743 -0.229663372040 0.612572371960 -0.032030 -0.202855 0.978685
-0.029674962163 -0.183147713542 0.626539111137 -0.037416 -0.223291 0.974033
0.053531963378 -0.043803859502 0.649962007999 0.040247 -0.150638 0.987769
0.014238794334 0.019279479980 0.660991430283 0.041176 -0.103495 0.993777
-0.003172617406 0.073825359344 0.667533874512 0.045810 -0.106145 0.993295
0.067189283669 0.173004686832 0.673194706440 0.041618 -0.052289 0.997764
0.004811946303 0.206305071712 0.677617132664 0.043837 -0.054528 0.997549
0.048452548683 0.420942008495 0.680248379707 0.041673 0.001016 0.999131
-0.006498270202 0.587730407715 0.674041390419 0.034204 0.102613 0.994133
-0.003062509000 0.703395783901 0.661892950535 0.029723 0.104581 0.994072
0.040518559515 0.875237464905 0.636739969254 0.028381 0.146448 0.988811
0.013438723981 0.900221228600 0.633579611778 0.021470 0.148030 0.988750
0.050869781524 1.039996981621 0.600257933140 0.015692 0.254700 0.966893
0.041490867734 1.035583138466 0.601569652557 0.045181 0.235674 0.970781
-0.124308302999 0.982468962669 0.614551723003 -0.050865 0.251843 0.966431
-0.178284943104 0.971870422363 0.613897204399 -0.066175 0.243473 0.967648
-0.295313715935 0.984918296337 0.604652762413 -0.038000 0.251291 0.967165
-0.312754988670 1.017760276794 0.595200181007 -0.050865 0.251843 0.966431
-0.370972782373 1.038553953171 0.585512936115 -0.126854 0.219111 0.967419
-0.403791427612 0.984843373299 0.594591319561 -0.083062 0.214474 0.973191
-0.534502029419 1.011108398438 0.565481066704 -0.249465 0.200390 0.947423
-0.543711900711 0.971104323864 0.572307109833 -0.216018 0.226886 0.949663
-0.520771205425 0.277508735657 0.627328217030 -0.278277 -0.041180 0.959618
-0.422498792410 0.160550341010 0.641498327255 -0.125468 -0.039562 0.991309
-0.352265834808 0.250915378332 0.656296372414 -0.183977 -0.051039 0.981605
-0.229043558240 0.167269363999 0.665312170982 -0.039241 -0.049846 0.997986
-0.215353742242 0.056709982455 0.656160891056 -0.038705 -0.100633 0.994170
-0.092517189682 0.050648175180 0.662548065186 -0.038944 -0.105706 0.993635
-0.171700567007 0.221749559045 0.671376407146 -0.066432 -0.051185 0.996477
-0.218731001019 0.203888744116 0.667624592781 -0.043748 -0.052284 0.997674
-0.276423275471 0.356521546841 0.669383883476 -0.045917 -0.001020 0.998945
-0.417716801167 0.306044399738 0.647623777390 -0.127937 -0.001093 0.991782
-0.513633251190 0.409211635590 0.630446791649 -0.277438 -0.003635 0.960737
-0.533208429813 0.678730964661 0.613101363182 -0.258848 0.069447 0.963418
-0.545408010483 0.767148733139 0.602283477783 -0.260503 0.091112 0.961164
-0.488313794136 0.905822396278 0.599449098110 -0.206365 0.120274 0.971055
-0.437103599310 0.739920139313 0.626295804977 -0.115439 0.115439 0.986584
-0.418235898018 0.692532181740 0.632903397083 -0.114412 0.077430 0.990411
-0.451572626829 0.650830626488 0.632247984409 -0.121546 0.075243 0.989730
-0.473601043224 0.483331203461 0.638630151749 -0.124919 0.037138 0.991472
-0.338349133730 0.468782067299 0.659354507923 -0.181969 0.036394 0.982631
-0.367916733027 0.559737622738 0.650236308575 -0.172417 0.043397 0.984068
-0.223891839385 0.385778456926 0.671811640263 -0.045917 -0.001020 0.998945
-0.164194986224 0.232440978289 0.672453284264 -0.071067 -0.053574 0.996032
-0.044679682702 0.108139470220 0.670658588409 -0.043580 -0.106156 0.993394
-0.073752082884 0.259698003531 0.679175972939 -0.043837 -0.054528 0.997549
-0.092627704144 0.351820588112 0.680102348328 -0.041673 -0.001016 0.999131
-0.163317486644 0.376781105995 0.675704300404 -0.072063 -0.001044 0.997400
-0.161897137761 0.460768103600 0.674445152283 -0.073107 0.046919 0.996220
-0.232598528266 0.547737181187 0.665765821934 -0.043665 0.047925 0.997896
-0.292934745550 0.707788288593 0.649289071560 -0.047679 0.092032 0.994614
-0.308730334044 0.630752265453 0.654895722866 -0.152252 0.089913 0.984243
-0.371167182922 0.851059913635 0.621240139008 -0.150342 0.118562 0.981499
-0.428349673748 0.904495179653 0.607751548290 -0.110189 0.117298 0.986965
-0.293339341879 0.776550173759 0.640661716461 -0.042159 0.133315 0.990177
-0.215684637427 0.599186062813 0.663040518761 -0.040931 0.096243 0.994516
-0.124619595706 0.586494803429 0.670742511749 -0.073736 0.096425 0.992605
-0.119131922722 0.558762788773 0.672675371170 -0.070928 0.049104 0.996272
-0.032864004374 0.410207748413 0.682585239410 -0.041673 -0.001016 0.999131
-0.088063701987 0.682398796082 0.662593722343 -0.036416 0.100421 0.994278
-0.132727026939 0.701739192009 0.658555567265 -0.066782 0.100738 0.992669
-0.156235158443 0.742059946060 0.652585506439 -0.068976 0.139120 0.987870
-0.218277424574 0.892416238785 0.627352893353 -0.028282 0.139147 0.989868
-0.149787917733 0.865879774094 0.635268211365 -0.057007 0.145425 0.987726
-0.099241271615 0.742057025433 0.655812382698 -0.030729 0.144541 0.989022
-0.037732146680 0.683391869068 0.664142429829 -0.032000 0.102621 0.994206
0.143193960190 1.040539503098 0.596171379089 0.061015 0.245305 0.967524
0.144078344107 0.902687311172 0.627722799778 0.054561 0.145110 0.987910
0.124242067337 0.743668258190 0.651663184166 0.066473 0.141109 0.987760
0.114392250776 0.712895989418 0.655751705170 0.064513 0.102994 0.992588
0.115987062454 0.619672894478 0.665081679821 0.071464 0.098688 0.992549
0.137947857380 0.340755671263 0.674651384354 0.072063 0.001044 0.997400
0.093636892736 0.097969613969 0.665427625179 0.069330 -0.103427 0.992218
0.120762713253 -0.036952111870 0.647257328033 0.064508 -0.151300 0.986381
0.114466339350 -0.100034609437 0.638241708279 0.054561 -0.145110 0.987910
0.144665166736 -0.133237451315 0.630553543568 0.057306 -0.218252 0.974208
0.201855614781 -0.150111258030 0.624947428703 0.024733 -0.203751 0.978710
0.273975968361 -0.212617367506 0.608063340187 0.137561 -0.209556 0.968072
0.334010988474 -0.059522803873 0.627646982670 0.131337 -0.116878 0.984424
0.264609694481 0.002568095922 0.646642565727 0.160655 -0.135748 0.977631
0.297747969627 0.048446945846 0.645793199539 0.158648 -0.079920 0.984095
0.342387646437 0.185789257288 0.648318350315 0.174323 -0.038608 0.983931
0.302215367556 0.219765007496 0.656824529171 0.185879 -0.046174 0.981487
0.347869336605 0.389521777630 0.651554167271 0.183806 0.001142 0.982962
0.262281954288 0.347643077374 0.667608559132 0.183806 0.001142 0.982962
0.331171303988 0.466846197844 0.653178572655 0.182356 0.041177 0.982370
0.313614159822 0.534848868847 0.653519392014 0.172779 0.048190 0.983781
0.335125386715 0.627434253693 0.643687069416 0.169917 0.080741 0.982145
0.281241059303 0.629221379757 0.652823865414 0.149842 0.094700 0.984164
0.252281725407 0.641348302364 0.655787408352 0.045357 0.094033 0.994535
0.187371253967 0.628826558590 0.659882128239 0.038629 0.098227 0.994414
0.234800413251 0.814580678940 0.636680126190 0.039794 0.133027 0.990313
0.174274757504 0.807262659073 0.639801204205 0.025955 0.141058 0.989661
0.197476282716 0.954749822617 0.615476131439 0.033024 0.250740 0.967491
0.258118718863 0.831138253212 0.633061289787 0.122167 0.134263 0.983386
0.362833380699 0.813836276531 0.621360778809 0.105474 0.119696 0.987192
0.434237599373 0.737597882748 0.622475028038 0.112793 0.117542 0.986642
0.408580273390 0.609363615513 0.635769248009 0.119517 0.077744 0.989784
0.350722908974 0.514073312283 0.647767484188 0.122955 0.041737 0.991534
0.424426823854 0.509274184704 0.638798296452 0.125187 0.039473 0.991348
0.404162526131 0.395888119936 0.644243478775 0.127937 0.001093 0.991782
0.386972159147 0.228937923908 0.643789350986 0.130498 -0.039717 0.990653
0.431931763887 0.238519385457 0.638351500034 0.127703 -0.037294 0.991111
0.442959755659 -0.004826746881 0.620082676411 0.120196 -0.110676 0.986562
0.403502672911 -0.145432889462 0.606848478317 0.124730 -0.159309 0.979318
0.317449182272 -0.227876171470 0.602098822594 0.070045 -0.162647 0.984195
0.514339983463 -0.076721027493 0.595747947693 0.215963 -0.072810 0.973683
0.468430668116 0.095188573003 0.622096300125 0.274499 -0.072774 0.958830
0.509290695190 0.280136227608 0.619196116924 0.279961 -0.036084 0.959333
0.508392870426 0.677937507629 0.607888281345 0.270243 0.067244 0.960441
0.464970409870 0.692677974701 0.618538856506 0.257600 0.077407 0.963146
0.512223064899 0.791036605835 0.596747040749 0.258622 0.096501 0.961146
0.440861016512 0.875301480293 0.603700041771 0.204314 0.125634 0.970810
0.482789427042 0.932995796204 0.585970222950 0.210697 0.229728 0.950175
0.391140490770 1.054164767265 0.577551782131 0.103925 0.206598 0.972891
0.177294418216 0.517606079578 0.667960584164 0.043660 0.050049 0.997792
0.176706835628 0.397118538618 0.672107934952 0.045917 0.001020 0.998945
0.180782005191 0.304971277714 0.671967029572 0.045917 0.001020 0.998945
0.187961339951 0.276392281055 0.670802414417 0.043753 -0.050156 0.997783
0.189303919673 0.166931003332 0.665231823921 0.041450 -0.047827 0.997995
0.184508562088 0.037658389658 0.653699398041 0.041003 -0.100846 0.994057
0.172657400370 -0.111043825746 0.633387506008 0.033077 -0.144856 0.988900
0.259148597717 -0.065030157566 0.637681543827 0.023654 -0.138543 0.990074
-0.799117088318 -0.613564550877 0.185651928186 0.999941 0.010858 0.000987
-0.808201253414 0.217795521021 0.227577611804 0.999941 0.010858 0.000987
0.780511379242 -0.628699064255 0.185262233019 0.999941 0.010858 0.000987
0.774705052376 -0.097320735455 0.216975867748 0.999941 0.010858 0.000987
0.768060028553 2.019968509674 -0.197867721319 0.934570 0.343611 0.092254
0.852419614792 1.777269840240 -0.106309302151 0.913509 0.380278 0.144534
0.793584704399 1.936908721924 -0.032834418118 0.914630 0.244190 0.322216
0.791409790516 1.958950281143 -0.050393030047 0.962642 0.264821 -0.056478
0.782060027122 1.974081158638 -0.138104125857 0.962642 0.264821 -0.056478
0.765959739685 1.974173903465 0.003958823159 0.720741 0.206148 0.661842
0.818346202374 1.793142318726 0.011146871373 0.791427 0.296587 0.534491
0.873788297176 1.671440124512 -0.214869618416 0.992820 0.073752 -0.094176
0.825407564640 1.750089526176 -0.441982328892 0.976937 0.054341 -0.206497
0.819940328598 1.783053278923 -0.463927268982 0.978292 0.022368 -0.206018
0.828234314919 1.829579830170 -0.324890464544 0.953354 0.271819 -0.131268
0.804548263550 1.875589609146 -0.379508167505 0.923234 0.371197 -0.099258
0.793687164783 1.894113659859 -0.430994898081 0.954733 0.292886 -0.051984
0.776972830296 1.956893324852 -0.389548778534 0.956866 0.280527 -0.075576
0.805723309517 1.880990505219 -0.348741829395 0.930687 0.339557 -0.136098
0.818677365780 1.873306274414 -0.269918441772 0.938856 0.333314 -0.086316
0.851784884930 1.774541974068 -0.257661372423 0.957978 0.264584 -0.110787
0.859670281410 1.768158674240 -0.146615415812 0.975710 0.219037 -0.003514
0.842592597008 1.822722077370 -0.204731568694 0.913514 0.394253 0.100280
0.772769987583 2.003676891327 -0.272713422775 0.964796 0.249757 -0.082407
0.734032571316 2.094581842422 -0.412825345993 0.952560 0.292396 -0.084470
0.721517026424 2.145259857178 -0.326093614101 0.923189 0.384343 0.001277
0.760821998119 2.055043458939 -0.087160669267 0.959450 0.264720 -0.096849
0.766826331615 2.036459922791 -0.034081865102 0.890345 0.235549 0.389618
0.727820813656 2.143795728683 -0.049141086638 0.923317 0.382648 -0.032649
0.713281393051 2.166556835175 -0.194038838148 0.922931 0.383573 -0.032728
0.670693993568 2.237143278122 -0.374210089445 0.831841 0.555013 -0.001357
0.428859472275 2.314377784729 -0.003737279912 0.124573 0.546654 0.828041
0.407587289810 2.328224420547 -0.009661037475 0.124573 0.546654 0.828041
0.092007070780 2.402013301849 -0.026517368853 0.057626 0.549555 0.833468
0.030260661617 2.416251182556 -0.034590337425 -0.006790 0.549978 0.835152
-0.038114540279 2.381294488907 -0.012084584683 -0.006790 0.549978 0.835152
-0.113222829998 2.386236667633 -0.015875924379 -0.006790 0.549978 0.835152
-0.126467019320 2.422521591187 -0.039842158556 -0.006790 0.549978 0.835152
-0.174988985062 2.390029430389 -0.020434202626 -0.069360 0.547799 0.833730
-0.258576542139 2.408888578415 -0.039780236781 -0.069360 0.547799 0.833730
-0.054695449769 2.426643610001 -0.047872737050 -0.010858 0.999941 0.000987
-0.123080134392 2.425896406174 -0.101046048105 -0.010858 0.999941 0.000987
0.053007900715 2.427820444107 -0.067567333579 -0.010858 0.999941 0.000987
0.109236322343 2.423775672913 -0.044701494277 0.104070 0.994569 0.001073
0.412454366684 2.363037824631 -0.201532468200 0.279341 0.959690 -0.031038
0.396067053080 2.370726823807 -0.143456697464 0.221771 0.971032 -0.088959
0.372357577085 2.384970188141 -0.046416424215 0.221771 0.971032 -0.088959
0.496082186699 2.322802543640 -0.019436158240 0.124573 0.546654 0.828041
0.615521430969 2.288192749023 -0.034534510225 0.327423 0.522280 0.787412
0.670089662075 2.226606607437 -0.024808082730 0.635499 0.428670 0.642171
0.556752622128 2.320242643356 -0.281139016151 0.346924 0.936041 0.058912
0.522796034813 2.337691783905 -0.114764712751 0.105377 0.224720 0.968709
0.492283731699 2.345024108887 -0.184307947755 0.221233 0.971175 -0.088743
0.449503690004 2.353055238724 -0.290209054947 0.223492 0.974705 0.001170
0.418614536524 2.360120534897 -0.293190270662 0.223492 0.974705 0.001170
0.208000808954 2.394592046738 -0.335082292557 -0.709863 -0.006946 0.704306
0.175768703222 2.395555019379 -0.380257785320 0.219528 0.639902 -0.736432
-0.100512035191 2.397926807404 -0.385852813721 -0.006915 0.637581 -0.770352
-0.358397185802 2.389456272125 -0.201762437820 0.483602 0.003997 -0.875279
-0.387679338455 2.402997970581 -0.236446902156 -0.763803 0.645448 0.001376
-0.470611572266 2.356149435043 -0.223458737135 -0.195091 0.980186 0.034289
-0.462678700686 2.364100217819 -0.187785387039 -0.300201 0.953359 -0.031402
-0.374974459410 2.395504474640 -0.086950346828 -0.437266 0.899331 0.001305
-0.368572592735 2.395976543427 -0.040448617190 -0.069360 0.547799 0.833730
-0.427096188068 2.328873872757 -0.006042515859 -0.136857 0.543012 0.828498
-0.464956283569 2.371026515961 -0.076746083796 -0.241906 0.966356 -0.087390
-0.461753040552 2.360260009766 -0.308207005262 -0.245605 0.969369 0.001186
-0.622645199299 2.318257808685 -0.154554665089 -0.483792 0.869691 -0.097893
-0.741774380207 2.233027458191 -0.265064001083 -0.659967 0.751283 -0.004151
-0.748385012150 2.226495027542 -0.412554681301 -0.844105 0.536176 -0.001351
-0.779082000256 2.178745508194 -0.370082676411 -0.840871 0.541234 -0.001350
-0.792084991932 2.150036573410 -0.275912523270 -0.931838 0.362873 -0.001264
-0.785645306110 2.166475296021 -0.412768214941 -0.931838 0.362873 -0.001264
-0.817145884037 2.085659742355 -0.257882475853 -0.931838 0.362873 0.001264
-0.805690407753 2.093679189682 -0.430871516466 -0.958990 0.270879 -0.083446
-0.810039937496 2.080804586411 -0.422866761684 -0.958990 0.270879 -0.083446
-0.845796406269 2.001098394394 -0.263039201498 -0.969809 0.229000 -0.083842
-0.851386487484 1.949436306953 -0.358627080917 -0.962514 0.259968 -0.077356
-0.863715350628 1.891198873520 -0.413554012775 -0.960768 0.272532 -0.051492
-0.877912044525 1.858346223831 -0.371741592884 -0.931836 0.349270 -0.098443
-0.878590703011 1.873296499252 -0.325118035078 -0.937483 0.319751 -0.137425
-0.884464263916 1.882762074471 -0.246353447437 -0.946037 0.311837 -0.088156
-0.904882013798 1.826949357986 -0.204461127520 -0.922831 0.372131 0.099508
-0.883851110935 1.883964061737 -0.188691094518 -0.963184 0.245618 -0.109307
-0.924856007099 1.746573328972 -0.088559247553 -0.921429 0.361044 0.143581
-0.830879330635 2.049630165100 -0.227933704853 -0.941489 0.324423 0.091368
-0.866119623184 1.939777731895 -0.056363411248 -0.968119 0.244199 -0.055782
-0.876770377159 1.886084079742 -0.106143981218 -0.968119 0.244199 -0.055782
-0.789393424988 2.158025026321 -0.198092713952 -0.930908 0.363818 -0.032368
-0.789968132973 2.165377140045 -0.039008826017 -0.793698 0.310163 0.523300
-0.814606964588 2.105931043625 -0.041168395430 -0.810376 0.314356 0.494440
-0.770844221115 2.146507024765 -0.003256374039 -0.646945 0.414111 0.640292
-0.624496459961 2.318202257156 -0.035649776459 -0.260779 0.529365 0.807321
-0.694658339024 2.264436960220 -0.027142820880 -0.338460 0.514908 0.787601
-0.618242621422 2.281103134155 -0.009348459542 -0.260779 0.529365 0.807321
-0.547589421272 2.263297796249 0.009552661330 -0.093773 0.373734 0.922783
-0.393437564373 2.311157941818 0.006230050698 -0.059183 0.356410 0.932453
-0.285725891590 2.349250555038 -0.002854464576 -0.069360 0.547799 0.833730
-0.081140734255 2.345413923264 0.004927166738 -0.003761 0.337207 0.941423
0.174582585692 2.322397232056 0.010944339447 0.037758 0.363256 0.930924
0.261971503496 2.320675849915 0.008220550604 0.051140 0.357982 0.932327
0.336725115776 2.323605298996 0.002341984538 0.099043 0.436625 0.894175
-0.938217461109 1.696027517319 -0.068554848433 -0.986165 0.151627 0.066998
-0.939033925533 1.704786419868 -0.174332514405 -0.980307 0.197447 -0.003464
-0.913923382759 1.766899585724 -0.306074917316 -0.963331 0.243734 -0.112195
-0.927913010120 1.695320248604 -0.290108084679 -0.979985 0.068707 -0.186836
-0.942483484745 1.657052636147 -0.041988790035 -0.986317 0.151651 0.064657
-0.950535953045 1.593291401863 -0.048620354384 -0.986949 0.093376 0.131199
-0.642141282558 2.302057027817 -0.113464131951 -0.129749 0.255566 0.958045
-0.265731036663 2.411418914795 -0.083243057132 -0.125512 0.992091 0.001091
-0.164513945580 2.427210569382 -0.113476894796 -0.134824 0.918748 0.371113
-0.076324656606 2.422863721848 -0.124286353588 -0.041222 0.697926 -0.714983
-0.121941767633 2.400295734406 -0.170171439648 -0.006945 0.715375 0.698706
0.088595069945 2.389944553375 -0.179514005780 0.000978 0.000978 -0.999999
-0.160610109568 2.396691560745 -0.179514005780 0.000978 0.000978 -0.999999
-0.078342266381 2.372991323471 -0.223490521312 -0.010858 0.999941 0.000987
-0.147007316351 2.372241020203 -0.244584828615 -0.010858 0.999941 0.000987
-0.250502675772 2.371109962463 -0.219348013401 -0.010858 0.999941 0.000987
0.075683370233 2.374674320221 -0.237655028701 -0.010858 0.999941 0.000987
0.133411750197 2.375305175781 -0.289722114801 -0.010858 0.999941 0.000987
