-0.748167514801 0.013309240341 -0.955766022205 0.000983 0.006883 -0.999976
-0.774938225746 -0.537586808205 -0.959055662155 0.000983 0.006883 -0.999976
-0.845910191536 0.312484681606 -0.953979551792 0.000983 0.006883 -0.999976
-0.752980411053 -0.101960420609 -0.956454336643 0.000983 0.006883 -0.999976
-0.799313306808 0.442910492420 -0.953200697899 0.000983 0.006883 -0.999976
-0.837490081787 -0.096815228462 -0.956423640251 0.000983 0.006883 -0.999976
-0.820035874844 -1.156664848328 -0.962752401829 0.000983 0.006883 -0.999976
-0.774144053459 1.107783317566 -0.949230492115 0.000983 0.006883 -0.999976
-0.671202003956 0.328904867172 -0.953881502151 0.000983 0.006883 -0.999976
-0.611174643040 0.802113056183 -0.951055765152 0.000983 0.006883 -0.999976
-0.704722464085 0.087926626205 -0.955320477486 0.000983 0.006883 -0.999976
-0.829888045788 -0.774348378181 -0.960469424725 0.000983 0.006883 -0.999976
-0.807710826397 -1.186045885086 -0.962927877903 0.000983 0.006883 -0.999976
-0.746397793293 0.805040836334 -0.951038300991 0.000983 0.006883 -0.999976
-0.670908689499 1.072318553925 -0.949442267418 0.000983 0.006883 -0.999976
-0.736208617687 1.045115947723 -0.949604690075 0.000983 0.006883 -0.999976
-0.803956866264 -0.108790874481 -0.956495106220 0.000983 0.006883 -0.999976
-0.781266331673 -1.190984964371 -0.962957322598 0.000983 0.006883 -0.999976
-0.828669905663 0.982950448990 -0.949975907803 0.000983 0.006883 -0.999976
-0.797726750374 -0.393363952637 -0.958194434643 0.000983 0.006883 -0.999976
-0.733962893486 0.265145480633 -0.954262197018 0.000983 0.006883 -0.999976
-0.825492501259 0.245103538036 -0.954381883144 0.000983 0.006883 -0.999976
-0.833913087845 0.513121724129 -0.952781438828 0.000983 0.006883 -0.999976
-0.794555127621 0.350841164589 -0.953750491142 0.000983 0.006883 -0.999976
-0.636233627796 1.155424118042 -0.798459053040 0.001174 0.973432 -0.228974
-0.593973338604 1.152156949043 -0.812353491783 0.001174 0.973432 -0.228974
-0.597321391106 1.122529268265 -0.938350796700 0.001174 0.973432 -0.228974
-0.646503210068 1.126850962639 -0.919972479343 0.001174 0.973432 -0.228974
-0.579462409019 1.360394835472 -0.738557457924 -0.999999 0.000978 0.000978
-0.579462409019 1.426920413971 -0.815463721752 -0.999999 0.000978 0.000978
-0.579462409019 1.404718279839 -0.740648150444 -0.999999 0.000978 0.000978
-0.579462409019 1.614629626274 -0.751304984093 -0.999999 0.000978 0.000978
-0.579462409019 1.581586241722 -0.715142309666 -0.999999 0.000978 0.000978
-0.579462409019 1.277890086174 -0.821407854557 -0.999999 0.000978 0.000978
-0.579462409019 1.377111911774 -0.797073900700 -0.999999 0.000978 0.000978
-0.579462409019 1.622467756271 -0.919585108757 -0.999999 0.000978 0.000978
-0.579462409019 1.527984738350 -0.909048974514 -0.999999 0.000978 0.000978
-0.579462409019 1.750757932663 -0.749961614609 -0.999999 0.000978 0.000978
-0.579462409019 1.640192151070 -0.755455434322 -0.999999 0.000978 0.000978
-0.579462409019 1.519201636314 -0.828693628311 -0.999999 0.000978 0.000978
-0.579462409019 1.846654772758 -0.774370610714 -0.999999 0.000978 0.000978
-0.579462409019 1.607578158379 -0.817889034748 -0.999999 0.000978 0.000978
-0.579462409019 1.482792973518 -0.943960547447 -0.999999 0.000978 0.000978
-0.579462409019 1.462789297104 -0.870031058788 -0.999999 0.000978 0.000978
-0.579462409019 1.869625210762 -0.940269529819 -0.999999 0.000978 0.000978
-0.579462409019 1.827610015869 -0.862281739712 -0.999999 0.000978 0.000978
-0.371789634228 1.614242911339 -0.952700316906 0.000983 -0.006883 -0.999976
-0.214384377003 1.652107596397 -0.952971696854 0.000983 -0.006883 -0.999976
-0.337288945913 1.533598780632 -0.952122271061 0.000983 -0.006883 -0.999976
-0.493150681257 1.894449591637 -0.954708755016 0.000983 -0.006883 -0.999976
-0.305710762739 1.842622160912 -0.954337239265 0.000983 -0.006883 -0.999976
-0.160345852375 1.804013133049 -0.954060494900 0.000983 -0.006883 -0.999976
-0.438334167004 1.427958726883 -0.951365053654 0.000983 -0.006883 -0.999976
-0.489224702120 1.880428314209 -0.954608261585 0.000983 -0.006883 -0.999976
-0.371350169182 1.681099176407 -0.953179478645 0.000983 -0.006883 -0.999976
-0.477736532688 1.545065283775 -0.952204465866 0.000983 -0.006883 -0.999976
-0.398667991161 1.779720187187 -0.953886389732 0.000983 -0.006883 -0.999976
-0.265697449446 1.869202494621 -0.954527795315 0.000983 -0.006883 -0.999976
-0.248157992959 1.888080000877 -0.954663097858 0.000983 -0.006883 -0.999976
-0.248473227024 1.694701910019 -0.953276991844 0.000983 -0.006883 -0.999976
-0.481550544500 1.263532638550 -0.950186491013 0.000983 -0.006883 -0.999976
-0.102336883545 1.787399888039 -0.953941404819 0.000983 -0.006883 -0.999976
-0.571207880974 1.246049165726 -0.950061142445 0.000983 -0.006883 -0.999976
-0.338724046946 1.689226627350 -0.953237771988 0.000983 -0.006883 -0.999976
-0.285660594702 1.675322651863 -0.953138113022 0.000983 -0.006883 -0.999976
-0.467906743288 1.588822007179 -0.952518105507 0.000983 -0.006883 -0.999976
-0.257845848799 1.760800838470 -0.953750789165 0.000983 -0.006883 -0.999976
-0.411773473024 1.371291875839 -0.950958848000 0.000983 -0.006883 -0.999976
-0.509895443916 1.661872148514 -0.953041672707 0.000983 -0.006883 -0.999976
-0.040902100503 1.324164748192 -0.950621068478 0.000983 -0.006883 -0.999976
-0.154400125146 1.452400803566 -0.951540231705 0.000983 -0.006883 -0.999976
-0.309172302485 1.313762545586 -0.950546503067 0.000983 -0.006883 -0.999976
-0.324060648680 1.374439358711 -0.950981438160 0.000983 -0.006883 -0.999976
-0.357651650906 1.162697553635 -0.949463725090 0.000983 -0.006883 -0.999976
-0.021413002163 1.430944681168 -0.951386451721 0.000983 -0.006883 -0.999976
-0.030872002244 1.517729997635 -0.952008485794 0.000983 -0.006883 -0.999976
-0.152627155185 1.374000430107 -0.950978279114 0.000983 -0.006883 -0.999976
-0.121571615338 1.123917341232 -0.949185788631 0.000983 -0.006883 -0.999976
-0.089464239776 1.401731252670 -0.951177060604 0.000983 -0.006883 -0.999976
-0.468030571938 1.236493706703 -0.949992656708 0.000983 -0.006883 -0.999976
-0.318451046944 1.178310155869 -0.949575603008 0.000983 -0.006883 -0.999976
-0.286334186792 1.145685076714 -0.949341773987 0.000983 -0.006883 -0.999976
-0.196475163102 1.187216877937 -0.949639499187 0.000983 -0.006883 -0.999976
-0.140354901552 1.677142620087 -0.953151166439 0.000983 -0.006883 -0.999976
-0.027723563835 1.293431401253 -0.950400769711 0.000983 -0.006883 -0.999976
-0.017595170066 1.324276685715 -0.950621902943 0.000983 -0.006883 -0.999976
-0.081492587924 1.604410767555 -0.952629804611 0.000983 -0.006883 -0.999976
-0.253823757172 1.464662671089 -0.951628148556 0.000983 -0.006883 -0.999976
-0.016329551116 1.852309942245 -0.954406678677 0.000983 -0.006883 -0.999976
-0.397702157497 1.250121712685 -0.950090348721 0.000983 -0.006883 -0.999976
-0.286391407251 1.339956164360 -0.950734257698 0.000983 -0.006883 -0.999976
-0.091999888420 0.470589637756 -0.953035414219 0.000983 0.006883 -0.999976
-0.216576799750 0.383553266525 -0.953555166721 0.000983 0.006883 -0.999976
-0.537081122398 1.074467062950 -0.949429452419 0.000983 0.006883 -0.999976
-0.352597922087 0.756699383259 -0.951326906681 0.000983 0.006883 -0.999976
-0.442187964916 0.929508209229 -0.950295031071 0.000983 0.006883 -0.999976
-0.177600622177 -0.207236170769 -0.957082986832 0.000983 0.006883 -0.999976
-0.309908300638 0.082013249397 -0.955355763435 0.000983 0.006883 -0.999976
-0.142657727003 1.004304170609 -0.949848353863 0.000983 0.006883 -0.999976
-0.415356248617 0.590634584427 -0.952318549156 0.000983 0.006883 -0.999976
-0.412582248449 0.555577039719 -0.952527940273 0.000983 0.006883 -0.999976
-0.003983390052 -1.149495005608 -0.962709546089 0.000983 0.006883 -0.999976
-0.328483700752 0.069726064801 -0.955429136753 0.000983 0.006883 -0.999976
-0.305972754955 0.848147749901 -0.950780868530 0.000983 0.006883 -0.999976
-0.053008653224 -0.293234586716 -0.957596540451 0.000983 0.006883 -0.999976
-0.106627672911 -0.821415305138 -0.960750460625 0.000983 0.006883 -0.999976
-0.432411044836 1.037568807602 -0.949649751186 0.000983 0.006883 -0.999976
-0.143918946385 -0.605453610420 -0.959460914135 0.000983 0.006883 -0.999976
-0.122328840196 0.459893107414 -0.953099310398 0.000983 0.006883 -0.999976
-0.312827289104 -0.099351510406 -0.956438720226 0.000983 0.006883 -0.999976
-0.126588702202 0.918540358543 -0.950360536575 0.000983 0.006883 -0.999976
-0.255748182535 0.083324670792 -0.955347955227 0.000983 0.006883 -0.999976
-0.007436166517 -1.521173715591 -0.964929044247 0.000983 0.006883 -0.999976
-0.125248312950 -0.972922921181 -0.961655199528 0.000983 0.006883 -0.999976
-0.177705273032 -0.042402625084 -0.956098675728 0.000983 0.006883 -0.999976
-0.178296253085 -0.589956164360 -0.959368348122 0.000983 0.006883 -0.999976
-0.059291072190 -0.314781665802 -0.957725167274 0.000983 0.006883 -0.999976
-0.085063219070 -0.956095814705 -0.961554765701 0.000983 0.006883 -0.999976
-0.070577286184 -0.101218581200 -0.956449866295 0.000983 0.006883 -0.999976
-0.150857716799 0.634856820107 -0.952054500580 0.000983 0.006883 -0.999976
-0.020401334390 -1.029311895370 -0.961991965771 0.000983 0.006883 -0.999976
-0.156179204583 1.028095602989 -0.949706315994 0.000983 0.006883 -0.999976
-0.251832485199 -0.093721598387 -0.956405103207 0.000983 0.006883 -0.999976
-0.434378296137 0.794183790684 -0.951103091240 0.000983 0.006883 -0.999976
-0.276530444622 -0.217636391521 -0.957145094872 0.000983 0.006883 -0.999976
-0.238963127136 0.466696619987 -0.953058719635 0.000983 0.006883 -0.999976
-0.020989276469 -0.600772976875 -0.959432959557 0.000983 0.006883 -0.999976
-0.027823628858 0.201878070831 -0.954639971256 0.000983 0.006883 -0.999976
-0.093140929937 -0.171972870827 -0.956872463226 0.000983 0.006883 -0.999976
-0.335269510746 1.085650920868 -0.949362635612 0.000983 0.006883 -0.999976
-0.107103243470 -1.172964811325 -0.962849736214 0.000983 0.006883 -0.999976
-0.340586453676 0.405304640532 -0.953425288200 0.000983 0.006883 -0.999976
-0.126811504364 -0.511332333088 -0.958898842335 0.000983 0.006883 -0.999976
-0.138789847493 -0.528609514236 -0.959002017975 0.000983 0.006883 -0.999976
-0.135663077235 0.680798888206 -0.951780200005 0.000983 0.006883 -0.999976
-0.286538869143 0.209035694599 -0.954597234726 0.000983 0.006883 -0.999976
-0.082254536450 0.362575650215 -0.953680455685 0.000983 0.006883 -0.999976
-0.268616050482 -0.001453727484 -0.955854177475 0.000983 0.006883 -0.999976
-0.398701995611 0.367951333523 -0.953648269176 0.000983 0.006883 -0.999976
-0.154804646969 0.282584249973 -0.954158067703 0.000983 0.006883 -0.999976
-0.101425938308 0.233575582504 -0.954450726509 0.000983 0.006883 -0.999976
-0.133860751987 -0.592916131020 -0.959386050701 0.000983 0.006883 -0.999976
-0.027129322290 -1.258562684059 -0.963360905647 0.000983 0.006883 -0.999976
-0.227566018701 0.563334226608 -0.952481567860 0.000983 0.006883 -0.999976
-0.018346941099 0.249088406563 -0.954358100891 0.000983 0.006883 -0.999976
-0.282913178205 -0.331012159586 -0.957822084427 0.000983 0.006883 -0.999976
-0.365687698126 0.894675791264 -0.950502991676 0.000983 0.006883 -0.999976
-0.212602391839 -0.358598291874 -0.957986831665 0.000983 0.006883 -0.999976
-0.361017733812 0.167466491461 -0.954845488071 0.000983 0.006883 -0.999976
-0.073929086328 0.620309710503 -0.952141404152 0.000983 0.006883 -0.999976
-0.009148422629 0.210831642151 -0.954586505890 0.000983 0.006883 -0.999976
-0.094739854336 -0.368844330311 -0.958048045635 0.000983 0.006883 -0.999976
-0.007913156413 0.363264560699 -0.953676283360 0.000983 0.006883 -0.999976
-0.161318883300 -0.024141609669 -0.955989658833 0.000983 0.006883 -0.999976
-0.057688064873 0.988659501076 -0.949941813946 0.000983 0.006883 -0.999976
-0.106993801892 -0.670486569405 -0.959849238396 0.000983 0.006883 -0.999976
-0.102216310799 -1.201458930969 -0.963019907475 0.000983 0.006883 -0.999976
-0.147289142013 0.433435201645 -0.953257262707 0.000983 0.006883 -0.999976
-0.193200170994 -0.059713244438 -0.956202030182 0.000983 0.006883 -0.999976
-0.310141116381 0.308507025242 -0.954003274441 0.000983 0.006883 -0.999976
-0.454687148333 1.092541456223 -0.949321508408 0.000983 0.006883 -0.999976
-0.272822588682 0.302842080593 -0.954037129879 0.000983 0.006883 -0.999976
-0.219878405333 -0.320277631283 -0.957758009434 0.000983 0.006883 -0.999976
-0.275471568108 0.966362476349 -0.950074970722 0.000983 0.006883 -0.999976
-0.186991229653 -0.539666652679 -0.959068059921 0.000983 0.006883 -0.999976
-0.093088887632 -1.169380664825 -0.962828338146 0.000983 0.006883 -0.999976
-0.115982986987 0.276324987411 -0.954195499420 0.000983 0.006883 -0.999976
-0.071696273983 -0.755765914917 -0.960358500481 0.000983 0.006883 -0.999976
-0.251186221838 0.921495795250 -0.950342893600 0.000983 0.006883 -0.999976
-0.067749798298 -0.271516919136 -0.957466840744 0.000983 0.006883 -0.999976
-0.204864025116 0.041001975536 -0.955600619316 0.000983 0.006883 -0.999976
-0.203021273017 -0.251473873854 -0.957347154617 0.000983 0.006883 -0.999976
-0.102119483054 0.478541135788 -0.952987968922 0.000983 0.006883 -0.999976
-0.295015305281 0.371210396290 -0.953628838062 0.000983 0.006883 -0.999976
0.110559031367 -0.684699773788 -0.959934115410 0.000983 0.006883 -0.999976
0.029127776623 0.470698177814 -0.953034758568 0.000983 0.006883 -0.999976
0.078583002090 0.601081788540 -0.952256202698 0.000983 0.006883 -0.999976
0.026705235243 0.589228570461 -0.952326953411 0.000983 0.006883 -0.999976
0.093261420727 0.422810494900 -0.953320741653 0.000983 0.006883 -0.999976
0.267156153917 1.102591514587 -0.949261486530 0.000983 0.006883 -0.999976
0.137100160122 0.355284810066 -0.953723967075 0.000983 0.006883 -0.999976
0.124008253217 -0.484843492508 -0.958740711212 0.000983 0.006883 -0.999976
0.211034670472 -0.384422898293 -0.958141028881 0.000983 0.006883 -0.999976
0.273964285851 0.157228946686 -0.954906642437 0.000983 0.006883 -0.999976
0.426965743303 0.378058195114 -0.953587949276 0.000983 0.006883 -0.999976
0.088891595602 -1.270485877991 -0.963432073593 0.000983 0.006883 -0.999976
0.115318000317 1.082111716270 -0.949383795261 0.000983 0.006883 -0.999976
0.233273193240 -0.177165508270 -0.956903398037 0.000983 0.006883 -0.999976
0.171582728624 0.599390804768 -0.952266275883 0.000983 0.006883 -0.999976
0.186637803912 0.086743950844 -0.955327510834 0.000983 0.006883 -0.999976
0.412028551102 0.948449373245 -0.950181901455 0.000983 0.006883 -0.999976
0.088189713657 -0.902912378311 -0.961237132549 0.000983 0.006883 -0.999976
0.009393304586 0.201303780079 -0.954643428326 0.000983 0.006883 -0.999976
0.164233654737 0.935822129250 -0.950257301331 0.000983 0.006883 -0.999976
0.066385328770 0.879764139652 -0.950592041016 0.000983 0.006883 -0.999976
0.416521906853 0.438590168953 -0.953226506710 0.000983 0.006883 -0.999976
0.182234540582 -0.608584880829 -0.959479629993 0.000983 0.006883 -0.999976
0.017676442862 -0.270538926125 -0.957460999489 0.000983 0.006883 -0.999976
0.410381406546 0.514444887638 -0.952773511410 0.000983 0.006883 -0.999976
0.000053368509 -1.201022624969 -0.963017284870 0.000983 0.006883 -0.999976
0.468248516321 0.892464101315 -0.950516223907 0.000983 0.006883 -0.999976
0.002649635077 -0.395116806030 -0.958204925060 0.000983 0.006883 -0.999976
0.476848512888 0.669323861599 -0.951848685741 0.000983 0.006883 -0.999976
0.032070077956 -1.225905179977 -0.963165879250 0.000983 0.006883 -0.999976
0.194157093763 0.645291507244 -0.951992213726 0.000983 0.006883 -0.999976
0.147975087166 0.635823369026 -0.952048718929 0.000983 0.006883 -0.999976
0.206052482128 0.444156825542 -0.953193247318 0.000983 0.006883 -0.999976
0.436095535755 0.945659577847 -0.950198590755 0.000983 0.006883 -0.999976
0.375033259392 0.504711806774 -0.952831685543 0.000983 0.006883 -0.999976
0.099857747555 0.462027490139 -0.953086555004 0.000983 0.006883 -0.999976
0.151130005717 -0.911051511765 -0.961285769939 0.000983 0.006883 -0.999976
0.083490252495 1.102948427200 -0.949259340763 0.000983 0.006883 -0.999976
0.338039904833 0.683887004852 -0.951761722565 0.000983 0.006883 -0.999976
0.075348719954 -0.505671381950 -0.958865046501 0.000983 0.006883 -0.999976
0.161716669798 0.640442848206 -0.952021181583 0.000983 0.006883 -0.999976
0.359662473202 0.673755586147 -0.951822221279 0.000983 0.006883 -0.999976
0.100385248661 -0.649238705635 -0.959722340107 0.000983 0.006883 -0.999976
0.045840531588 0.751127123833 -0.951360225677 0.000983 0.006883 -0.999976
0.353527307510 0.175081968307 -0.954800009727 0.000983 0.006883 -0.999976
0.198989897966 0.805598676205 -0.951034963131 0.000983 0.006883 -0.999976
0.037459738553 -1.073766946793 -0.962257385254 0.000983 0.006883 -0.999976
0.010010540485 -0.656044244766 -0.959762990475 0.000983 0.006883 -0.999976
0.289517104626 -0.004327297211 -0.955871343613 0.000983 0.006883 -0.999976
0.035423785448 0.372341275215 -0.953622102737 0.000983 0.006883 -0.999976
0.187429949641 -0.476222395897 -0.958689212799 0.000983 0.006883 -0.999976
0.282171845436 0.080982685089 -0.955361902714 0.000983 0.006883 -0.999976
0.027815014124 0.061528801918 -0.955478072166 0.000983 0.006883 -0.999976
0.040060058236 -0.525958180428 -0.958986222744 0.000983 0.006883 -0.999976
0.218483239412 -0.256477117538 -0.957377016544 0.000983 0.006883 -0.999976
0.400451421738 0.653897643089 -0.951940834522 0.000983 0.006883 -0.999976
0.271007835865 -0.280893921852 -0.957522809505 0.000983 0.006883 -0.999976
0.474911302328 0.873227477074 -0.950631082058 0.000983 0.006883 -0.999976
0.013818576932 -0.709377527237 -0.960081458092 0.000983 0.006883 -0.999976
0.392534255981 0.946548283100 -0.950193285942 0.000983 0.006883 -0.999976
0.085105657578 0.509914398193 -0.952800571918 0.000983 0.006883 -0.999976
0.258527100086 -0.325605511665 -0.957789838314 0.000983 0.006883 -0.999976
0.140422150493 -0.889603853226 -0.961157679558 0.000983 0.006883 -0.999976
0.135594785213 0.968833684921 -0.950060188770 0.000983 0.006883 -0.999976
0.172208547592 1.024677634239 -0.949726760387 0.000983 0.006883 -0.999976
0.023722760379 -1.142050266266 -0.962665140629 0.000983 0.006883 -0.999976
0.367559760809 0.221725821495 -0.954521477222 0.000983 0.006883 -0.999976
0.279604077339 0.805712878704 -0.951034247875 0.000983 0.006883 -0.999976
0.445760667324 0.537123203278 -0.952638089657 0.000983 0.006883 -0.999976
0.322841346264 0.753895938396 -0.951343655586 0.000983 0.006883 -0.999976
0.220001161098 0.806025743484 -0.951032400131 0.000983 0.006883 -0.999976
0.098615199327 -0.373924136162 -0.958078324795 0.000983 0.006883 -0.999976
0.150417566299 0.141347646713 -0.955001473427 0.000983 0.006883 -0.999976
0.433239161968 0.994219243526 -0.949908614159 0.000983 0.006883 -0.999976
0.185308068991 0.979303956032 -0.949997663498 0.000983 0.006883 -0.999976
0.122655868530 0.794302225113 -0.951102375984 0.000983 0.006883 -0.999976
0.381786882877 1.095309495926 -0.949304938316 0.000983 0.006883 -0.999976
0.036370605230 0.734483718872 -0.951459586620 0.000983 0.006883 -0.999976
0.364959120750 0.543727397919 -0.952598690987 0.000983 0.006883 -0.999976
0.013181507587 0.490430712700 -0.952916920185 0.000983 0.006883 -0.999976
0.066766649485 -0.866859555244 -0.961021840572 0.000983 0.006883 -0.999976
0.133585780859 -0.231973648071 -0.957230687141 0.000983 0.006883 -0.999976
0.012930274010 -0.040830612183 -0.956089317799 0.000983 0.006883 -0.999976
0.521868467331 0.575804829597 -0.952407181263 0.000983 0.006883 -0.999976
0.499926865101 0.172339260578 -0.954816401005 0.000983 0.006883 -0.999976
0.534552454948 -0.449361026287 -0.958528816700 0.000983 0.006883 -0.999976
0.152265667915 -1.196852803230 -0.962992370129 0.000983 0.006883 -0.999976
0.495129764080 0.447662204504 -0.953172326088 0.000983 0.006883 -0.999976
0.344252914190 -0.774996697903 -0.960473299026 0.000983 0.006883 -0.999976
0.434062123299 0.118710517883 -0.955136597157 0.000983 0.006883 -0.999976
0.281386852264 -1.151624560356 -0.962722301483 0.000983 0.006883 -0.999976
0.453435510397 -0.042716205120 -0.956100583076 0.000983 0.006883 -0.999976
0.433638691902 -0.618634641171 -0.959539651871 0.000983 0.006883 -0.999976
0.251599431038 -0.927975475788 -0.961386799812 0.000983 0.006883 -0.999976
0.304420322180 -1.514775991440 -0.964890837669 0.000983 0.006883 -0.999976
0.402756333351 0.143710076809 -0.954987347126 0.000983 0.006883 -0.999976
0.379948318005 -0.746184825897 -0.960301280022 0.000983 0.006883 -0.999976
0.506162285805 0.498571723700 -0.952868342400 0.000983 0.006883 -0.999976
0.542615890503 -1.370735526085 -0.964030683041 0.000983 0.006883 -0.999976
0.031663179398 -1.631418466568 -0.965587317944 0.000983 0.006883 -0.999976
0.362489789724 -0.004335999489 -0.955871403217 0.000983 0.006883 -0.999976
0.422758668661 -0.643969237804 -0.959690868855 0.000983 0.006883 -0.999976
0.427306115627 0.339998483658 -0.953815221786 0.000983 0.006883 -0.999976
0.511000275612 -0.044024050236 -0.956108391285 0.000983 0.006883 -0.999976
0.487329512835 0.325785756111 -0.953900098801 0.000983 0.006883 -0.999976
0.299941569567 -1.459018111229 -0.964557886124 0.000983 0.006883 -0.999976
0.209468543530 -1.357027530670 -0.963948845863 0.000983 0.006883 -0.999976
0.226870357990 -0.679098844528 -0.959900677204 0.000983 0.006883 -0.999976
0.275826931000 -1.336280822754 -0.963824987411 0.000983 0.006883 -0.999976
0.485876858234 0.599749267101 -0.952264130116 0.000983 0.006883 -0.999976
0.408389866352 -0.718953788280 -0.960138678551 0.000983 0.006883 -0.999976
0.522916913033 -0.044466689229 -0.956111013889 0.000983 0.006883 -0.999976
0.512646019459 -1.660404682159 -0.965760409832 0.000983 0.006883 -0.999976
0.489733964205 -1.537391304970 -0.965025842190 0.000983 0.006883 -0.999976
0.393446147442 -1.321050167084 -0.963734030724 0.000983 0.006883 -0.999976
0.320553123951 -1.151648163795 -0.962722420692 0.000983 0.006883 -0.999976
0.285236835480 -1.131639957428 -0.962602972984 0.000983 0.006883 -0.999976
0.193805098534 -1.055481076241 -0.962148189545 0.000983 0.006883 -0.999976
0.214427947998 -0.858654439449 -0.960972845554 0.000983 0.006883 -0.999976
0.378737866879 -1.120152950287 -0.962534368038 0.000983 0.006883 -0.999976
0.507457077503 0.037191867828 -0.955623388290 0.000983 0.006883 -0.999976
0.151630580425 -1.219209551811 -0.963125884533 0.000983 0.006883 -0.999976
0.515801846981 -0.908478021622 -0.961270391941 0.000983 0.006883 -0.999976
0.521571516991 -1.358383774757 -0.963956952095 0.000983 0.006883 -0.999976
0.222691059113 -1.012668848038 -0.961892545223 0.000983 0.006883 -0.999976
0.566612243652 -0.282578915358 -0.957532882690 0.000983 0.006883 -0.999976
0.522427678108 -1.056310653687 -0.962153196335 0.000983 0.006883 -0.999976
0.198108911514 -1.704331398010 -0.966022729874 0.000983 0.006883 -0.999976
0.334632337093 -1.709982037544 -0.966056466103 0.000983 0.006883 -0.999976
0.396223783493 -1.412887811661 -0.964282453060 0.000983 0.006883 -0.999976
0.416506797075 -0.422830522060 -0.958370387554 0.000983 0.006883 -0.999976
0.373928904533 -0.543258428574 -0.959089517593 0.000983 0.006883 -0.999976
0.147832244635 -1.727860689163 -0.966163218021 0.000983 0.006883 -0.999976
0.545428752899 0.539556026459 -0.952623605728 0.000983 0.006883 -0.999976
0.441274166107 -1.110250949860 -0.962475240231 0.000983 0.006883 -0.999976
0.116880238056 -1.515292406082 -0.964893937111 0.000983 0.006883 -0.999976
0.494092822075 -0.336421400309 -0.957854390144 0.000983 0.006883 -0.999976
0.309786051512 -0.750047981739 -0.960324347019 0.000983 0.006883 -0.999976
0.230601966381 -1.423598527908 -0.964346349239 0.000983 0.006883 -0.999976
0.343062579632 -0.158448398113 -0.956791698933 0.000983 0.006883 -0.999976
0.434483170509 0.122441351414 -0.955114364624 0.000983 0.006883 -0.999976
0.217026174068 -1.659973859787 -0.965757906437 0.000983 0.006883 -0.999976
0.195954352617 -1.542478084564 -0.965056240559 0.000983 0.006883 -0.999976
0.471877276897 -0.099202156067 -0.956437885761 0.000983 0.006883 -0.999976
0.529232025146 -1.152039289474 -0.962724745274 0.000983 0.006883 -0.999976
0.299504876137 -0.902612626553 -0.961235344410 0.000983 0.006883 -0.999976
0.043435633183 -1.565977334976 -0.965196549892 0.000983 0.006883 -0.999976
0.233961284161 -1.239115476608 -0.963244736195 0.000983 0.006883 -0.999976
0.511986255646 -0.436319500208 -0.958450973034 0.000983 0.006883 -0.999976
0.128725707531 -1.553606748581 -0.965122699738 0.000983 0.006883 -0.999976
0.473094761372 0.224971055984 -0.954502105713 0.000983 0.006883 -0.999976
0.170094758272 -1.551858663559 -0.965112268925 0.000983 0.006883 -0.999976
0.514135062695 -1.691183805466 -0.965944230556 0.000983 0.006883 -0.999976
0.251537948847 -1.601939558983 -0.965411305428 0.000983 0.006883 -0.999976
0.566957592964 0.228301018476 -0.954482257366 0.000983 0.006883 -0.999976
0.542333424091 0.238553747535 -0.954420983791 0.000983 0.006883 -0.999976
0.147743254900 -1.188048601151 -0.962939798832 0.000983 0.006883 -0.999976
0.094287008047 -1.409196496010 -0.964260399342 0.000983 0.006883 -0.999976
0.436296015978 -1.192998647690 -0.962969362736 0.000983 0.006883 -0.999976
0.273525685072 -1.155027151108 -0.962742626667 0.000983 0.006883 -0.999976
0.480465829372 -0.978570699692 -0.961688935757 0.000983 0.006883 -0.999976
0.277580708265 -1.624219655991 -0.965544342995 0.000983 0.006883 -0.999976
0.710759520531 -0.470391035080 -0.958654403687 0.000983 0.006883 -0.999976
0.641374289989 -1.017188429832 -0.961919546127 0.000983 0.006883 -0.999976
0.676253914833 -0.868156552315 -0.961029589176 0.000983 0.006883 -0.999976
0.621941566467 -0.284755468369 -0.957545876503 0.000983 0.006883 -0.999976
0.820269644260 -1.723844170570 -0.966139256954 0.000983 0.006883 -0.999976
0.701712071896 -1.594170570374 -0.965364933014 0.000983 0.006883 -0.999976
0.562013864517 -1.134176969528 -0.962618112564 0.000983 0.006883 -0.999976
0.663606762886 -0.899367749691 -0.961215972900 0.000983 0.006883 -0.999976
0.764859437943 -1.522882938385 -0.964939236641 0.000983 0.006883 -0.999976
0.592889547348 -0.746326684952 -0.960302114487 0.000983 0.006883 -0.999976
0.621015787125 -1.332359910011 -0.963801562786 0.000983 0.006883 -0.999976
0.608948051929 0.290414810181 -0.954111337662 0.000983 0.006883 -0.999976
0.595625460148 -0.235394001007 -0.957251131535 0.000983 0.006883 -0.999976
0.735169053078 -1.444194912910 -0.964469373226 0.000983 0.006883 -0.999976
0.630532383919 0.082016229630 -0.955355763435 0.000983 0.006883 -0.999976
0.707520246506 -1.568161845207 -0.965209603310 0.000983 0.006883 -0.999976
0.633214712143 -0.852773308754 -0.960937738419 0.000983 0.006883 -0.999976
0.626914441586 0.159294128418 -0.954894304276 0.000983 0.006883 -0.999976
0.669504821301 -1.661526083946 -0.965767145157 0.000983 0.006883 -0.999976
0.624737203121 -0.291678071022 -0.957587242126 0.000983 0.006883 -0.999976
0.594867289066 0.497889280319 -0.952872395515 0.000983 0.006883 -0.999976
0.655095577240 -1.272777557373 -0.963445782661 0.000983 0.006883 -0.999976
0.644350051880 -1.626439332962 -0.965557634830 0.000983 0.006883 -0.999976
0.674823701382 -1.466047286987 -0.964599847794 0.000983 0.006883 -0.999976
0.662095963955 -0.267084002495 -0.957440376282 0.000983 0.006883 -0.999976
0.680568635464 -0.339529395103 -0.957872986794 0.000983 0.006883 -0.999976
0.713497400284 -1.663338422775 -0.965777933598 0.000983 0.006883 -0.999976
0.748487412930 -0.945386230946 -0.961490750313 0.000983 0.006883 -0.999976
0.629349529743 -0.488781809807 -0.958764195442 0.000983 0.006883 -0.999976
0.660350501537 -0.516994833946 -0.958932697773 0.000983 0.006883 -0.999976
0.659688949585 -0.742332696915 -0.960278272629 0.000983 0.006883 -0.999976
0.641433715820 -1.693521499634 -0.965958178043 0.000983 0.006883 -0.999976
0.606605350971 0.141217231750 -0.955002248287 0.000983 0.006883 -0.999976
0.676989436150 -0.401563763618 -0.958243370056 0.000983 0.006883 -0.999976
0.571158885956 -0.983864903450 -0.961720526218 0.000983 0.006883 -0.999976
0.572113990784 -0.914415538311 -0.961305856705 0.000983 0.006883 -0.999976
0.653168201447 0.002883076668 -0.955828309059 0.000983 0.006883 -0.999976
0.652574837208 -1.087864875793 -0.962341547012 0.000983 0.006883 -0.999976
0.729127466679 0.214950323105 -0.954561948776 0.000983 0.006883 -0.999976
0.755030691624 0.886723339558 -0.950550496578 0.000983 0.006883 -0.999976
0.800166547298 1.093942999840 -0.949313104153 0.000983 0.006883 -0.999976
0.797247409821 0.220259070396 -0.954530239105 0.000983 0.006883 -0.999976
0.702273249626 0.996263802052 -0.949896395206 0.000983 0.006883 -0.999976
0.771930277348 -0.018165349960 -0.955953955650 0.000983 0.006883 -0.999976
0.740180015564 -0.625797867775 -0.959582388401 0.000983 0.006883 -0.999976
0.799563825130 -0.965255260468 -0.961609423161 0.000983 0.006883 -0.999976
0.724668383598 -0.157688379288 -0.956787109375 0.000983 0.006883 -0.999976
0.820763885975 -1.144492387772 -0.962679743767 0.000983 0.006883 -0.999976
0.701858639717 0.203399002552 -0.954630911350 0.000983 0.006883 -0.999976
0.837020754814 -0.475317597389 -0.958683788776 0.000983 0.006883 -0.999976
0.733699381351 0.874600470066 -0.950622916222 0.000983 0.006883 -0.999976
0.826545715332 0.879433155060 -0.950594067574 0.000983 0.006883 -0.999976
0.794902861118 0.991929411888 -0.949922263622 0.000983 0.006883 -0.999976
0.816090106964 1.007309436798 -0.949830472469 0.000983 0.006883 -0.999976
0.620922446251 0.906296312809 -0.950433611870 0.000983 0.006883 -0.999976
0.695041894913 0.631627321243 -0.952073812485 0.000983 0.006883 -0.999976
0.711162388325 -0.284378886223 -0.957543611526 0.000983 0.006883 -0.999976
0.767265498638 -0.001874208450 -0.955856680870 0.000983 0.006883 -0.999976
0.629751086235 1.086567521095 -0.949357151985 0.000983 0.006883 -0.999976
0.632063984871 0.596380054951 -0.952284276485 0.000983 0.006883 -0.999976
0.725669741631 0.719452381134 -0.951549351215 0.000983 0.006883 -0.999976
0.742739200592 0.495351850986 -0.952887535095 0.000983 0.006883 -0.999976
0.777192950249 -0.878885984421 -0.961093664169 0.000983 0.006883 -0.999976
0.737836718559 0.007115244865 -0.955803036690 0.000983 0.006883 -0.999976
0.658044815063 1.064581751823 -0.949488461018 0.000983 0.006883 -0.999976
0.806095957756 0.301672279835 -0.954044103622 0.000983 0.006883 -0.999976
0.644294559956 1.030039548874 -0.949694693089 0.000983 0.006883 -0.999976
0.737990498543 0.559919774532 -0.952502012253 0.000983 0.006883 -0.999976
0.769884228706 0.108989834785 -0.955194652081 0.000983 0.006883 -0.999976
0.654329001904 0.843587160110 -0.950808107853 0.000983 0.006883 -0.999976
0.835311472416 0.048601031303 -0.955555260181 0.000983 0.006883 -0.999976
0.804149448872 0.881244599819 -0.950583219528 0.000983 0.006883 -0.999976
0.642659187317 0.481354534626 -0.952971160412 0.000983 0.006883 -0.999976
0.777438282967 0.035139083862 -0.955635666847 0.000983 0.006883 -0.999976
0.833196818829 1.102622151375 -0.949261307716 0.000983 0.006883 -0.999976
0.707876324654 0.195826172829 -0.954676151276 0.000983 0.006883 -0.999976
0.759055674076 0.751061797142 -0.951360583305 0.000983 0.006883 -0.999976
0.824904263020 -0.458811759949 -0.958585262299 0.000983 0.006883 -0.999976
0.763473212719 -0.734371304512 -0.960230708122 0.000983 0.006883 -0.999976
0.800237357616 -1.203412532806 -0.963031530380 0.000983 0.006883 -0.999976
0.775786697865 -0.771628499031 -0.960453212261 0.000983 0.006883 -0.999976
0.636645495892 1.130402684212 -0.904867768288 0.001174 0.973432 -0.228974
0.657961547375 1.123075008392 -0.936030328274 0.001174 0.973432 -0.228974
0.595732092857 1.152718663216 -0.809964358807 0.001174 0.973432 -0.228974
0.694241583347 1.171128034592 -0.731675028801 0.001174 0.973432 -0.228974
0.634335398674 1.171835660934 -0.728665411472 0.001174 0.973432 -0.228974
0.834301650524 1.137491822243 -0.874719560146 0.001174 0.973432 -0.228974
0.820955693722 1.171817898750 -0.728741168976 0.001174 0.973432 -0.228974
0.680701375008 1.278450608253 -0.633246421814 0.001375 0.639507 -0.768784
0.664599418640 1.225796699524 -0.677151978016 0.001375 0.639507 -0.768784
0.710048615932 1.281965970993 -0.630315184593 0.001375 0.639507 -0.768784
0.829782783985 1.198476195335 -0.699933171272 0.001375 0.639507 -0.768784
0.579462230206 1.314766168594 -0.661308467388 0.999999 0.000978 0.000978
0.579462230206 1.459485888481 -0.594326257706 0.999999 0.000978 0.000978
0.781900644302 1.550983667374 -0.545275449753 0.000981 0.004907 -0.999987
0.673644781113 1.583821058273 -0.545124471188 0.000981 0.004907 -0.999987
0.741774559021 1.540895462036 -0.545321822166 0.000981 0.004907 -0.999987
0.690892517567 1.503161311150 -0.545495212078 0.000981 0.004907 -0.999987
0.802595794201 1.409589052200 -0.545925319195 0.000981 0.004907 -0.999987
0.776910185814 1.445889115334 -0.545758485794 0.000981 0.004907 -0.999987
0.886818051338 1.391085267067 -0.546010375023 0.000981 0.004907 -0.999987
0.728918194771 1.410290479660 -0.545922100544 0.000981 0.004907 -0.999987
0.766926288605 1.342493891716 -0.579843997955 0.001375 0.639507 -0.768784
0.797722041607 1.253759741783 -0.653834939003 0.001375 0.639507 -0.768784
0.708259880543 1.358481645584 -0.566512584686 0.001375 0.639507 -0.768784
0.911070466042 1.354480981827 -0.569848537445 0.001375 0.639507 -0.768784
0.656177222729 1.370079994202 -0.556841313839 0.001375 0.639507 -0.768784
0.726168036461 1.695895433426 -0.599097311497 0.001334 -0.500299 -0.865851
0.699391841888 1.637966156006 -0.565661251545 0.001334 -0.500299 -0.865851
0.905389189720 1.727800965309 -0.617512881756 0.001334 -0.500299 -0.865851
0.866917610168 1.746323943138 -0.628204107285 0.001334 -0.500299 -0.865851
0.810739934444 1.618630290031 -0.554500818253 0.001334 -0.500299 -0.865851
0.593249559402 1.773925662041 -0.644135534763 0.001334 -0.500299 -0.865851
0.639410734177 1.643341064453 -0.568763613701 0.001334 -0.500299 -0.865851
0.583555161953 1.691298365593 -0.596444010735 0.001334 -0.500299 -0.865851
0.651687741280 1.749036312103 -0.629769623280 0.001334 -0.500299 -0.865851
0.579462230206 1.578744411469 -0.630410432816 0.999999 0.000978 0.000978
0.579462230206 1.281451106071 -0.684146642685 0.999999 0.000978 0.000978
0.579462230206 1.577787399292 -0.628503143787 0.999999 0.000978 0.000978
0.579462230206 1.538151264191 -0.585351169109 0.999999 0.000978 0.000978
0.579462230206 1.435232400894 -0.647330105305 0.999999 0.000978 0.000978
0.579462230206 1.238904953003 -0.733993053436 0.999999 0.000978 0.000978
0.579462230206 1.494826674461 -0.703013777733 0.999999 0.000978 0.000978
0.579462230206 1.672061204910 -0.701107084751 0.999999 0.000978 0.000978
0.579462230206 1.764131188393 -0.680875837803 0.999999 0.000978 0.000978
0.579462230206 1.445769190788 -0.772794961929 0.999999 0.000978 0.000978
0.579462230206 1.546335220337 -0.727337956429 0.999999 0.000978 0.000978
0.579462230206 1.158212661743 -0.922235310078 0.999999 0.000978 0.000978
0.579462230206 1.264296293259 -0.861058652401 0.999999 0.000978 0.000978
0.579462230206 1.637345314026 -0.847332417965 0.999999 0.000978 0.000978
0.579462230206 1.777358531952 -0.770764946938 0.999999 0.000978 0.000978
0.579462230206 1.427747607231 -0.919868052006 0.999999 0.000978 0.000978
0.579462230206 1.681062817574 -0.950248241425 0.999999 0.000978 0.000978
0.579462230206 1.609540581703 -0.887562751770 0.999999 0.000978 0.000978
0.579462230206 1.816198229790 -0.723753929138 0.999999 0.000978 0.000978
0.579462230206 1.676658749580 -0.736021816730 0.999999 0.000978 0.000978
0.579462230206 1.858685612679 -0.860156416893 0.999999 0.000978 0.000978
0.579462230206 1.515953183174 -0.892536878586 0.999999 0.000978 0.000978
0.579462230206 1.502681136131 -0.949794948101 0.999999 0.000978 0.000978
0.579462230206 1.735419750214 -0.745178103447 0.999999 0.000978 0.000978
0.585228621960 1.836899995804 -0.728410184383 0.001193 -0.967197 -0.254023
0.656031787395 1.890773057938 -0.933270275593 0.001193 -0.967197 -0.254023
0.747385323048 1.867924451828 -0.846385240555 0.001193 -0.967197 -0.254023
0.596212327480 1.874254345894 -0.870455563068 0.001193 -0.967197 -0.254023
0.781639575958 1.948165535927 -0.954484939575 0.000981 0.004907 -0.999987
0.745700478554 2.115956068039 -0.953713715076 0.000981 0.004907 -0.999987
0.688334107399 2.031291007996 -0.954102873802 0.000981 0.004907 -0.999987
0.776559591293 2.189697980881 -0.953374743462 0.000981 0.004907 -0.999987
0.789993703365 1.942306876183 -0.954511880875 0.000981 0.004907 -0.999987
0.738781332970 2.133202552795 -0.953634440899 0.000981 0.004907 -0.999987
0.670343279839 2.247961759567 -0.953106939793 0.000981 0.004907 -0.999987
0.197014212608 2.158431529999 -0.953518450260 0.000981 0.004907 -0.999987
0.261950224638 2.180975675583 -0.953414857388 0.000981 0.004907 -0.999987
0.562510490417 2.067622184753 -0.953935861588 0.000981 0.004907 -0.999987
0.373866319656 2.220972061157 -0.953230977058 0.000981 0.004907 -0.999987
0.579693794250 2.090883255005 -0.953828930855 0.000981 0.004907 -0.999987
0.261224240065 2.210191965103 -0.953280568123 0.000981 0.004907 -0.999987
0.571177423000 2.166847467422 -0.953479766846 0.000981 0.004907 -0.999987
0.509922981262 2.002689599991 -0.954234302044 0.000981 0.004907 -0.999987
0.385355651379 2.027748823166 -0.954119145870 0.000981 0.004907 -0.999987
0.514803528786 2.187264919281 -0.953385949135 0.000981 0.004907 -0.999987
0.340973913670 2.234118223190 -0.953170597553 0.000981 0.004907 -0.999987
0.506437897682 2.060772895813 -0.953967332840 0.000981 0.004907 -0.999987
0.599303841591 1.955020189285 -0.954453468323 0.000981 0.004907 -0.999987
0.417365282774 2.085170269012 -0.953855216503 0.000981 0.004907 -0.999987
0.134775519371 2.068680524826 -0.953930974007 0.000981 0.004907 -0.999987
0.269832104445 2.067639112473 -0.953935801983 0.000981 0.004907 -0.999987
0.163635015488 2.091950893402 -0.953824043274 0.000981 0.004907 -0.999987
0.473451226950 1.948079347610 -0.954485356808 0.000981 0.004907 -0.999987
0.144203990698 2.112725019455 -0.953728556633 0.000981 0.004907 -0.999987
0.310424625874 2.024796962738 -0.954132735729 0.000981 0.004907 -0.999987
0.020081847906 2.051022529602 -0.954012155533 0.000981 0.004907 -0.999987
0.245670273900 1.954190731049 -0.954457283020 0.000981 0.004907 -0.999987
0.059574157000 2.090347290039 -0.953831434250 0.000981 0.004907 -0.999987
0.171773806214 2.012676715851 -0.954188406467 0.000981 0.004907 -0.999987
0.430378258228 1.913101911545 -0.954646110535 0.000981 0.004907 -0.999987
0.415339410305 1.467382192612 -0.951647639275 0.000983 -0.006883 -0.999976
0.425655961037 1.626743197441 -0.952789902687 0.000983 -0.006883 -0.999976
0.463070124388 1.692650318146 -0.953262269497 0.000983 -0.006883 -0.999976
0.307401895523 1.556673169136 -0.952287614346 0.000983 -0.006883 -0.999976
0.516051054001 1.251605033875 -0.950100958347 0.000983 -0.006883 -0.999976
0.529310643673 1.727139472961 -0.953509509563 0.000983 -0.006883 -0.999976
0.255710810423 1.886752247810 -0.954653561115 0.000983 -0.006883 -0.999976
0.467164278030 1.270700216293 -0.950237870216 0.000983 -0.006883 -0.999976
0.294834434986 1.666854619980 -0.953077375889 0.000983 -0.006883 -0.999976
0.302762955427 1.709886908531 -0.953385829926 0.000983 -0.006883 -0.999976
0.575618863106 1.506814360619 -0.951930224895 0.000983 -0.006883 -0.999976
0.283641666174 1.787240862846 -0.953940331936 0.000983 -0.006883 -0.999976
0.389203429222 1.747649669647 -0.953656494617 0.000983 -0.006883 -0.999976
0.455990493298 1.478438735008 -0.951726853848 0.000983 -0.006883 -0.999976
0.568823814392 1.774652004242 -0.953850030899 0.000983 -0.006883 -0.999976
0.382353246212 1.827099561691 -0.954225957394 0.000983 -0.006883 -0.999976
0.400088727474 1.840043425560 -0.954318821430 0.000983 -0.006883 -0.999976
0.215709775686 1.792000055313 -0.953974425793 0.000983 -0.006883 -0.999976
0.527880847454 1.823273897171 -0.954198539257 0.000983 -0.006883 -0.999976
0.500894010067 1.807019829750 -0.954082071781 0.000983 -0.006883 -0.999976
0.531739294529 1.667827367783 -0.953084409237 0.000983 -0.006883 -0.999976
0.410636842251 1.567004442215 -0.952361702919 0.000983 -0.006883 -0.999976
0.078599929810 1.893002867699 -0.954698383808 0.000983 -0.006883 -0.999976
0.083410486579 1.192566394806 -0.949677824974 0.000983 -0.006883 -0.999976
0.292222231627 1.155788660049 -0.949414193630 0.000983 -0.006883 -0.999976
0.100211977959 1.210058450699 -0.949803173542 0.000983 -0.006883 -0.999976
0.102733150125 1.413062334061 -0.951258301735 0.000983 -0.006883 -0.999976
0.132723063231 1.483955144882 -0.951766431332 0.000983 -0.006883 -0.999976
0.047549128532 1.457861781120 -0.951579391956 0.000983 -0.006883 -0.999976
0.119362592697 1.622673153877 -0.952760696411 0.000983 -0.006883 -0.999976
0.283932387829 1.284508109093 -0.950336813927 0.000983 -0.006883 -0.999976
0.272059112787 1.208850622177 -0.949794530869 0.000983 -0.006883 -0.999976
0.178984731436 1.606061816216 -0.952641665936 0.000983 -0.006883 -0.999976
0.325832009315 1.350861430168 -0.950812458992 0.000983 -0.006883 -0.999976
0.024255678058 1.406462550163 -0.951210975647 0.000983 -0.006883 -0.999976
0.046295374632 1.757658958435 -0.953728258610 0.000983 -0.006883 -0.999976
0.047911673784 1.607489466667 -0.952651858330 0.000983 -0.006883 -0.999976
0.079040326178 1.249995946884 -0.950089454651 0.000983 -0.006883 -0.999976
0.046416491270 1.573690652847 -0.952409625053 0.000983 -0.006883 -0.999976
0.070250809193 1.785091400146 -0.953924894333 0.000983 -0.006883 -0.999976
0.284272968769 1.346014261246 -0.950777709484 0.000983 -0.006883 -0.999976
0.448260188103 1.174256563187 -0.949546575546 0.000983 -0.006883 -0.999976
0.217082947493 1.278469085693 -0.950293540955 0.000983 -0.006883 -0.999976
0.167738884687 1.178327560425 -0.949575781822 0.000983 -0.006883 -0.999976
0.400847405195 1.136969685555 -0.949279308319 0.000983 -0.006883 -0.999976
0.160061359406 1.363180518150 -0.950900733471 0.000983 -0.006883 -0.999976
-0.511473715305 1.935322403908 -0.954544007778 0.000981 0.004907 -0.999987
-0.076488696039 2.141940116882 -0.953594267368 0.000981 0.004907 -0.999987
-0.124274194241 2.007435321808 -0.954212486744 0.000981 0.004907 -0.999987
-0.228175401688 2.024482727051 -0.954134166241 0.000981 0.004907 -0.999987
-0.072614684701 2.207347154617 -0.953293621540 0.000981 0.004907 -0.999987
-0.211289629340 2.025290489197 -0.954130470753 0.000981 0.004907 -0.999987
-0.222601100802 2.107325315475 -0.953753352165 0.000981 0.004907 -0.999987
-0.215604051948 1.947523236275 -0.954487919807 0.000981 0.004907 -0.999987
-0.068340890110 2.137242555618 -0.953615844250 0.000981 0.004907 -0.999987
-0.387673288584 1.935962080956 -0.954541027546 0.000981 0.004907 -0.999987
-0.122479602695 2.083452224731 -0.953863084316 0.000981 0.004907 -0.999987
-0.180590555072 2.149447202682 -0.953559756279 0.000981 0.004907 -0.999987
-0.312627553940 2.212229728699 -0.953271210194 0.000981 0.004907 -0.999987
-0.476895391941 2.149582386017 -0.953559160233 0.000981 0.004907 -0.999987
-0.301720201969 2.171074628830 -0.953460335732 0.000981 0.004907 -0.999987
-0.216161921620 2.140152931213 -0.953602492809 0.000981 0.004907 -0.999987
-0.727565765381 2.214665651321 -0.953260004520 0.000981 0.004907 -0.999987
-0.088068336248 2.218201398849 -0.953243732452 0.000981 0.004907 -0.999987
-0.300333201885 2.124843597412 -0.953672826290 0.000981 0.004907 -0.999987
-0.603357195854 1.985819101334 -0.954311847687 0.000981 0.004907 -0.999987
-0.602802455425 2.211300849915 -0.953275442123 0.000981 0.004907 -0.999987
-0.641537427902 2.148445129395 -0.953564345837 0.000981 0.004907 -0.999987
-0.524800240993 2.034975528717 -0.954085946083 0.000981 0.004907 -0.999987
-0.459138661623 1.983923673630 -0.954320609570 0.000981 0.004907 -0.999987
-0.351244062185 2.105293989182 -0.953762710094 0.000981 0.004907 -0.999987
-0.776137650013 1.921314477921 -0.954608380795 0.000981 0.004907 -0.999987
-0.753463208675 1.949037075043 -0.954480946064 0.000981 0.004907 -0.999987
-0.832701921463 1.904927730560 -0.954683661461 0.000981 0.004907 -0.999987
-0.765582501888 1.985926389694 -0.954311370850 0.000981 0.004907 -0.999987
-0.779419422150 1.954691290855 -0.954454958439 0.000981 0.004907 -0.999987
-0.648880481720 1.859165072441 -0.813076257706 0.001193 -0.967197 -0.254023
-0.670770764351 1.863596439362 -0.829927206039 0.001193 -0.967197 -0.254023
-0.757226645947 1.880057573318 -0.892523109913 0.001193 -0.967197 -0.254023
-0.685603559017 1.856065034866 -0.801287949085 0.001193 -0.967197 -0.254023
-0.830553412437 1.851912379265 -0.785497069359 0.001193 -0.967197 -0.254023
-0.692897200584 1.822595715523 -0.674016177654 0.001193 -0.967197 -0.254023
-0.806550085545 1.826028823853 -0.687071442604 0.001193 -0.967197 -0.254023
-0.854664683342 1.891108989716 -0.934547781944 0.001193 -0.967197 -0.254023
-0.613751411438 1.814869403839 -0.667767763138 0.001334 -0.500299 -0.865851
-0.795497119427 1.817842841148 -0.669483959675 0.001334 -0.500299 -0.865851
-0.661618828773 1.752597212791 -0.631825029850 0.001334 -0.500299 -0.865851
-0.692874193192 1.773715853691 -0.644014418125 0.001334 -0.500299 -0.865851
-0.793874382973 1.645076870918 -0.569765508175 0.001334 -0.500299 -0.865851
-0.877515256405 1.782471299171 -0.649067997932 0.001334 -0.500299 -0.865851
-0.826491117477 1.735639095306 -0.622036933899 0.001334 -0.500299 -0.865851
-0.750560402870 1.616569161415 -0.553311169147 0.001334 -0.500299 -0.865851
-0.671362578869 1.483285665512 -0.545586585999 0.000981 0.004907 -0.999987
-0.664157986641 1.473097562790 -0.545633435249 0.000981 0.004907 -0.999987
-0.601933658123 1.486659288406 -0.545571088791 0.000981 0.004907 -0.999987
-0.659893393517 1.551129817963 -0.545274794102 0.000981 0.004907 -0.999987
-0.895106434822 1.528680920601 -0.545377969742 0.000981 0.004907 -0.999987
-0.804392814636 1.386962413788 -0.546029329300 0.000981 0.004907 -0.999987
-0.740458607674 1.417809009552 -0.545887589455 0.000981 0.004907 -0.999987
-0.704726755619 1.322622895241 -0.596413373947 0.001375 0.639507 -0.768784
-0.732770144939 1.350974440575 -0.572772502899 0.001375 0.639507 -0.768784
-0.787287831306 1.317418694496 -0.600752890110 0.001375 0.639507 -0.768784
-0.793540120125 1.259944796562 -0.648677527905 0.001375 0.639507 -0.768784
-0.835789740086 1.253402709961 -0.654132664204 0.001375 0.639507 -0.768784
-0.656671285629 1.268882989883 -0.641224384308 0.001375 0.639507 -0.768784
-0.708113193512 1.229893445969 -0.673735916615 0.001375 0.639507 -0.768784
-0.592313826084 1.218105912209 -0.683564960957 0.001375 0.639507 -0.768784
-0.623713076115 1.240401387215 -0.664973855019 0.001375 0.639507 -0.768784
-0.708311796188 1.206694602966 -0.693080186844 0.001375 0.639507 -0.768784
-0.707763314247 1.156257748604 -0.794913768768 0.001174 0.973432 -0.228974
-0.790855407715 1.142030358315 -0.855418980122 0.001174 0.973432 -0.228974
-0.643208146095 1.170789599419 -0.733114063740 0.001174 0.973432 -0.228974
-0.868134617805 1.137537956238 -0.874523758888 0.001174 0.973432 -0.228974
-0.579462409019 1.467967391014 -0.569751262665 -0.999999 0.000978 0.000978
-0.579462409019 1.400485634804 -0.581119775772 -0.999999 0.000978 0.000978
-0.579462409019 1.457198023796 -0.679205477238 -0.999999 0.000978 0.000978
-0.579462409019 1.568654417992 -0.581939578056 -0.999999 0.000978 0.000978
-0.579462409019 1.491849184036 -0.657917261124 -0.999999 0.000978 0.000978
-0.579462409019 1.596205234528 -0.575214445591 -0.999999 0.000978 0.000978
0.817467451096 1.859095692635 -0.812812805176 0.001193 -0.967197 -0.254023
0.812507033348 1.853267192841 -0.790649116039 0.001193 -0.967197 -0.254023
0.767570793629 1.863087415695 -0.827991962433 0.001193 -0.967197 -0.254023
0.808766245842 1.826022386551 -0.687046825886 0.001193 -0.967197 -0.254023
0.896019756794 1.822329044342 -0.673002302647 0.001193 -0.967197 -0.254023
-0.865086793900 -2.161659955978 -1.060707569122 -0.535378 -0.121080 -0.835889
-0.878615558147 -2.273983716965 -0.981068909168 -0.535570 -0.676598 -0.505350
-0.857394576073 -2.286973953247 -0.810558617115 -0.374622 -0.727977 0.574202
0.874789953232 -1.995510935783 -0.836571633816 0.533643 0.785332 0.313814
0.855592668056 -2.279261350632 -0.994755923748 0.374261 -0.743620 -0.554038
