0.416385978460 -1.503966689110 0.179749086499 0.081847 -0.189346 0.978493
0.428415000439 -1.414471983910 0.196007415652 0.081847 -0.189346 0.978493
0.501321196556 -1.402203917503 0.192200541496 0.081847 -0.189346 0.978493
0.318935304880 -1.374356985092 0.213077738881 0.082004 -0.192159 0.977932
0.307586044073 -1.345194220543 0.219792410731 0.082004 -0.192159 0.977932
0.225480273366 -1.288398146629 0.233862161636 0.029359 -0.193773 0.980607
0.093807391822 -1.292346358299 0.236872702837 0.029359 -0.193773 0.980607
0.539178550243 -1.202192783356 0.220004245639 0.110078 -0.143948 0.983444
0.525981605053 -1.234390139580 0.216726168990 0.110078 -0.143948 0.983444
0.428105771542 -1.304538846016 0.217265442014 0.110078 -0.143948 0.983444
0.563629746437 -1.283838391304 0.204249054193 0.191744 -0.155711 0.969014
0.571188986301 -1.495456695557 0.164760887623 0.195259 -0.184775 0.963189
0.557217717171 -1.571592688560 0.152918562293 0.111356 -0.193934 0.974674
0.627608418465 -1.297706484795 0.188565850258 0.244324 -0.134574 0.960310
0.275177776814 -1.972385525703 0.079875707626 0.057890 -0.312608 0.948116
0.141382873058 -1.977548837662 0.083600528538 0.028895 -0.307792 0.951015
0.031768038869 -1.994756579399 0.081502377987 0.028917 -0.305515 0.951748
-0.069764614105 -2.009552478790 0.075168207288 -0.023816 -0.307099 0.951380
-0.194623410702 -1.946251869202 0.092420473695 -0.023816 -0.307099 0.951380
0.153730168939 -2.092919349670 0.041278399527 0.032368 -0.363818 0.930908
-0.137636676431 -2.073211193085 0.049582149833 -0.024523 -0.365263 0.930581
-0.338958859444 -2.072893142700 0.038340620697 -0.129668 -0.386214 0.913250
0.145747527480 -2.038235187531 0.062959782779 0.029753 -0.366091 0.930103
0.233359917998 -2.080674171448 0.042894665152 0.051446 -0.370671 0.927338
-0.493968129158 -1.759396314621 0.117070838809 -0.103578 -0.239124 0.965449
-0.425210148096 -1.928400754929 0.082423098385 -0.103514 -0.241533 0.964856
-0.337701857090 -1.768329620361 0.128308370709 -0.065574 -0.228891 0.971241
-0.331338703632 -1.836505174637 0.112632334232 -0.065574 -0.228891 0.971241
-0.314859509468 -1.745417237282 0.135253340006 -0.065574 -0.228891 0.971241
-0.282928824425 -1.912561178207 0.097113206983 -0.055380 -0.232596 0.970995
-0.262015342712 -1.783559203148 0.129299744964 -0.055380 -0.232596 0.970995
0.439913302660 -1.933612823486 0.079933688045 0.105179 -0.312876 0.943952
0.705399990082 -1.995622873306 -0.226046860218 0.725451 -0.581343 0.368457
0.568600356579 -2.125104904175 -0.272808104753 0.573871 -0.818426 -0.029180
-0.301728188992 2.130889177322 0.227242410183 -0.259284 0.774710 0.576711
-0.223716780543 2.131798982620 0.238886207342 -0.037788 0.813152 0.580823
0.166052371264 2.148256540298 0.201996520162 0.018269 0.996222 0.084899
-0.200462475419 2.144858598709 0.209094926715 -0.035987 0.995632 0.086150
-0.310304075480 2.125443220139 0.180357828736 -0.126117 0.500118 -0.856724
0.218158051372 2.114305019379 0.124713942409 -0.004994 0.999843 0.016980
0.296265274286 2.126242876053 0.090836226940 0.102186 0.994386 -0.027469
0.352375984192 2.120475292206 0.096679247916 0.102601 0.994694 -0.007560
0.412198483944 2.115101575851 0.162802234292 0.100459 0.994870 -0.011882
0.398356795311 2.114500522614 0.263208657503 0.111149 0.991178 0.072190
0.116209119558 2.132734060287 0.309382855892 0.026741 0.727650 0.685427
-0.197292953730 2.054565191269 0.320795118809 -0.019065 0.137941 0.990257
-0.071526363492 2.036658287048 0.325816363096 -0.019065 0.137941 0.990257
-0.059724140912 1.892536997795 0.346098959446 -0.019065 0.137941 0.990257
-0.030330250040 2.072213649750 0.321700066328 -0.019065 0.137941 0.990257
-0.252336174250 2.078535318375 0.316227763891 -0.030308 0.129088 0.991170
-0.275892168283 1.814660072327 0.349980026484 -0.030308 0.129088 0.991170
-0.232815533876 1.923910379410 0.336993128061 -0.030308 0.129088 0.991170
-0.192331194878 1.983761787415 0.330378681421 -0.030308 0.129088 0.991170
-0.317646980286 2.006702184677 0.322492003441 -0.061058 0.130181 0.989608
-0.342832297087 1.928271055222 0.331205159426 -0.061058 0.130181 0.989608
-0.377020716667 1.996212363243 0.320168942213 -0.061058 0.130181 0.989608
-0.002925217152 2.136287927628 0.303293436766 0.025624 0.999343 0.025624
-0.243878185749 2.129248380661 0.270534723997 -0.033005 0.997611 0.060687
-0.329591959715 2.120474338531 0.287298738956 -0.130479 0.989561 0.061198
-0.509367406368 1.984771490097 0.310473203659 -0.105474 0.119696 0.987192
-0.504683136940 2.021028041840 0.306550085545 -0.105474 0.119696 0.987192
-0.463434100151 2.105782747269 0.246974691749 -0.251146 0.965849 0.063724
-0.342042028904 2.121349334717 0.248695909977 -0.128718 0.989155 0.070737
-0.071235589683 2.117510080338 0.132059931755 -0.040209 0.999038 0.017527
-0.276489853859 2.108812332153 0.170630738139 -0.035778 0.158114 -0.986772
-0.262156784534 2.109356880188 0.161989688873 -0.137056 0.985612 0.098919
-0.424948006868 2.111317634583 0.216003865004 -0.114990 0.993294 0.012047
-0.406057447195 2.112974405289 0.101320862770 -0.119314 0.992827 -0.007662
-0.248705536127 2.109911441803 0.168165743351 -0.038227 0.999076 0.019630
-0.109874844551 2.120030403137 0.064160995185 -0.038867 0.993893 0.103276
0.138155087829 2.120484113693 0.058780666441 0.022971 0.994321 0.103917
0.018869286403 2.121897220612 0.070707201958 0.022971 0.994321 0.103917
0.202309623361 2.119642496109 0.055339578539 0.018625 0.993685 0.110653
0.282969921827 2.125246763229 -0.007037207484 0.089737 0.995754 -0.020542
0.376936882734 2.116855621338 0.022182799876 0.093237 0.995597 -0.009645
0.438564926386 2.109676837921 0.124387443066 0.184051 0.982763 -0.017363
0.435911417007 2.047200441360 0.307260245085 0.103100 0.122061 0.987153
0.338448077440 1.947721838951 0.327088147402 0.075243 0.121546 0.989730
0.395822882652 1.832315444946 0.336719304323 0.075243 0.121546 0.989730
0.348067402840 1.903358578682 0.331749647856 0.075243 0.121546 0.989730
0.244399085641 1.993603229523 0.326852858067 0.058763 0.130199 0.989745
0.330685496330 2.086784362793 0.309355646372 0.058763 0.130199 0.989745
0.333047926426 2.092031240463 0.308520525694 0.058763 0.130199 0.989745
0.230535894632 1.915017843246 0.337612092495 0.028064 0.129096 0.991235
0.185944318771 1.873140096664 0.344324409962 0.028064 0.129096 0.991235
0.210581958294 2.070313215256 0.317813068628 0.028064 0.129096 0.991235
0.101179145277 1.886251688004 0.344935804605 0.028064 0.129096 0.991235
0.097823143005 2.061541557312 0.321270108223 0.016785 0.137640 0.990340
0.189928054810 2.126518249512 0.310569882393 0.016785 0.137640 0.990340
0.067991733551 2.125545263290 0.312880277634 0.016785 0.137640 0.990340
0.156972885132 2.048789262772 0.321992784739 0.016785 0.137640 0.990340
-0.443242847919 2.048165798187 0.309082508087 -0.077744 0.119517 0.989784
-0.385577678680 1.955174446106 0.324852108955 -0.077744 0.119517 0.989784
-0.444267034531 1.883997082710 0.328786700964 -0.077744 0.119517 0.989784
-0.436911851168 2.047436714172 0.309671282768 -0.077744 0.119517 0.989784
-0.515743911266 1.868224263191 0.324684381485 -0.044434 0.133302 0.990079
-0.555621147156 1.924452662468 0.315363258123 -0.044434 0.133302 0.990079
-0.490286827087 2.099738836288 0.104677312076 -0.200136 0.979611 -0.017556
-0.502266108990 2.097474098206 0.163217037916 -0.228974 0.973432 -0.001174
-0.360005587339 2.117281436920 0.048685155809 -0.118924 0.992514 -0.027786
-0.104493379593 2.130418539047 -0.030689524487 -0.034483 0.993320 0.110122
-0.386013835669 2.113302946091 -0.026132624596 -0.106317 0.994114 -0.020825
-0.434727966785 2.107623815536 -0.071512460709 -0.100209 0.994381 -0.034137
-0.092852830887 2.130727529526 -0.045174967498 -0.034303 0.998957 -0.030145
0.189897358418 2.129526615143 -0.037570927292 0.019474 0.999305 -0.031773
0.352153986692 2.118103504181 -0.064444079995 0.083809 0.995910 -0.033741
0.340693175793 2.119504928589 -0.033124286681 0.088795 0.996003 -0.009628
0.424909561872 2.109682798386 -0.067689135671 0.164934 0.986194 -0.014787
0.503106892109 1.898050785065 0.320679545403 0.042159 0.133315 0.990177
0.515808582306 1.908682823181 0.318703234196 0.042159 0.133315 0.990177
0.335436761379 2.127408504486 -0.117747403681 -0.007300 -0.061533 -0.998078
0.324748843908 2.120468854904 -0.089583940804 0.084896 0.996181 0.020418
0.403665721416 2.119580984116 -0.112990565598 -0.003896 0.907762 0.419467
0.125958710909 2.134192228317 -0.108051761985 0.012276 0.838848 0.544228
0.481351703405 0.537567019463 0.703059852123 0.072347 0.037793 0.996663
0.441056787968 0.606250524521 0.703407704830 0.072347 0.037793 0.996663
0.524248003960 0.310430079699 0.708412468433 0.056089 0.030690 0.997954
0.413655102253 0.357906609774 0.713157355785 0.056089 0.030690 0.997954
0.382168769836 0.613701224327 0.707283437252 0.056089 0.030690 0.997954
0.352111756802 0.422053456306 0.713964164257 0.013244 0.031582 0.999413
0.284378379583 0.372510254383 0.716369986534 0.013244 0.031582 0.999413
0.341188043356 0.500774562359 0.711666524410 0.013244 0.031582 0.999413
0.243741214275 0.486233532429 0.715522110462 0.063348 0.003115 0.997987
0.276923805475 0.472090542316 0.713493347168 0.063348 0.003115 0.997987
0.219049483538 0.446191549301 0.717194795609 0.063348 0.003115 0.997987
0.186108753085 0.493117868900 0.718830227852 0.025118 0.003014 0.999680
0.116513915360 0.441508233547 0.720831215382 0.025118 0.003014 0.999680
0.114580504596 0.352234989405 0.721210122108 0.025118 0.003014 0.999680
0.068404607475 0.330531716347 0.722491562366 0.025118 0.003014 0.999680
0.069104388356 0.573478341103 0.722013890743 0.031203 0.001007 0.999513
0.048603441566 0.505223572254 0.722684085369 0.031203 0.001007 0.999513
0.033422961831 0.617777168751 0.723112940788 0.031203 0.001007 0.999513
0.092846602201 0.574888408184 0.721269726753 0.031203 0.001007 0.999513
-0.019622335210 0.493954628706 0.724077045918 -0.031203 -0.001007 0.999513
-0.080054908991 0.528299212456 0.722187817097 -0.031203 -0.001007 0.999513
-0.187834888697 0.628153920174 0.718822300434 -0.031203 -0.001007 0.999513
-0.197110548615 0.725038766861 0.709393382072 -0.034407 0.109879 0.993349
-0.107782959938 0.702744066715 0.714915454388 -0.034407 0.109879 0.993349
-0.133783519268 0.690005242825 0.715432763100 -0.034407 0.109879 0.993349
-0.249886721373 0.668614625931 0.712704002857 -0.064919 0.108198 0.992007
-0.283279329538 0.746270060539 0.702035486698 -0.064919 0.108198 0.992007
-0.371755063534 0.846763968468 0.683779418468 -0.077409 0.116692 0.990147
-0.399781048298 0.752229988575 0.692669093609 -0.077409 0.116692 0.990147
-0.277099311352 0.976562857628 0.668065249920 -0.082906 0.211596 0.973835
-0.317846179008 1.041772842407 0.651204109192 -0.069233 0.197981 0.977758
-0.021815402433 0.925669312477 0.691548049450 -0.034797 0.217180 0.975511
-0.058457538486 1.033804893494 0.666026115417 -0.034797 0.217180 0.975511
-0.193970769644 0.909987688065 0.688097536564 -0.039630 0.212562 0.976344
-0.223203942180 0.978722333908 0.671886861324 -0.039630 0.212562 0.976344
-0.106467954814 0.831832706928 0.700767219067 -0.034415 0.107685 0.993589
-0.064437054098 0.729050755501 0.713509678841 -0.034415 0.107685 0.993589
-0.035244841129 0.814008176327 0.705240666866 -0.034415 0.107685 0.993589
0.147780567408 0.855452418327 0.696250140667 0.034407 0.109879 0.993349
0.005478068255 0.700966238976 0.718035280704 0.034407 0.109879 0.993349
0.058331314474 0.705113947392 0.715825676918 0.032189 0.109887 0.993423
0.117113418877 0.755579590797 0.708316087723 0.032189 0.109887 0.993423
0.184033334255 0.870082855225 0.693431735039 0.032189 0.109887 0.993423
0.219700232148 0.679305493832 0.712725162506 0.062493 0.110216 0.991941
0.249411523342 0.815947294235 0.695771098137 0.062493 0.110216 0.991941
0.324259877205 0.819052100182 0.689791321754 0.075112 0.116712 0.990321
0.288632512093 0.821018934250 0.692294239998 0.075112 0.116712 0.990321
0.512401580811 0.655749082565 0.695223152637 0.072627 0.118740 0.990266
0.436005830765 0.651611566544 0.701301157475 0.072627 0.118740 0.990266
0.474606990814 0.826565980911 0.675912320614 0.106778 0.135572 0.984997
0.512163221836 0.774312794209 0.679022789001 0.106778 0.135572 0.984997
-0.010995036922 0.947406947613 0.687052547932 0.032307 0.218971 0.975196
0.029469683766 1.062933921814 0.659821271896 0.032307 0.218971 0.975196
0.083498694003 1.003520488739 0.671373009682 0.032307 0.218971 0.975196
0.076343074441 0.928601086140 0.688167333603 0.034733 0.214389 0.976131
0.135067269206 0.981355071068 0.674444198608 0.034733 0.214389 0.976131
0.283273160458 0.985776245594 0.664615452290 0.080254 0.211129 0.974158
0.205369621515 0.951500892639 0.678392708302 0.080254 0.211129 0.974158
0.331595718861 1.004122734070 0.657354414463 0.064364 0.200378 0.977602
0.455541968346 0.914383769035 0.664542615414 0.106098 0.195969 0.974853
0.507864475250 1.055939555168 0.624320864677 0.163034 0.234610 0.958321
0.424166053534 0.229607492685 0.709922313690 0.054863 -0.050560 0.997213
0.492590427399 0.089339703321 0.699226915836 0.054863 -0.050560 0.997213
0.508239805698 0.064085789025 0.697120368481 0.054863 -0.050560 0.997213
0.396611809731 0.046804599464 0.702994287014 0.061439 -0.046349 0.997034
0.426767140627 0.183759883046 0.707526385784 0.061439 -0.046349 0.997034
0.270711958408 0.038120880723 0.707208037376 0.032612 -0.047340 0.998346
0.294648230076 0.085114426911 0.708674490452 0.032612 -0.047340 0.998346
0.308200627565 0.124990224838 0.710138022900 0.032612 -0.047340 0.998346
0.200288802385 0.290348738432 0.718315541744 0.011273 -0.037919 0.999217
0.304468154907 0.249210834503 0.715543031693 0.011273 -0.037919 0.999217
0.244556725025 0.102539323270 0.710704147816 0.011273 -0.037919 0.999217
0.020726919174 0.003177798353 0.710811793804 0.017528 -0.038150 0.999118
0.179945424199 0.262979686260 0.717611193657 0.017528 -0.038150 0.999118
0.153777793050 0.214565783739 0.716279327869 0.017528 -0.038150 0.999118
0.187012761831 0.259532034397 0.717351198196 0.017528 -0.038150 0.999118
0.003215757199 0.276673793793 0.722516536713 0.025984 -0.040536 0.998840
0.083033815026 0.138431280851 0.714783847332 0.025984 -0.040536 0.998840
0.049381680787 0.162823170424 0.716642320156 0.025984 -0.040536 0.998840
-0.141079396009 0.224598199129 0.717250347137 -0.023905 -0.042613 0.998806
-0.098875090480 0.141702964902 0.714824914932 -0.023905 -0.042613 0.998806
-0.005501674488 0.133286714554 0.716767311096 -0.023905 -0.042613 0.998806
-0.211841821671 0.629301548004 0.718105196953 -0.025118 0.003014 0.999680
-0.162007153034 0.509003818035 0.719796121120 -0.025118 0.003014 0.999680
-0.029318362474 0.327747702599 0.723846137524 -0.025118 0.003014 0.999680
-0.066974475980 0.400082945824 0.722628772259 -0.025118 0.003014 0.999680
-0.281435728073 0.590592503548 0.713875830173 -0.063348 0.003115 0.997987
-0.247957631946 0.570956110954 0.716013312340 -0.063348 0.003115 0.997987
-0.235661894083 0.583162546158 0.716755688190 -0.063348 0.003115 0.997987
-0.358139365911 0.361675590277 0.715748071671 -0.013244 0.031582 0.999413
-0.298047900200 0.448114275932 0.713892996311 -0.013244 0.031582 0.999413
-0.364418357611 0.488403826952 0.711766302586 -0.013244 0.031582 0.999413
-0.471999526024 0.355852723122 0.710472881794 -0.056092 0.028575 0.998017
-0.463616132736 0.389981329441 0.709957540035 -0.056092 0.028575 0.998017
-0.528293371201 0.517563283443 0.701242446899 -0.072353 0.035637 0.996742
-0.503007769585 0.540288209915 0.702261328697 -0.072353 0.035637 0.996742
-0.530216813087 0.551105976105 0.699894070625 -0.072353 0.035637 0.996742
-0.412725687027 0.667761445045 0.701631247997 -0.074940 0.116446 0.990366
-0.424632459879 0.713101983070 0.695403218269 -0.074940 0.116446 0.990366
-0.493214368820 0.830579221249 0.674523293972 -0.109184 0.133181 0.985059
-0.432456165552 0.948302149773 0.661361575127 -0.111356 0.193934 0.974674
-0.546605348587 0.997212350368 0.633919775486 -0.168292 0.231898 0.958071
0.376197516918 -0.331771850586 0.631878137589 0.040030 -0.938776 -0.342195
0.525464594364 -0.116210967302 0.674281597137 0.086608 -0.181754 0.979523
0.438000619411 -0.222674012184 0.662416517735 0.086608 -0.181754 0.979523
0.423641324043 -0.022119786590 0.697883248329 0.060397 -0.166979 0.984109
0.301247626543 -0.134279236197 0.684581160545 0.040789 -0.168985 0.984774
0.272117614746 -0.197020098567 0.675016522408 0.040789 -0.168985 0.984774
0.236436635256 -0.088766515255 0.694405376911 0.033511 -0.165244 0.985683
0.244080990553 -0.031554453075 0.703689098358 0.033511 -0.165244 0.985683
0.153076499701 -0.229141265154 0.673237681389 0.024108 -0.164165 0.986138
0.105342276394 -0.243566840887 0.672016978264 0.024108 -0.164165 0.986138
0.007820010185 -0.200561583042 0.681476891041 0.019394 -0.160852 0.986788
0.144532173872 -0.030560370535 0.706462025642 0.019394 -0.160852 0.986788
-0.066440463066 -0.042386814952 0.706430077553 -0.017074 -0.160497 0.986889
-0.044630981982 -0.139302730560 0.690949320793 -0.017074 -0.160497 0.986889
-0.111592330039 -0.153071224689 0.687435150146 -0.021756 -0.166031 0.985880
-0.052762418985 -0.252295076847 0.672090351582 -0.021756 -0.166031 0.985880
-0.222430512309 -0.198923036456 0.677247226238 -0.031131 -0.164880 0.985822
-0.298007696867 -0.070058085024 0.696432292461 -0.031131 -0.164880 0.985822
-0.380758285522 -0.110641233623 0.686681330204 -0.038374 -0.168613 0.984935
-0.399534553289 -0.215276286006 0.667973577976 -0.038374 -0.168613 0.984935
-0.470141530037 -0.066371664405 0.689186155796 -0.057901 -0.166614 0.984321
-0.532854795456 -0.209385722876 0.658336579800 -0.083948 -0.183711 0.979389
-0.471491008997 -0.151265770197 0.674488067627 -0.083948 -0.183711 0.979389
0.192277267575 -0.261961013079 0.664973676205 0.036834 -0.313726 0.948799
0.061340242624 -0.304097443819 0.655701577663 0.028823 -0.299507 0.953659
-0.084637157619 -0.269166886806 0.666478157043 -0.023682 -0.300391 0.953522
-0.192567497492 -0.291123211384 0.656439900398 -0.031582 -0.314554 0.948714
-0.333026677370 -0.280364185572 0.654307723045 -0.042008 -0.314421 0.948354
-0.385378360748 -0.312327325344 0.641489744186 -0.039466 -0.314453 0.948452
-0.438538223505 -0.297784626484 0.642432451248 -0.101688 -0.305064 0.946887
-0.556386351585 -0.310841053724 0.625704109669 -0.091446 -0.322050 0.942296
0.317940056324 -0.278535068035 0.653712570667 0.044692 -0.312846 0.948752
0.311269044876 -0.326416969299 0.638224840164 0.044692 -0.312846 0.948752
-0.440665602684 0.061912946403 0.701857388020 -0.059291 -0.046355 0.997164
-0.457628190517 0.134945064783 0.704306066036 -0.059291 -0.046355 0.997164
-0.467172294855 0.141477242112 0.704102396965 -0.052717 -0.050566 0.997328
-0.505557417870 0.146454513073 0.702299892902 -0.052717 -0.050566 0.997328
-0.289882868528 0.122977167368 0.711161017418 -0.032612 -0.047340 0.998346
-0.384922772646 -0.016845734790 0.701407551765 -0.032612 -0.047340 0.998346
-0.300846636295 0.084339827299 0.708949863911 -0.032612 -0.047340 0.998346
-0.281992971897 0.278658270836 0.717228055000 -0.011250 -0.037842 0.999220
-0.227425128222 0.229841798544 0.715979576111 -0.011250 -0.037842 0.999220
-0.337515592575 0.270048052073 0.716286182404 -0.011250 -0.037842 0.999220
-0.173012316227 0.091603264213 0.711578369141 -0.017528 -0.038150 0.999118
-0.203554272652 -0.022533614188 0.706718146801 -0.017528 -0.038150 0.999118
-0.193098902702 0.234249204397 0.716611444950 -0.017528 -0.038150 0.999118
-0.029279604554 2.236518383026 -0.176488190889 -0.033511 0.985683 -0.165244
-0.152951672673 2.231436967850 -0.181772336364 -0.033460 0.986489 -0.160377
-0.210688933730 2.230867862701 -0.165036275983 -0.029133 0.817121 0.575730
-0.463430821896 2.196990251541 -0.156900286674 -0.002979 0.012908 0.999912
-0.197973355651 2.224162340164 -0.203452974558 0.000991 -0.014865 -0.999889
-0.502537667751 2.192198038101 -0.188014417887 -0.184121 0.965003 -0.186733
0.659206330776 2.090118408203 -0.186652302742 0.694284 0.717284 0.058935
0.618401885033 2.135160684586 -0.178282201290 0.726297 0.675591 -0.126766
0.073847219348 2.235148906708 -0.164348036051 0.015114 0.817521 0.575700
0.045607566833 2.235931873322 -0.174368008971 0.017074 0.986889 -0.160497
0.262928158045 2.224727630615 -0.193794816732 0.106663 0.979582 -0.170415
0.471466541290 2.197882175446 -0.188420295715 0.168894 0.968238 -0.184365
0.573631882668 2.157141685486 -0.207925736904 0.484885 0.874404 0.017461
0.718379974365 2.024133205414 -0.199824512005 0.772122 0.634793 -0.029428
0.742308974266 1.954380035400 -0.192775622010 0.971526 0.231549 -0.050230
0.775001227856 1.805886983871 -0.246822595596 0.955518 0.262999 -0.133482
0.742386698723 1.962434411049 -0.170395344496 0.955518 0.262999 -0.133482
-0.004900632426 2.213936090469 -0.312932133675 0.019759 0.982137 -0.187129
-0.022097095847 2.210064172745 -0.335049659014 -0.036531 0.981611 -0.187366
-0.087268605828 2.224042177200 -0.249247074127 -0.031853 0.980354 -0.194655
-0.160660073161 2.215533733368 -0.279947400093 -0.031853 0.980354 -0.194655
-0.565065145493 2.176182508469 -0.215522602201 -0.488617 0.870651 -0.056751
-0.333705723286 2.206485271454 -0.269743502140 -0.122200 0.978834 -0.164168
-0.343237042427 2.195191621780 -0.322838187218 -0.090284 0.975808 -0.199119
-0.254077047110 2.199197530746 -0.344067007303 -0.090284 0.975808 -0.199119
0.756846368313 1.734880447388 -0.372320920229 -0.203293 0.022327 -0.978863
-0.487722903490 2.181078433990 -0.287727802992 -0.182917 0.970868 -0.154776
-0.601930141449 2.144400119781 -0.265868872404 -0.476264 0.854872 -0.205830
-0.680045723915 2.075999736786 -0.291216164827 -0.717283 0.661025 -0.220342
-0.768071770668 1.938998818398 -0.285671561956 -0.956605 0.204700 -0.207376
-0.699065625668 2.057799339294 -0.283819377422 -0.721269 0.658956 -0.213421
-0.674227297306 2.042293787003 -0.089048966765 -0.625311 0.690960 0.362713
-0.802832126617 1.852079391479 -0.200965061784 -0.959823 0.247485 -0.132254
-0.816000401974 1.785265207291 -0.230676323175 -0.959823 0.247485 -0.132254
-0.779525816441 1.950982570648 -0.192741379142 -0.975464 0.214481 -0.049682
-0.783030092716 1.899756908417 -0.262493580580 -0.940675 0.228588 -0.250754
-0.798807740211 1.781708836555 -0.311709374189 -0.940675 0.228588 -0.250754
-0.855865836143 1.640182137489 -0.241172939539 -0.953242 0.291017 -0.081485
-0.325770914555 2.201730966568 -0.126106470823 -0.036414 0.292567 0.955552
-0.291633576155 2.173033237457 -0.123047910631 -0.005213 0.065688 0.997827
-0.161437839270 2.177012920380 -0.122531823814 -0.005224 0.065825 0.997818
-0.224968552589 2.196027755737 -0.124199271202 -0.003158 0.078950 0.996874
-0.219616532326 2.208622932434 -0.125446006656 -0.011070 0.293981 0.955747
0.133533418179 2.228908538818 -0.134670063853 0.016898 0.919014 0.393863
0.026026600972 2.228283643723 -0.131525859237 0.009179 0.434034 0.900850
0.061294641346 2.219871997833 -0.127655103803 0.009267 0.454065 0.890920
0.044939346611 2.202924728394 -0.124298416078 0.001053 0.078950 0.996878
0.171335816383 2.141736507416 -0.120336540043 0.005213 0.065688 0.997827
0.297718822956 2.192922592163 -0.124235197902 0.003128 0.065688 0.997835
0.787723004818 1.811857104301 -0.129049763083 0.951394 0.299009 -0.073782
0.094486035407 2.229084730148 -0.155278980732 0.000991 -0.014865 -0.999889
0.239100486040 2.225992202759 -0.135600700974 0.103037 0.994578 -0.014100
0.446252733469 2.167812824249 -0.117924951017 0.077763 0.413372 0.907236
0.529851794243 2.155568122864 -0.119055695832 0.069474 0.423653 0.903157
0.514358699322 2.099099636078 -0.076886847615 0.113954 0.759199 0.640805
0.782294571400 1.837231874466 -0.031391061842 0.941442 0.332044 0.058596
0.784992158413 1.829679131508 -0.068023964763 0.949264 0.313920 -0.018760
0.703926861286 1.989593863487 -0.053286105394 0.625166 0.779701 -0.035122
0.422680914402 2.201884508133 -0.131695717573 0.078478 0.436447 0.896301
0.483174800873 2.194263458252 -0.137599885464 0.173106 0.984753 -0.017196
0.664456725121 2.055074691772 -0.120292328298 0.498245 0.432470 0.751479
0.445836514235 2.200589895248 -0.151463553309 0.173875 0.984525 -0.021878
0.622467637062 2.096818685532 -0.312470376492 0.706734 0.672411 -0.219977
0.716009199619 2.016212224960 -0.255953401327 0.710791 0.670352 -0.213082
0.715924978256 1.974163413048 -0.320986926556 0.953469 0.219824 -0.206338
0.762879669666 1.827205777168 -0.277083665133 0.936579 0.244994 -0.250594
0.786633491516 1.718308448792 -0.300562798977 0.884300 0.384543 -0.264841
0.806953787804 1.691831111908 -0.255574613810 0.935133 0.342838 -0.089378
0.821023821831 1.666006684303 -0.202447220683 0.948305 0.306536 -0.082178
0.578559219837 2.127989768982 -0.331345766783 0.496799 0.848884 -0.180518
0.160006016493 2.229287385941 -0.209853902459 0.017014 0.999815 0.009007
0.361660003662 2.211110353470 -0.226287186146 0.106240 0.980579 -0.164855
0.288993358612 2.211590051651 -0.270627796650 0.106240 0.980579 -0.164855
0.391234934330 2.207917690277 -0.224933683872 0.152902 0.974278 -0.165539
0.224049016833 2.206850767136 -0.320235997438 0.074596 0.977089 -0.199331
0.300603091717 2.199737787247 -0.326170623302 0.074596 0.977089 -0.199331
0.052603520453 2.225786924362 -0.245089158416 0.017452 0.980788 -0.194296
0.026517741382 2.230201244354 -0.224983766675 0.017452 0.980788 -0.194296
-0.505889594555 2.102755546570 -0.081630945206 -0.126421 0.757036 0.641026
-0.645094931126 2.063277721405 -0.092910230160 -0.406409 0.801573 0.438536
-0.841056644917 1.739484786987 -0.125041708350 -0.974158 0.211129 -0.080254
-0.801067769527 1.882729411125 -0.048168521374 -0.946821 0.316468 0.058127
0.789071202278 -0.632837474346 0.271857053041 -0.987018 -0.003369 -0.160573
0.790420591831 -0.625821352005 0.315450012684 -0.998530 -0.011430 0.052992
0.900696992874 -0.614129304886 0.323656022549 0.461675 -0.705013 0.538343
0.893638253212 -0.653473496437 0.292361676693 0.459898 -0.570273 0.680649
0.832264542580 1.036101222038 0.164740234613 -0.006929 0.685996 0.727572
0.856953918934 0.827913045883 0.136256635189 0.852148 -0.135470 -0.505462
0.829626798630 0.829184710979 0.136377856135 -0.841663 0.136130 0.522563
0.847393095493 0.912137448788 0.164054870605 0.001018 -0.043791 0.999040
0.848823308945 0.863034248352 0.130962848663 -0.001018 0.043791 -0.999040
-0.855869591236 0.084764420986 -0.275896281004 -0.991139 -0.023466 -0.130737
-0.849245607853 -0.042259961367 -0.304227441549 -0.991139 -0.023466 -0.130737
-0.849580645561 -0.003480836749 -0.308408707380 -0.991139 -0.023466 -0.130737
-0.846727192402 0.127974763513 -0.352920085192 -0.991139 -0.023466 -0.130737
-0.751454889774 -0.635712623596 0.203735575080 0.133813 -0.025863 0.990669
-0.771267831326 -0.039764434099 0.222847461700 0.134104 -0.028173 0.990567
-0.871980547905 0.148198410869 -0.082589052618 -0.026036 0.998749 -0.042699
-0.843455374241 -0.819046914577 -0.238844767213 0.134850 -0.014488 0.990760
-0.843363285065 -0.223692104220 -0.337183535099 -0.993810 -0.014182 -0.110181
-0.838508903980 -0.243931472301 -0.378678798676 -0.993810 -0.014182 -0.110181
-0.839166820049 -0.211916878819 -0.376742720604 -0.993810 -0.014182 -0.110181
-0.849424421787 -0.419070661068 -0.257574737072 -0.993810 -0.014182 -0.110181
-0.837213754654 -0.069530591369 -0.409379005432 -0.993865 -0.011974 -0.109946
-0.852136135101 -0.132484197617 -0.267532169819 -0.993865 -0.011974 -0.109946
-0.851012468338 -0.179789453745 -0.272800952196 -0.993865 -0.011974 -0.109946
-0.830341458321 -0.716787576675 -0.414389580488 -0.993915 -0.009776 0.109711
-0.832504928112 -0.770492434502 -0.384189516306 -0.995794 -0.009647 -0.091111
-0.840700328350 -0.883935213089 -0.283349394798 -0.995794 -0.009647 -0.091111
-0.838440597057 -0.880315363407 -0.308275729418 -0.995794 -0.009647 -0.091111
-0.845424950123 -0.691882252693 -0.261944532394 -0.995035 -0.014076 -0.098529
-0.845252394676 -0.806255161762 -0.247253388166 -0.995035 -0.014076 -0.098529
-0.841073989868 -0.825826764107 -0.286633342505 -0.995035 -0.014076 -0.098529
-0.870584130287 0.042048059404 -0.092917114496 -0.996569 -0.035708 -0.074662
-0.873081207275 0.117046989501 -0.096348956227 -0.996569 -0.035708 -0.074662
-0.863963365555 -0.059127323329 -0.153092354536 -0.998267 -0.028402 -0.051544
-0.859882354736 -0.193702116609 -0.156956985593 -0.998267 -0.028402 -0.051544
-0.855945229530 -0.414871573448 -0.107963062823 -0.998259 -0.028461 -0.051652
-0.854639768600 -0.522262215614 -0.072330556810 -0.998259 -0.028461 -0.051652
-0.855345010757 -0.471714496613 -0.087330192327 -0.998259 -0.028461 -0.051652
-0.854608297348 -0.425025582314 -0.167300879955 -0.999626 -0.021269 -0.017217
-0.853648841381 -0.528071582317 -0.095660813153 -0.999626 -0.021269 -0.017217
-0.858602702618 -0.240042328835 -0.159736439586 -0.999626 -0.021269 -0.017217
-0.849123477936 -0.729894518852 -0.069839559495 -0.999411 -0.029605 -0.017354
-0.847691714764 -0.760750532150 -0.100372970104 -0.999411 -0.029605 -0.017354
-0.847538530827 -0.750205695629 -0.162170439959 -0.999775 -0.021016 0.003002
-0.844173729420 -0.906123638153 -0.158445239067 -0.999775 -0.021016 0.003002
-0.844437003136 -0.760125875473 -0.021128982306 -0.994107 -0.034280 0.102839
-0.834898591042 -0.892341673374 0.027555279434 -0.994107 -0.034280 0.102839
-0.839301049709 -0.779469549656 0.021947104484 -0.994278 -0.036416 0.100421
-0.846167206764 -0.650589764118 -0.000554762490 -0.994278 -0.036416 0.100421
-0.850577950478 -0.620021224022 -0.034033931792 -0.994381 -0.034137 0.100209
-0.851605474949 -0.431766271591 0.018441863358 -0.994381 -0.034137 0.100209
-0.842090129852 -0.609300255775 0.053630039096 -0.994381 -0.034137 0.100209
-0.863247036934 -0.251577347517 -0.036929067224 -0.994381 -0.034137 0.100209
-0.853591263294 -0.221096038818 0.078622885048 -0.995186 -0.036209 0.091070
-0.855438470840 -0.234247863293 0.053348269314 -0.995186 -0.036209 0.091070
-0.855842292309 -0.226017504930 0.052209306508 -0.995186 -0.036209 0.091070
-0.844537913799 -0.402765661478 0.105281390250 -0.995186 -0.036209 0.091070
-0.861613094807 -0.144531026483 0.023483186960 -0.994974 -0.040769 0.091454
-0.833194315434 -0.072858810425 0.150223165751 -0.830300 0.475125 -0.291306
-0.850962400436 0.049062296748 0.150951907039 -0.936375 -0.042739 0.348389
-0.849200427532 0.159954622388 0.169029742479 -0.936375 -0.042739 0.348389
-0.864796221256 0.133294433355 0.103197023273 -0.994278 -0.036416 0.100421
-0.865433156490 -0.066524207592 0.017124935985 -0.994748 -0.040850 0.093844
-0.866193056107 0.031162036583 0.052718997002 -0.994748 -0.040850 0.093844
-0.863896071911 -0.040809012949 0.045155316591 -0.994974 -0.040769 0.091454
-0.838676631451 0.151637911797 0.183675944805 -0.476547 -0.045060 0.877993
-0.833652853966 0.059781115502 0.181758955121 -0.476547 -0.045060 0.877993
-0.838060021400 -0.079790584743 0.169157117605 -0.938676 -0.042608 0.342158
-0.848114073277 -0.174971535802 0.129606127739 -0.940682 -0.034650 0.337516
-0.830213129520 -0.576687097549 0.134003862739 -0.967410 -0.043023 0.249535
-0.834185242653 -0.621499001980 0.111051328480 -0.967410 -0.043023 0.249535
-0.821910381317 -0.784152209759 0.136552482843 -0.967647 -0.032946 0.250148
-0.824869334698 -0.859639644623 0.111750759184 -0.975220 -0.039682 0.217651
-0.779579460621 -0.835852980614 0.165777772665 -0.420521 -0.038715 0.906456
-0.790678322315 -0.703842341900 0.166783392429 -0.441897 -0.044595 0.895957
-0.813276946545 -0.343395352364 0.172022372484 -0.442031 -0.038963 0.896153
-0.818961799145 -0.374042868614 0.167868271470 -0.442031 -0.038963 0.896153
-0.772128224373 -0.379539847374 0.192332580686 -0.480952 -0.045218 0.875580
-0.774032592773 -0.326402068138 0.194099783897 -0.480952 -0.045218 0.875580
-0.814470291138 -0.067807815969 0.185457497835 -0.479801 -0.045109 0.876217
-0.771434307098 -0.243785589933 0.201916605234 -0.778766 -0.046811 0.625566
-0.748629093170 -0.882640480995 0.185058623552 -0.973818 -0.039920 0.223797
-0.755982458591 -0.623964428902 0.198624745011 -0.970423 -0.040282 0.238028
-0.836396694183 -0.372915118933 -0.385477960110 -0.995128 -0.009703 -0.098111
-0.846731543541 -0.597590029240 -0.259553760290 -0.995128 -0.009703 -0.098111
-0.835194706917 -0.508884310722 -0.384457945824 -0.995128 -0.009703 -0.098111
-0.844117641449 -0.611414134502 -0.284574866295 -0.995128 -0.009703 -0.098111
-0.880031764507 0.822385370731 -0.250328123569 -0.981078 -0.086102 -0.173417
-0.850909709930 0.466886043549 -0.358698099852 -0.987348 -0.026253 -0.156378
-0.874016702175 0.490983009338 -0.216461211443 -0.987348 -0.026253 -0.156378
-0.860943198204 0.469864547253 -0.295697122812 -0.987348 -0.026253 -0.156378
-0.874252736568 0.465564459562 -0.210760608315 -0.987348 -0.026253 -0.156378
-0.859105110168 0.639505445957 -0.328420042992 -0.987361 -0.017004 -0.157570
-0.851083636284 0.677361428738 -0.382936865091 -0.987361 -0.017004 -0.157570
-0.849963665009 0.780309081078 -0.400824815035 -0.982038 -0.038811 -0.184647
-0.859751880169 0.711281776428 -0.334301978350 -0.982038 -0.038811 -0.184647
-0.875180602074 0.561033725739 -0.220853492618 -0.982038 -0.038811 -0.184647
-0.826833128929 0.980386257172 0.210255205631 -0.392924 -0.016858 0.919416
-0.888006210327 0.967002391815 -0.031740155071 -0.998649 -0.011384 0.050709
-0.884523749352 0.673898816109 -0.024646008387 -0.998649 -0.011384 0.050709
-0.884264409542 0.582537591457 -0.042956911027 -0.998948 -0.017562 -0.042355
-0.883498311043 0.652502954006 -0.089960046113 -0.998948 -0.017562 -0.042355
-0.887799143791 0.834414303303 -0.128607869148 -0.999409 -0.029665 0.017390
-0.867695629597 0.304975330830 -0.212368175387 0.134261 -0.012206 0.990871
-0.878474593163 0.291424334049 -0.081645354629 -0.997025 -0.022441 -0.073735
-0.872260034084 0.233558535576 -0.147493630648 -0.997025 -0.022441 -0.073735
-0.872623801231 0.177162826061 -0.126014664769 -0.997025 -0.022441 -0.073735
-0.777615070343 0.870798230171 0.240794926882 -0.940625 -0.003757 0.339427
-0.795078337193 0.726749300957 0.219417199492 -0.392924 -0.016858 0.919416
-0.843269109726 0.684538304806 0.195667460561 -0.445396 -0.030763 0.894805
-0.883846044540 1.083675384521 0.042313747108 -0.985757 -0.014815 0.167522
-0.881810128689 0.867316722870 0.029524717480 -0.986848 -0.019350 0.160491
-0.877113401890 0.775353550911 0.047336544842 -0.986848 -0.019350 0.160491
-0.883296370506 0.858017325401 0.017935588956 -0.993685 -0.018625 0.110653
-0.879508435726 0.486866235733 -0.004280756693 -0.993915 -0.009776 0.109711
-0.880641758442 0.399852454662 -0.070353761315 -0.999020 -0.013375 -0.042183
-0.879548192024 0.340441107750 -0.078461781144 -0.999020 -0.013375 -0.042183
-0.866198182106 0.222385063767 0.103730589151 -0.994915 -0.009701 0.100246
-0.877971649170 0.310365647078 -0.005908928812 -0.994915 -0.009701 0.100246
-0.872144341469 0.367031276226 0.057427223772 -0.994915 -0.009701 0.100246
-0.874601185322 0.507325291634 0.044156871736 -0.993974 -0.005420 0.109478
-0.865008890629 0.353630244732 0.123064287007 -0.993974 -0.005420 0.109478
-0.867196798325 0.429819792509 0.107442341745 -0.993974 -0.005420 0.109478
-0.873138785362 0.587890982628 0.062241211534 -0.993974 -0.005420 0.109478
-0.830266892910 0.933662116528 0.152510702610 -0.778112 -0.020880 0.627779
-0.873775124550 0.755886852741 0.067164689302 -0.990760 -0.014488 0.134850
-0.855739653111 0.563071310520 0.166339471936 -0.942644 -0.013844 0.333512
-0.860958755016 0.465202003717 0.147950693965 -0.938282 -0.011396 0.345683
-0.815678715706 0.231509745121 0.198811680079 -0.483912 -0.022915 0.874816
-0.791446089745 0.579034030437 0.218004941940 -0.446636 -0.014579 0.894597
-0.801639318466 0.566892683506 0.212709262967 -0.446636 -0.014579 0.894597
-0.779169559479 0.255291342735 0.230803504586 -0.951830 -0.003694 0.306605
-0.852865159512 0.351230740547 -0.328711301088 -0.991490 -0.012186 -0.129614
-0.851151525974 0.347979187965 -0.341493338346 -0.991490 -0.012186 -0.129614
-0.844503998756 0.316610097885 -0.389299035072 -0.991490 -0.012186 -0.129614
-0.853649675846 0.155302047729 -0.304151117802 -0.991490 -0.012186 -0.129614
-0.878115653992 0.459730744362 -0.153296470642 -0.970757 -0.030223 0.238156
-0.886182010174 0.586146950722 -0.174280017614 -0.971538 -0.010702 0.236641
-0.882697165012 0.656777501106 -0.148027881980 -0.999476 -0.029546 0.013245
-0.879597187042 0.525085568428 -0.195979386568 -0.949264 -0.018760 -0.313920
-0.880775868893 0.562589943409 -0.196114361286 -0.949387 -0.034132 -0.312248
-0.883767664433 0.447745382786 -0.178477033973 -0.975820 -0.032249 0.216185
-0.860048353672 -0.066093310714 -0.216919779778 -0.928473 -0.014126 -0.371132
-0.861015260220 -0.246215537190 -0.181225463748 -0.972200 -0.027708 0.232509
-0.857902228832 -0.500568747520 -0.211352780461 -0.928370 -0.006385 -0.371603
-0.851180553436 -0.563460588455 -0.227747172117 -0.934369 -0.006339 -0.356252
-0.753692805767 -1.918622612953 -0.226580619812 -0.736235 -0.614860 0.282676
-0.619247317314 -2.084348678589 -0.237366899848 -0.769543 -0.632800 -0.085828
-0.611759185791 -2.086413860321 -0.270957380533 -0.544116 -0.834120 -0.090447
-0.415073484182 -2.192141056061 -0.255335003138 -0.311788 -0.950151 0.001232
-0.790031313896 -0.601485192776 0.297019124031 0.126603 0.991904 0.009908
-0.833629071712 -0.622180879116 0.356109231710 -0.136852 -0.172007 0.975543
-0.964980423450 -0.604222297668 0.296987712383 -0.746963 -0.421911 0.513845
-0.785392224789 -0.619440197945 0.276661694050 0.987072 0.012466 -0.159790
-0.900946259499 -0.665991842747 0.280644327402 -0.655427 -0.755196 0.009700
-0.829551696777 -0.699838757515 0.305486947298 -0.451981 -0.578736 0.678806
-0.784264326096 -0.689786553383 0.279110908508 0.997988 0.013642 0.061915
-0.950318098068 -0.605803549290 0.310103923082 -0.450535 -0.713208 0.536984
-0.867060542107 0.030169567093 0.146304652095 0.029133 -0.999575 0.001005
-0.847831964493 -0.096942789853 0.121085382998 0.445258 0.894552 0.039011
-0.851015388966 0.010369368829 0.145833298564 0.012009 -0.471039 0.882031
-0.854696393013 0.831707715988 0.143501877785 0.980100 0.198340 0.008119
-0.862451970577 0.793543040752 0.145493403077 0.007187 -0.998999 -0.044149
-0.873658418655 0.917810022831 0.164914831519 0.001018 -0.043791 0.999040
-0.864069163799 0.938959836960 0.171870142221 0.003980 -0.470929 0.882162
-0.879401803017 1.019792318344 0.161890745163 -0.935939 0.064502 0.346205
-0.885136306286 0.925765335560 0.140727534890 -0.863789 -0.009404 -0.503765
-0.880450189114 0.943872928619 0.171330392361 -0.939108 0.024210 0.342768
-0.884698688984 0.881317794323 0.145797058940 -0.999371 -0.035439 -0.001013
-0.883108258247 0.839196264744 0.150551170111 -0.995675 -0.092844 -0.003202
0.740734398365 -0.195346266031 0.280833065510 0.963187 -0.020806 0.268028
0.712141156197 -0.469484716654 0.361288994551 0.963187 -0.020806 0.268028
0.733455657959 -0.295919209719 0.298828184605 0.963187 -0.020806 0.268028
0.739025354385 -0.199538365006 0.286626726389 0.963187 -0.020806 0.268028
0.701748192310 -0.391847580671 0.401611119509 0.951380 -0.023816 0.307099
0.697259545326 -0.112709924579 0.431394785643 0.939567 -0.026845 0.341312
0.695620536804 -0.323005050421 0.423621356487 0.936105 -0.019156 0.351199
0.680679857731 -0.186072736979 0.471248626709 0.936105 -0.019156 0.351199
0.677913010120 -0.192256659269 0.478286236525 0.936105 -0.019156 0.351199
0.669243335724 -0.234128132463 0.499066948891 0.936105 -0.019156 0.351199
0.659574151039 -0.104495197535 0.532249033451 0.936344 -0.008869 0.350971
0.637278378010 -0.142575189471 0.590462803841 0.936344 -0.008869 0.350971
0.705291748047 0.169993966818 0.416917532682 0.928473 0.014126 0.371132
0.648901939392 0.207772821188 0.556766986847 0.928473 0.014126 0.371132
0.624038994312 0.213004872203 0.618877589703 0.928473 0.014126 0.371132
0.625059783459 0.195186510682 0.617019653320 0.928473 0.014126 0.371132
0.671310901642 -0.028369806707 0.503081023693 0.936344 -0.008869 0.350971
0.708867132664 0.009431667626 0.404216080904 0.936344 -0.008869 0.350971
0.695303142071 -0.028667256236 0.439300805330 0.936344 -0.008869 0.350971
0.724745750427 0.096787430346 0.354804843664 0.961787 -0.010943 0.273580
0.736601352692 0.056484274566 0.311602562666 0.961787 -0.010943 0.273580
0.743824005127 -0.091727443039 0.277693450451 0.963797 -0.015800 0.266168
0.729423940182 -0.044523213059 0.332267314196 0.963797 -0.015800 0.266168
0.750579297543 0.014923132956 0.259153068066 0.963797 -0.015800 0.266168
0.753657579422 -0.168176144361 0.236218035221 0.963135 -0.023252 0.268013
0.727632224560 -0.410998463631 0.310244768858 0.965344 -0.023188 0.259947
0.736608505249 -0.447833180428 0.273732453585 0.965344 -0.023188 0.259947
0.737805962563 -0.358029693365 0.277475357056 0.965344 -0.023188 0.259947
0.723351597786 0.435926467180 0.352785885334 0.960290 0.018396 0.278398
0.740980446339 0.585479557514 0.282288938761 0.960290 0.018396 0.278398
0.657859802246 0.412904322147 0.530323624611 0.929206 0.011503 0.369382
0.696063220501 0.435576051474 0.433291614056 0.929206 0.011503 0.369382
0.697997927666 0.498140156269 0.426277458668 0.929206 0.011503 0.369382
0.638720214367 0.422315299511 0.577968955040 0.926002 0.022017 0.376876
0.624999463558 0.515136718750 0.606420159340 0.926002 0.022017 0.376876
0.686926245689 0.591237723827 0.450173974037 0.926002 0.022017 0.376876
0.619580566883 0.840648055077 0.576265752316 0.925116 0.065224 0.374040
0.644495606422 0.647442817688 0.548177957535 0.925116 0.065224 0.374040
0.649027645588 0.721429884434 0.524070918560 0.925116 0.065224 0.374040
0.683436095715 0.684634804726 0.445547729731 0.917622 0.049135 0.394405
0.675750494003 0.889864206314 0.437788635492 0.917622 0.049135 0.394405
0.639915645123 0.849078238010 0.526284158230 0.917622 0.049135 0.394405
0.655028045177 0.912552595139 0.483181059361 0.917622 0.049135 0.394405
0.713953793049 0.907118678093 0.339781165123 0.931101 0.051217 0.361147
0.729243814945 0.884553134441 0.303561508656 0.931101 0.051217 0.361147
0.690809845924 0.940982043743 0.394647210836 0.931101 0.051217 0.361147
0.744080066681 0.717719376087 0.263710439205 0.960520 0.015907 0.277755
0.735445022583 0.661407530308 0.296953231096 0.960520 0.015907 0.277755
0.738370180130 0.770092725754 0.280424237251 0.960520 0.015907 0.277755
0.741317868233 0.384051054716 0.293031573296 0.961357 0.015880 0.274848
0.741770982742 0.398105442524 0.290626734495 0.961357 0.015880 0.274848
0.724603474140 1.221952557564 0.286928296089 0.915482 0.085699 0.393127
0.718216955662 1.146783947945 0.317828208208 0.915550 0.077313 0.394704
0.686472237110 1.071040391922 0.405333518982 0.907236 0.077763 0.413372
0.654674232006 1.124372839928 0.464510798454 0.892695 0.120252 0.434322
0.685739934444 1.320008993149 0.345426112413 0.902937 0.118992 0.412971
0.472408443689 -0.323824703693 0.622667014599 -0.086922 0.932069 0.351699
-0.663847029209 -1.115980625153 0.182884290814 -0.316141 -0.516311 0.795913
-0.418521463871 -1.166180133820 0.222201839089 -0.179233 -0.537698 0.823867
-0.372271597385 -1.203423023224 0.208822682500 -0.180518 -0.496799 0.848884
-0.198888033628 -1.225286722183 0.219590529799 -0.048204 -0.497193 0.866300
-0.004048820119 -1.220838069916 0.233055397868 -0.037575 -0.555272 0.830820
0.020156871527 -1.235171318054 0.223150566220 0.048987 -0.555648 0.829973
0.246855512261 -1.202913403511 0.228161975741 0.056870 -0.495187 0.866923
0.095389351249 -1.128495812416 0.278020590544 0.056370 -0.474330 0.878541
0.128363847733 -1.123563528061 0.278611928225 0.056370 -0.474330 0.878541
0.030138013884 -1.187343358994 0.250360816717 0.056370 -0.474330 0.878541
-0.213078320026 -1.185798645020 0.240884900093 -0.047847 -0.474372 0.879023
-0.137694329023 -1.126296401024 0.277115970850 -0.047847 -0.474372 0.879023
-0.249935925007 -1.057549595833 0.312640726566 -0.031344 -0.500145 0.865374
-0.257786214352 -1.149326324463 0.259418725967 -0.031344 -0.500145 0.865374
-0.147774532437 -1.092025041580 0.296475857496 -0.031344 -0.500145 0.865374
-0.355332583189 -1.094188094139 0.276765763760 -0.170536 -0.493814 0.852681
-0.470612168312 -1.113237857819 0.242724105716 -0.170536 -0.493814 0.852681
-0.391430228949 -1.073272824287 0.281686782837 -0.170536 -0.493814 0.852681
-0.538727462292 -1.115112662315 0.228065609932 -0.167409 -0.496300 0.851857
-0.438824117184 -1.069837450981 0.274302333593 -0.167409 -0.496300 0.851857
-0.493551254272 -1.035147666931 0.283724427223 -0.167409 -0.496300 0.851857
-0.640285193920 -1.048596382141 0.232750371099 -0.294685 -0.466194 0.834160
-0.588642597198 -0.973406970501 0.293041378260 -0.291408 -0.469057 0.833707
-0.561820030212 -0.742560207844 0.423624813557 -0.229145 -0.471948 0.851327
-0.600644409657 -0.754039943218 0.406816810369 -0.229145 -0.471948 0.851327
-0.573873758316 -0.929363727570 0.321852892637 -0.274332 -0.436786 0.856714
-0.521444439888 -0.751741170883 0.429579138756 -0.274332 -0.436786 0.856714
-0.393994241953 -0.768985331059 0.439521193504 -0.097677 -0.477058 0.873427
-0.491610318422 -0.792536139488 0.415553718805 -0.097677 -0.477058 0.873427
-0.343968451023 -0.807684659958 0.423998206854 -0.097677 -0.477058 0.873427
-0.466808766127 -0.768609821796 0.431470274925 -0.097677 -0.477058 0.873427
-0.408550202847 -1.006944775581 0.317025125027 -0.150606 -0.428867 0.890725
-0.335706532001 -0.821185469627 0.418756395578 -0.150606 -0.428867 0.890725
-0.416826903820 -0.935618519783 0.349952578545 -0.150606 -0.428867 0.890725
-0.338766306639 -0.966749429703 0.348180830479 -0.150606 -0.428867 0.890725
-0.365232169628 -0.956541895866 0.348614454269 -0.150606 -0.428867 0.890725
-0.159799963236 -0.752505898476 0.466530323029 -0.022580 -0.442311 0.896577
-0.248892471194 -0.830837428570 0.425659835339 -0.022580 -0.442311 0.896577
-0.153538107872 -0.787184715271 0.449538201094 -0.022580 -0.442311 0.896577
-0.158561468124 -0.842387080193 0.422128438950 -0.022580 -0.442311 0.896577
-0.226709291339 -0.958784401417 0.362945646048 -0.022580 -0.442311 0.896577
-0.063351735473 -0.845009446144 0.423357963562 -0.027955 -0.437964 0.898558
-0.268981516361 -1.035183668137 0.324272900820 -0.027955 -0.437964 0.898558
-0.064379632473 -0.828139960766 0.431537985802 -0.027955 -0.437964 0.898558
-0.035938903689 -0.925561785698 0.385009706020 -0.027955 -0.437964 0.898558
-0.111468441784 -0.938565313816 0.376290678978 -0.027955 -0.437964 0.898558
0.027693143114 -1.037345290184 0.330978810787 0.036148 -0.437794 0.898348
0.031014673412 -0.858097910881 0.418005019426 0.036148 -0.437794 0.898348
0.077670089900 -1.007507324219 0.343507498503 0.036148 -0.437794 0.898348
0.214971423149 -0.989671349525 0.346741080284 0.036148 -0.437794 0.898348
0.061081510037 -0.858826518059 0.416459649801 0.036148 -0.437794 0.898348
0.060428958386 -1.080297589302 0.306280910969 0.039806 -0.498257 0.866115
0.095268532634 -1.097035050392 0.295039713383 0.039806 -0.498257 0.866115
0.471983551979 -1.099024057388 0.248417139053 0.176992 -0.492305 0.852238
0.551325500011 -1.119887948036 0.219810917974 0.176992 -0.492305 0.852238
0.324347168207 -1.171524524689 0.237493991852 0.176992 -0.492305 0.852238
0.445712745190 -1.171904087067 0.210460528731 0.189034 -0.533833 0.824190
0.373194366693 -1.204608201981 0.207115277648 0.189715 -0.491466 0.849982
0.577259421349 -0.993913114071 0.283424317837 0.300799 -0.462887 0.833820
0.572862207890 -1.094430208206 0.229346185923 0.300799 -0.462887 0.833820
0.535736322403 -1.085391521454 0.243041843176 0.176732 -0.494554 0.850989
0.523685395718 -0.974414169788 0.309999644756 0.176732 -0.494554 0.850989
0.293858408928 -0.796338319778 0.436492621899 0.156990 -0.424882 0.891532
0.311266958714 -0.924885272980 0.371907114983 0.156990 -0.424882 0.891532
0.345347285271 -0.938916027546 0.359157860279 0.156990 -0.424882 0.891532
0.289219141006 -0.920719683170 0.377805233002 0.156990 -0.424882 0.891532
0.242710873485 -0.867625474930 0.405851185322 0.028056 -0.442221 0.896467
0.111346788704 -0.753685116768 0.466356933117 0.028056 -0.442221 0.896467
0.159199833870 -0.784070968628 0.449807971716 0.028056 -0.442221 0.896467
0.266826122999 -0.859070181847 0.409299284220 0.028056 -0.442221 0.896467
0.228496983647 -0.675300717354 0.498731315136 0.027673 -0.412453 0.910559
0.147122770548 -0.681758105755 0.498276889324 0.027673 -0.412453 0.910559
