-0.066025339067 1.562681794167 0.940313577652 -0.019091 0.009043 0.999777
-0.185409471393 1.835911512375 0.935512602329 -0.019091 0.009043 0.999777
-0.139614775777 1.890836954117 0.935892045498 -0.019091 0.009043 0.999777
-0.112150296569 1.684810280800 0.938307106495 -0.019091 0.009043 0.999777
-0.145551472902 1.560819625854 0.938798546791 -0.019091 0.009043 0.999777
-0.097693979740 1.879688382149 0.936801731586 -0.019091 0.009043 0.999777
-0.124863259494 1.983352780342 0.935329437256 -0.019091 0.009043 0.999777
-0.022671256214 1.189534664154 0.944564402103 -0.019091 0.009043 0.999777
-0.524149537086 1.972693800926 0.910354733467 -0.114743 0.009835 0.993347
-0.482589006424 1.945390701294 0.915444016457 -0.114743 0.009835 0.993347
-0.467353194952 1.581059694290 0.920650422573 -0.114743 0.009835 0.993347
-0.389250725508 1.324271202087 0.932151734829 -0.114743 0.009835 0.993347
-0.535826683044 1.718049168587 0.911398112774 -0.114743 0.009835 0.993347
-0.518564105034 1.582922458649 0.914679050446 -0.114743 0.009835 0.993347
-0.342982321978 1.184297084808 0.938850641251 -0.114743 0.009835 0.993347
-0.363861292601 1.872758030891 0.929932117462 -0.114743 0.009835 0.993347
-0.450982123613 1.549186110497 0.922854244709 -0.114743 0.009835 0.993347
-0.431959301233 1.356459736824 0.926882982254 -0.114743 0.009835 0.993347
-0.511653125286 1.579513311386 0.915514707565 -0.114743 0.009835 0.993347
-0.395623683929 1.273043751717 0.931893825531 -0.114743 0.009835 0.993347
-0.601252138615 1.964243888855 0.901470422745 -0.114743 0.009835 0.993347
-0.360346406698 1.156636476517 0.937092721462 -0.114743 0.009835 0.993347
-0.410185396671 1.463619709015 0.928404033184 -0.114743 0.009835 0.993347
-0.325767546892 -0.090879738331 0.947874844074 -0.012934 -0.004975 0.999904
-0.095687054098 -0.554974555969 0.948371946812 -0.012934 -0.004975 0.999904
-0.308905094862 0.109686791897 0.949172198772 -0.012934 -0.004975 0.999904
-0.299720317125 -0.292143046856 0.947131752968 -0.012934 -0.004975 0.999904
-0.263145834208 -0.283791989088 0.947652161121 -0.012934 -0.004975 0.999904
-0.147579595447 -0.521907746792 0.947874963284 -0.012934 -0.004975 0.999904
-0.146857813001 -0.429549485445 0.948380768299 -0.012934 -0.004975 0.999904
-0.303158372641 -0.481006801128 0.946071863174 -0.012934 -0.004975 0.999904
-0.329407960176 0.080776393414 0.948750197887 -0.012934 -0.004975 0.999904
-0.270289182663 -0.226856797934 0.947865307331 -0.012934 -0.004975 0.999904
-0.206993564963 -0.167493224144 0.949007391930 -0.012934 -0.004975 0.999904
-0.247423976660 -0.418608307838 0.947131991386 -0.012934 -0.004975 0.999904
-0.197613924742 -0.476184904575 0.947470188141 -0.012934 -0.004975 0.999904
-0.295220553875 -0.600765407085 0.945531368256 -0.012934 -0.004975 0.999904
-0.616023659706 0.195243418217 0.920887708664 -0.102164 -0.005377 0.994753
-0.472159743309 0.039879977703 0.934744179249 -0.102164 -0.005377 0.994753
-0.443467706442 0.026936620474 0.937607288361 -0.102164 -0.005377 0.994753
-0.363500565290 0.104325182736 0.946213245392 -0.102164 -0.005377 0.994753
-0.514554619789 0.069761365652 0.930573105812 -0.102164 -0.005377 0.994753
-0.567618727684 0.130723059177 0.925482332706 -0.102164 -0.005377 0.994753
-0.419076502323 -0.264987766743 0.938490748405 -0.102164 -0.005377 0.994753
-0.517939329147 -0.020763009787 0.929727256298 -0.102164 -0.005377 0.994753
-0.390353918076 -0.101097062230 0.942332983017 -0.102164 -0.005377 0.994753
-0.534567117691 0.003994584084 0.928163290024 -0.102164 -0.005377 0.994753
-0.398874223232 -0.137865617871 0.941258609295 -0.102164 -0.005377 0.994753
-0.387569457293 -0.236398488283 0.941870987415 -0.102164 -0.005377 0.994753
-0.437926858664 -0.385238677263 0.935899138451 -0.102164 -0.005377 0.994753
-0.518654823303 0.037330567837 0.929974794388 -0.102164 -0.005377 0.994753
-0.501678884029 0.484010815620 0.928770959377 -0.100673 0.014073 0.994820
-0.427665740252 0.239402264357 0.939577639103 -0.100673 0.014073 0.994820
-0.490935057402 0.574592709541 0.928666532040 -0.100673 0.014073 0.994820
-0.640303552151 0.786348700523 0.910597801208 -0.100673 0.014073 0.994820
-0.636119902134 0.510970294476 0.914679288864 -0.100673 0.014073 0.994820
-0.568155229092 0.738037288189 0.918609261513 -0.100673 0.014073 0.994820
-0.569934308529 0.317428112030 0.924008667469 -0.100673 0.014073 0.994820
-0.466945499182 0.265960067511 0.935212552547 -0.100673 0.014073 0.994820
-0.501232087612 0.240140333772 0.932052552700 -0.100673 0.014073 0.994820
-0.528580665588 0.546348452568 0.925195634365 -0.100673 0.014073 0.994820
-0.663544237614 0.563528895378 0.911180317402 -0.100673 0.014073 0.994820
-0.550955235958 0.377785086632 0.925146579742 -0.100673 0.014073 0.994820
-0.563858091831 0.673363208771 0.919906437397 -0.100673 0.014073 0.994820
-0.562747657299 0.400696337223 0.923637986183 -0.100673 0.014073 0.994820
-0.409006804228 0.368595272303 0.939769446850 -0.100673 0.014073 0.994820
-0.548257529736 -0.589387357235 0.924599707127 -0.095162 -0.003208 0.995457
-0.545490980148 -0.563103199005 0.924948155880 -0.095162 -0.003208 0.995457
-0.613702714443 -0.573404848576 0.918380737305 -0.095162 -0.003208 0.995457
-0.444630920887 -0.625945091248 0.934411168098 -0.095162 -0.003208 0.995457
-0.505347788334 -0.413426697254 0.929269015789 -0.095162 -0.003208 0.995457
-0.653267681599 -0.487692236900 0.914862394333 -0.095162 -0.003208 0.995457
-0.626156032085 -0.203863292933 0.918360650539 -0.095162 -0.003208 0.995457
-0.525447964668 -0.264276623726 0.927816748619 -0.095162 -0.003208 0.995457
-0.548276126385 -0.363791137934 0.925314009190 -0.095162 -0.003208 0.995457
-0.609081923962 -0.469774037600 0.919152319431 -0.095162 -0.003208 0.995457
-0.464509576559 -0.593863606453 0.932608664036 -0.095162 -0.003208 0.995457
-0.634156644344 -0.635002374649 0.916225731373 -0.095162 -0.003208 0.995457
-0.600100636482 -0.527713894844 0.919828832150 -0.095162 -0.003208 0.995457
-0.629626452923 -0.141171216965 0.918227136135 -0.095162 -0.003208 0.995457
-0.499036759138 -0.831663846970 0.897659718990 -0.074661 -0.405886 0.910869
-0.279630243778 -0.788444578648 0.923068702221 -0.016597 -0.358759 0.933283
-0.229584515095 -0.776757001877 0.928351283073 -0.014011 -0.357919 0.933647
-0.066087514162 -0.827001035213 0.910967648029 -0.006333 -0.358463 0.933523
0.198502704501 -0.861971437931 0.894453048706 0.017424 -0.478498 0.877916
0.218973234296 -0.877469420433 0.885564267635 0.020151 -0.479602 0.877255
0.317981690168 -0.850479125977 0.897047221661 0.036784 -0.480913 0.875997
0.704775989056 -0.952740490437 0.790182292461 0.258038 -0.552046 0.792882
0.704272985458 -0.930247783661 0.805524170399 0.229819 -0.535217 0.812851
0.733996033669 -1.071110367775 0.698492765427 0.293362 -0.550251 0.781769
0.802548766136 -1.303303599358 0.508813023567 0.311891 -0.548608 0.775728
0.810210049152 -1.407579779625 0.430714160204 0.304686 -0.559921 0.770490
0.638908028603 -0.786318242550 0.898930668831 0.133969 -0.269265 0.953703
0.597666263580 -0.803488731384 0.897658228874 0.102812 -0.385204 0.917086
0.590658068657 -0.819012641907 0.891960382462 0.102921 -0.382865 0.918053
0.590051531792 -0.845290362835 0.879195451736 0.112149 -0.458532 0.881573
0.480182409286 -0.798574686050 0.910062789917 0.062908 -0.301702 0.951325
0.340488612652 -0.701690256596 0.941065311432 0.041972 -0.207460 0.977343
0.246194124222 -0.741451740265 0.935941696167 0.029793 -0.215698 0.976005
0.111732833087 -0.702935576439 0.947249710560 0.008232 -0.222274 0.974949
0.096698783338 -0.768089950085 0.932507276535 0.005880 -0.222278 0.974966
-0.026295004413 -0.705085158348 0.946936845779 -0.005867 -0.221769 0.975082
-0.061366416514 -0.769466698170 0.932090938091 -0.005870 -0.219536 0.975587
-0.172773271799 -0.747626781464 0.935867190361 -0.012979 -0.218286 0.975798
-0.297751724720 -0.713400363922 0.941642940044 -0.017707 -0.216021 0.976228
-0.428901344538 -0.717670083046 0.937485337257 -0.039630 -0.212562 0.976344
-0.490955054760 -0.785739481449 0.916975796223 -0.082178 -0.306536 0.948305
-0.254920691252 -0.936983466148 0.852329730988 -0.017591 -0.502025 0.864674
-0.114820607007 -0.872424662113 0.889733314514 -0.009307 -0.472016 0.881541
-0.000890783966 -0.951706051826 0.846751093864 0.001335 -0.503455 0.864020
-0.201034963131 -0.862281560898 0.894027829170 -0.014694 -0.474208 0.880290
-0.696121037006 -0.970930337906 0.779967069626 -0.193669 -0.562707 0.803650
-0.741284787655 -0.985753715038 0.755275011063 -0.275727 -0.553029 0.786215
-0.746750056744 -1.110052585602 0.666088581085 -0.286334 -0.552103 0.783068
-0.746136844158 -1.126307249069 0.654962837696 -0.290243 -0.547179 0.785083
-0.772737026215 -1.150879979134 0.627926230431 -0.296990 -0.551100 0.779798
-0.769164681435 -1.287927985191 0.532670259476 -0.304265 -0.552776 0.775797
-0.776575148106 -1.375681638718 0.466858983040 -0.301248 -0.562648 0.769855
0.471664696932 -0.913033664227 0.852792441845 0.071084 -0.480860 0.873911
-0.893896043301 -0.013702940196 0.193808376789 -0.981664 0.010382 0.190334
-0.903519928455 -0.008715634234 0.144121870399 -0.980945 0.012770 0.193867
-0.878669023514 -0.139679864049 -0.507142782211 -0.995026 0.001071 -0.099610
0.883647918701 0.174319162965 -0.454977303743 0.997224 0.001049 -0.074451
0.882019996643 0.190163567662 -0.428129374981 0.988229 0.001117 -0.152980
0.881923079491 0.001019973308 -0.476287394762 0.995026 0.001071 -0.099610
0.866319298744 -0.104643695056 -0.600192964077 0.990125 0.001104 -0.140185
0.877909064293 -0.118609607220 -0.514461874962 0.994785 -0.003219 -0.101947
0.871566951275 0.123264588416 -0.563834547997 0.991141 0.001098 -0.132811
0.866550981998 0.141647085547 -0.598710238934 0.989041 0.001110 -0.147635
0.866150557995 0.569175899029 -0.598050773144 0.988929 0.005575 -0.148284
0.865124344826 0.668282687664 -0.599466204643 0.989123 0.010082 -0.146744
0.869138658047 0.675850152969 -0.570770442486 0.990598 0.009984 -0.136443
0.872964859009 0.713266730309 -0.537926256657 0.992514 0.009870 -0.121734
0.872104346752 0.759597957134 -0.541104674339 0.992481 0.009892 -0.121999
0.876137375832 0.894104599953 -0.495343685150 0.995167 0.007531 -0.097903
0.880694687366 0.750864148140 -0.459866225719 0.996466 0.005306 -0.083835
0.869162499905 0.447412222624 -0.579348564148 0.990471 0.001102 -0.137718
0.873762130737 0.466164648533 -0.544216334820 0.992658 0.001090 -0.120950
0.881878376007 0.551105260849 -0.461537390947 0.999111 0.005103 -0.041842
0.879821836948 0.307389169931 -0.493647426367 0.994296 0.001077 -0.106647
0.883790910244 -0.220089435577 -0.458434373140 0.995256 0.001069 -0.097281
0.894111752510 -0.286802768707 -0.316654324532 0.997402 0.013721 -0.070715
0.887695074081 -0.266451925039 -0.409297466278 0.997701 0.001043 -0.067764
0.908439517021 -0.249178394675 -0.092008560896 0.998734 0.001026 -0.050296
0.716332674026 1.459512829781 0.878636717796 0.996757 0.011677 -0.079613
0.724326133728 0.275683909655 0.869925200939 0.996874 -0.003158 -0.078950
0.724484801292 0.153847947717 0.878060042858 0.997696 0.003128 -0.067764
0.723724424839 0.020267631859 0.870427966118 0.995265 -0.014048 -0.096177
0.866888165474 0.332952767611 0.305189132690 0.751283 -0.004151 0.659967
0.869230628014 0.938409447670 0.305479198694 0.771254 0.001375 0.636526
0.866063475609 1.123500943184 0.308631598949 0.772605 0.001377 0.634886
0.867943525314 1.411855816841 0.305012166500 0.780176 0.006904 0.625522
-0.867495954037 0.532628417015 0.306138813496 -0.753854 -0.004150 0.657029
-0.869883060455 0.155843436718 0.301728904247 -0.757592 0.004140 0.652716
-0.763559043407 -0.095411166549 0.746696710587 -0.916617 0.307464 0.255498
-0.850740969181 1.821282267570 0.309750556946 -0.777384 -0.046728 0.627288
-0.877395093441 0.799468398094 0.279119014740 -0.981965 0.001146 0.189060
-0.880673229694 0.826132535934 0.262224614620 -0.981537 -0.001145 0.191268
-0.887323856354 0.887329161167 0.228014379740 -0.981537 0.001145 0.191268
-0.898180127144 0.781886219978 0.171937316656 -0.981537 -0.001145 0.191268
-0.886086106300 0.755967080593 0.234115421772 -0.982047 -0.001143 0.188635
-0.885837674141 0.689856350422 0.235056117177 -0.981965 -0.001146 0.189060
-0.904771804810 0.719099164009 0.139017745852 -0.980491 -0.001149 0.196558
-0.873576104641 0.656799077988 0.297536909580 -0.981353 -0.005752 0.192129
-0.881887435913 0.637242138386 0.254440814257 -0.981784 -0.005755 0.189911
-0.874379813671 0.580393850803 0.291323602200 -0.981867 -0.005742 0.189483
-0.888868153095 0.209661751986 0.214260414243 -0.979766 0.003470 0.200117
-0.878645598888 0.184878468513 0.264534175396 -0.979409 0.001154 0.201881
-0.885793030262 0.127373188734 0.230698063970 -0.979215 0.003477 0.202796
-0.894695222378 0.243728145957 0.183633863926 -0.981867 0.005742 0.189483
-0.905439734459 0.170462742448 0.128835335374 -0.983357 0.005711 0.181595
-0.885121643543 -0.080525018275 0.237941071391 -0.978752 -0.003475 0.205017
-0.870354592800 -0.085496589541 0.307684063911 -0.974019 0.044880 0.221974
-0.773191809654 -0.113859705627 0.713799655437 -0.962804 -0.008478 0.270069
-0.748522698879 -0.113971702754 0.801195204258 -0.961810 -0.008512 0.273587
-0.886237025261 -0.059033233672 0.232851430774 -0.978290 0.001158 0.207235
-0.906870186329 0.375772178173 0.077533736825 -0.996710 0.001052 0.081042
-0.907274961472 0.251478970051 0.074095532298 -0.996669 0.005285 0.081382
-0.908216059208 0.158557891846 0.066662497818 -0.997978 0.003122 0.063479
-0.909082055092 0.023367546499 0.059950415045 -0.997978 0.003122 0.063479
-0.910090565681 0.189800739288 0.038816213608 -0.996710 0.001052 0.081042
-0.905513465405 0.593479216099 0.100314036012 -0.997533 -0.003140 0.070131
-0.908892393112 0.845513939857 0.052169725299 -0.997389 0.001047 0.072214
-0.879792749882 -0.003320349380 -0.495825916529 -0.994066 0.001077 -0.108776
-0.883445382118 0.330095291138 -0.459118872881 -0.992361 0.001092 -0.123363
-0.880116224289 0.636204481125 -0.479193985462 -0.995356 0.009685 -0.095769
-0.881089091301 0.251432001591 -0.480464011431 -0.995047 0.001069 -0.099398
-0.881277203560 0.034251950681 -0.481051176786 -0.995026 0.001071 -0.099610
-0.875558853149 0.894533097744 -0.500413775444 -0.994652 0.009741 -0.102820
-0.872640490532 0.885184228420 -0.526559352875 -0.993114 0.007648 -0.116901
-0.876969993114 0.563178479671 -0.513889014721 -0.993709 0.005430 -0.111860
-0.873426496983 0.661380946636 -0.537552654743 -0.992395 0.014319 -0.122260
-0.872262954712 0.842158615589 -0.532665848732 -0.992232 0.007692 -0.124166
-0.881478548050 -0.068785041571 -0.479592472315 -0.995277 0.001067 -0.097074
-0.878087043762 0.009079804644 -0.511217832565 -0.994040 0.001079 -0.109010
-0.869800448418 0.327890157700 -0.574612319469 -0.990429 0.001104 -0.138020
-0.870189070702 0.257003486156 -0.572245597839 -0.990125 0.001104 -0.140185
-0.871448040009 0.068693138659 -0.563986003399 -0.991141 0.001098 -0.132811
-0.866844713688 0.109460726380 -0.597136378288 -0.991141 0.001098 -0.132811
-0.875235319138 -0.111393913627 -0.536290407181 -0.991465 0.001096 -0.130369
-0.889907360077 0.646889805794 -0.331540286541 -0.997865 -0.020021 -0.062169
-0.907151818275 0.309530586004 -0.084469936788 -0.998488 0.005163 -0.054726
-0.911093652248 0.299697935581 -0.006325557828 -0.998730 0.003079 -0.050296
-0.910568296909 0.149145811796 -0.024032201618 -0.998730 0.003079 -0.050296
-0.907651782036 0.234376862645 -0.078808084130 -0.998835 0.003073 -0.048149
-0.902513384819 0.230309665203 -0.166446387768 -0.998124 0.003109 -0.061152
-0.903755009174 0.416628122330 -0.134589552879 -0.998116 0.003116 -0.061279
-0.904461622238 0.444769024849 -0.120543934405 -0.998239 0.005183 -0.059086
-0.909837722778 0.518534004688 -0.018243713304 -0.998730 0.003079 -0.050296
-0.909884095192 0.407053738832 -0.024141812697 -0.998730 0.003079 -0.050296
-0.911071181297 0.598800659180 0.011148087680 -0.998619 0.003085 -0.052451
-0.909947812557 0.738343179226 0.000533331186 -0.998382 0.003097 -0.056785
-0.909771263599 0.779600381851 0.000576876861 -0.998239 0.005183 -0.059086
-0.909862458706 0.821897268295 0.003677532077 -0.998128 0.001036 -0.061152
-0.901100516319 0.872378230095 -0.130508631468 -0.997655 0.007328 -0.068046
-0.902957201004 0.830654263496 -0.106765136123 -0.997678 0.005223 -0.067905
-0.904032170773 0.730275571346 -0.098771132529 -0.997970 0.005203 -0.063479
-0.902879357338 0.667219877243 -0.124739535153 -0.998053 0.009406 -0.061660
-0.896584808826 0.724777340889 -0.211765661836 -0.997501 0.007342 -0.070276
-0.889860391617 0.778089165688 -0.304221093655 -0.997645 0.007343 -0.068188
-0.894012868404 0.890237152576 -0.231502845883 -0.997645 0.007343 -0.068188
-0.888420701027 0.870194077492 -0.319030076265 -0.998248 0.003110 -0.059086
-0.884257435799 0.759046733379 -0.405969440937 -0.998670 0.009314 -0.050710
-0.890403091908 0.670324325562 -0.311529159546 -0.997883 0.011542 -0.064007
-0.898349165916 0.652287900448 -0.198880895972 -0.997202 0.039716 -0.063331
-0.903960883617 0.641657114029 -0.110779426992 -0.998187 0.009387 -0.059453
-0.889123797417 0.481301814318 -0.355045616627 -0.998099 0.005204 -0.061405
-0.898456692696 0.493263930082 -0.211246967316 -0.997678 0.005223 -0.067905
-0.899531006813 0.482872068882 -0.196187034249 -0.997818 0.005224 -0.065825
-0.901751875877 0.535772681236 -0.157550185919 -0.997970 0.005203 -0.063479
-0.902870893478 0.595616996288 -0.134260013700 -0.998099 0.005204 -0.061405
-0.888994514942 0.575160026550 -0.349303215742 -0.998340 0.007272 -0.057137
-0.886875927448 0.601449966431 -0.385521590710 -0.998711 0.005153 -0.050502
-0.900435388088 0.403805226088 -0.188292637467 -0.997961 0.005214 -0.063611
-0.897021234035 0.431171953678 -0.237127035856 -0.997678 0.005223 -0.067905
-0.896154880524 0.425781875849 -0.250240623951 -0.997678 0.005223 -0.067905
-0.892731785774 0.294025868177 -0.309959143400 -0.998488 0.005163 -0.054726
-0.890093564987 0.448553502560 -0.343051582575 -0.998023 0.011520 -0.061787
-0.888108134270 0.443423181772 -0.378226727247 -0.998932 0.003074 -0.046105
-0.888354897499 0.460307151079 -0.371448367834 -0.998919 0.005133 -0.046199
-0.887665987015 0.248010635376 -0.400923579931 -0.998393 0.001030 -0.056668
-0.893229186535 0.082028768957 -0.313213437796 -0.998248 0.003110 -0.059086
-0.893927156925 0.181449204683 -0.298158317804 -0.997687 0.003134 -0.067905
-0.899740099907 0.208162263036 -0.211998030543 -0.997687 0.003134 -0.067905
-0.903099477291 0.125497937202 -0.162827849388 -0.998124 0.003109 -0.061152
-0.905567884445 0.013953655958 -0.127393603325 -0.998124 0.003109 -0.061152
-0.909308612347 -0.057224795222 -0.060399677604 -0.998835 0.003073 -0.048149
-0.911101341248 -0.059203017503 -0.022715013474 -0.998840 0.001024 -0.048149
-0.902444422245 -0.036196321249 -0.181758686900 -0.998255 0.003103 -0.058964
-0.900709450245 -0.035448957235 -0.209846690297 -0.997687 0.003134 -0.067905
-0.899807393551 -0.094769984484 -0.225932642817 -0.997827 0.005213 -0.065688
-0.890862643719 -0.041287757456 -0.356772363186 -0.997827 0.005213 -0.065688
-0.890239059925 0.038490846753 -0.361554741859 -0.997999 0.001036 -0.063217
-0.888937771320 0.137452244759 -0.382457792759 -0.997999 -0.001036 -0.063217
-0.890656292439 -0.093471564353 -0.362120240927 -0.997558 0.001042 -0.069839
-0.883887588978 -0.045732513070 -0.454904735088 -0.994811 0.001071 -0.101730
-0.880033552647 0.888069033623 -0.421812117100 -0.926848 0.024630 -0.374628
0.214465826750 -1.035555362701 0.792533099651 0.026062 -0.536338 0.843601
0.227440878749 -0.981260418892 0.826575219631 0.014975 -0.529572 0.848133
0.091622099280 -1.037725925446 0.793229341507 0.006762 -0.534235 0.845309
-0.072399236262 -1.044154763222 0.789341986179 -0.006762 -0.534235 0.845309
-0.252226173878 -1.004891395569 0.810912966728 -0.026123 -0.537582 0.842807
-0.384350836277 -0.970261096954 0.825699567795 -0.074761 -0.520504 0.850580
-0.467758923769 -0.968875348568 0.819216668606 -0.081023 -0.527362 0.845769
-0.359993875027 -1.087402343750 0.752840280533 -0.066330 -0.543342 0.836887
-0.312441408634 -1.062271714211 0.772198736668 -0.026187 -0.547173 0.836610
-0.307180941105 -1.132920145988 0.726331651211 -0.028961 -0.541994 0.839883
-0.034077897668 -1.063783288002 0.777103185654 -0.006779 -0.543688 0.839260
0.002872371348 -1.100405812263 0.753746271133 -0.006789 -0.541774 0.840497
0.094202235341 -1.078499317169 0.767152905464 0.006789 -0.541774 0.840497
0.114682599902 -1.126424789429 0.735947370529 0.009512 -0.544916 0.838437
0.259767919779 -1.088792800903 0.756763517857 0.026166 -0.543979 0.838691
0.315887004137 -1.069449186325 0.767370939255 0.031768 -0.548349 0.835646
0.361263066530 -1.074136018753 0.761662602425 0.069303 -0.544523 0.835878
0.437323272228 -1.051506280899 0.769374370575 0.090522 -0.556065 0.826195
0.512927412987 -1.044975996017 0.765215575695 0.112190 -0.552207 0.826124
0.573550522327 -1.040044546127 0.759925365448 0.118691 -0.561217 0.819114
0.568567872047 -1.136125564575 0.694591820240 0.174140 -0.576932 0.798013
0.516902625561 -1.086417436600 0.736758649349 0.118508 -0.554500 0.823703
0.424179822206 -1.216061711311 0.660437107086 0.099775 -0.550931 0.828565
0.484135746956 -1.215934038162 0.653196752071 0.109304 -0.561092 0.820505
0.540903985500 -1.224648833275 0.638649463654 0.179683 -0.548109 0.816879
0.569159507751 -1.264576435089 0.605550169945 0.179827 -0.551572 0.814513
0.589358031750 -1.319737076759 0.563423752785 0.204087 -0.569295 0.796399
0.678352892399 -1.437243580818 0.461520552635 0.247395 -0.549248 0.798199
0.647598624229 -1.431794881821 0.474464505911 0.186686 -0.566128 0.802900
0.542858302593 -1.357663869858 0.547842502594 0.121961 -0.565725 0.815525
0.392624676228 -1.410669922829 0.533061623573 0.115246 -0.558723 0.821308
0.534534931183 -1.303282499313 0.586488783360 0.115609 -0.563413 0.818047
0.479623913765 -1.276068568230 0.612639486790 0.108959 -0.556416 0.823729
0.291512370110 -1.375091910362 0.564643263817 0.046263 -0.562168 0.825728
0.195708990097 -1.328924655914 0.600682139397 0.040447 -0.556497 0.829864
0.353788971901 -1.240313410759 0.652539432049 0.040384 -0.558418 0.828576
0.269132703543 -1.250612258911 0.649652302265 0.034688 -0.550839 0.833890
0.279619365931 -1.202250719070 0.681287944317 0.034715 -0.554045 0.831762
0.249270766973 -1.156314849854 0.712873816490 0.031768 -0.548349 0.835646
0.081494152546 -1.197700023651 0.689782321453 0.009520 -0.548067 0.836380
0.006722135935 -1.150525927544 0.721367955208 0.009520 -0.548067 0.836380
-0.146881312132 -1.219343781471 0.674868702888 -0.009520 -0.548067 0.836380
-0.081460535526 -1.161497473717 0.713394820690 -0.006800 -0.548079 0.836399
-0.228322401643 -1.159687161446 0.711500525475 -0.029031 -0.551592 0.833609
-0.455736160278 -1.168886184692 0.688291311264 -0.087671 -0.556207 0.826406
-0.414154231548 -1.069760680199 0.759176552296 -0.087463 -0.554888 0.827314
-0.559223592281 -1.032842040062 0.766472458839 -0.106086 -0.556590 0.823986
-0.576598465443 -1.006055116653 0.781973063946 -0.134079 -0.546628 0.826572
-0.589008092880 -1.081245899200 0.729358077049 -0.156388 -0.549592 0.820665
-0.510658502579 -1.094774365425 0.731716752052 -0.118318 -0.547766 0.828223
-0.513976275921 -1.143065929413 0.699065506458 -0.118414 -0.551135 0.825971
-0.633049964905 -1.120996356010 0.692240178585 -0.164113 -0.573642 0.802497
-0.525356173515 -1.225842356682 0.641344130039 -0.153480 -0.549846 0.821044
-0.502618968487 -1.257094502449 0.623542249203 -0.093816 -0.558566 0.824137
-0.426109850407 -1.277641654015 0.619007766247 -0.099536 -0.549613 0.829469
-0.295662641525 -1.242045998573 0.654465079308 -0.034661 -0.555966 0.830482
-0.245742678642 -1.271664023399 0.636721611023 -0.037459 -0.550784 0.833807
-0.007343488745 -1.279564976692 0.636548578739 -0.009527 -0.551215 0.834309
0.069026671350 -1.229801297188 0.668851196766 0.009527 -0.551215 0.834309
0.105751827359 -1.301809787750 0.620736598969 0.012277 -0.552453 0.833454
0.045234721154 -1.371958255768 0.574784815311 0.012286 -0.555603 0.831357
0.107147336006 -1.397320985794 0.556814551353 0.012314 -0.556866 0.830511
0.129536837339 -1.444456219673 0.524626433849 0.015095 -0.561270 0.827495
0.200245618820 -1.441194772720 0.524836719036 0.046156 -0.560869 0.826617
0.233574986458 -1.462462186813 0.508526504040 0.049210 -0.566618 0.822510
0.288748919964 -1.478631496429 0.494032830000 0.049210 -0.566618 0.822510
0.366071075201 -1.483688712120 0.485685616732 0.055111 -0.572306 0.818186
0.423047274351 -1.526892542839 0.448635160923 0.121670 -0.564371 0.816506
0.544748485088 -1.538704156876 0.421355962753 0.134896 -0.573680 0.807895
0.373372644186 -1.595358014107 0.406260609627 0.088081 -0.587687 0.804280
0.305357247591 -1.603918671608 0.406343787909 0.054905 -0.564539 0.823579
0.205694377422 -1.597890496254 0.416508704424 0.037788 -0.580823 0.813152
0.139692872763 -1.570142626762 0.438282012939 0.017930 -0.575128 0.817867
0.147954091430 -1.512221574783 0.478076040745 0.017865 -0.567546 0.823148
0.092475943267 -1.506347298622 0.483206957579 0.015106 -0.564423 0.825348
-0.018542945385 -1.557099342346 0.449653446674 -0.015106 -0.564423 0.825348
-0.157456472516 -1.521580934525 0.471462190151 -0.015083 -0.566290 0.824068
-0.085417911410 -1.454967737198 0.518114924431 -0.012323 -0.560018 0.828389
0.005065639503 -1.361599087715 0.582201361656 -0.012286 -0.555603 0.831357
-0.164679482579 -1.335327386856 0.597598910332 -0.009542 -0.557503 0.830120
-0.292201668024 -1.371010303497 0.567792236805 -0.040447 -0.556497 0.829864
-0.270378261805 -1.329244971275 0.597080171108 -0.037631 -0.561683 0.826496
-0.465438872576 -1.356902003288 0.560217320919 -0.105833 -0.555260 0.824916
-0.431125372648 -1.297274231911 0.605090796947 -0.102954 -0.564072 0.819282
-0.567421078682 -1.320670485497 0.568422794342 -0.176465 -0.550512 0.815964
-0.686787545681 -1.229369282722 0.604019045830 -0.180505 -0.568817 0.802412
-0.573889553547 -1.227334380150 0.630873143673 -0.180505 -0.568817 0.802412
-0.677926063538 -1.254148840904 0.589231431484 -0.175889 -0.545705 0.819310
-0.585092306137 -1.354834318161 0.541809499264 -0.175889 -0.545705 0.819310
-0.530585289001 -1.398525357246 0.522908985615 -0.109205 -0.566411 0.816855
-0.382685720921 -1.406794667244 0.537023067474 -0.112365 -0.558909 0.821581
-0.298297256231 -1.437793016434 0.521909296513 -0.040537 -0.566122 0.823324
-0.215292319655 -1.473928689957 0.501983702183 -0.046156 -0.560869 0.826617
-0.316119074821 -1.499145269394 0.478660166264 -0.046288 -0.573695 0.817760
-0.492169380188 -1.477953433990 0.473110586405 -0.115419 -0.565406 0.816697
-0.717198014259 -1.336145043373 0.519890785217 -0.251311 -0.557256 0.791397
-0.449307113886 -1.573911905289 0.411961108446 -0.118952 -0.571262 0.812102
-0.360614776611 -1.624300837517 0.386656492949 -0.079156 -0.588634 0.804515
-0.310132086277 -1.571716308594 0.428713113070 -0.052135 -0.567850 0.821480
-0.249094426632 -1.619947195053 0.399095714092 -0.034857 -0.581412 0.812862
-0.149817466736 -1.616332292557 0.405810147524 -0.015138 -0.573858 0.818815
0.006235699169 -1.622426509857 0.404351383448 -0.015114 -0.575700 0.817521
0.090800359845 -1.619072914124 0.404952317476 0.017930 -0.575128 0.817867
-0.223617404699 -1.547285556793 0.450949370861 -0.052015 -0.566537 0.822393
-0.638345539570 -1.520430326462 0.414562165737 -0.197152 -0.576173 0.793193
0.440685868263 -1.459937810898 0.492247045040 0.121759 -0.567718 0.814169
0.719001293182 -1.382706522942 0.485535770655 0.322432 -0.543804 0.774800
0.566840231419 -1.164209842682 0.674669563770 0.170670 -0.572425 0.801999
0.321554005146 -1.044839501381 0.783184349537 0.026145 -0.540781 0.840757
-0.668085575104 2.194037675858 0.340996176004 -0.219392 0.964546 0.146694
-0.642656922340 2.186151742935 0.415608704090 -0.240718 0.944992 0.221461
-0.682304501534 2.168819665909 0.446709126234 -0.240239 0.945855 0.218274
-0.610529839993 2.188804388046 0.436219632626 -0.202663 0.941623 0.268838
-0.616304814816 2.158437967300 0.543811559677 -0.198859 0.951005 0.236737
-0.660540819168 2.136416912079 0.595458269119 -0.198859 0.951005 0.236737
-0.558598041534 2.153037786484 0.611575305462 -0.194511 0.948073 0.251641
-0.644417345524 2.128478765488 0.638571202755 -0.194142 0.948990 0.248448
-0.605686247349 2.116562604904 0.713743329048 -0.189006 0.947750 0.256994
-0.485936224461 2.147234678268 0.681852281094 -0.082057 0.965747 0.246171
-0.374338418245 2.143141984940 0.733917772770 -0.082947 0.960907 0.264154
-0.331830650568 2.133221626282 0.783404707909 -0.077268 0.963953 0.254605
-0.309658586979 2.122351408005 0.825024008751 -0.054368 0.957137 0.284486
-0.236785531044 2.158746719360 0.708259224892 -0.050833 0.965824 0.254164
-0.357972681522 2.165239572525 0.656256318092 -0.087972 0.962595 0.256267
-0.383275777102 2.180633544922 0.588081955910 -0.090619 0.963623 0.251435
-0.414972215891 2.191312074661 0.533829092979 -0.093039 0.964799 0.245979
-0.371341019869 2.208961486816 0.479188382626 -0.097483 0.968498 0.229148
-0.330723822117 2.214488506317 0.469040900469 -0.052483 0.972760 0.225797
-0.266415297985 2.204904556274 0.523574709892 -0.053055 0.968558 0.243065
-0.064295150340 2.207458972931 0.541099607944 -0.015593 0.970376 0.241095
-0.051348011941 2.230355501175 0.445735573769 -0.015429 0.974395 0.224313
-0.168240994215 2.241359233856 0.377842336893 -0.014959 0.983852 0.178359
-0.103833161294 2.247332334518 0.343069732189 -0.014240 0.993513 0.112825
-0.030145986006 2.249899387360 0.329420477152 -0.007575 0.994447 0.104963
0.221431300044 2.249181747437 0.307651132345 0.036713 0.993482 0.107915
0.502882003784 2.227943658829 0.323774278164 0.093974 0.986131 0.136797
0.571511209011 2.220529556274 0.308909565210 0.168910 0.983931 0.057878
0.582072496414 2.217237710953 0.327387958765 0.160992 0.977185 0.138528
0.470075070858 2.228523254395 0.342462629080 0.090664 0.987880 0.125987
0.226184517145 2.234601974487 0.405886620283 0.045913 0.983001 0.177764
0.131649732590 2.235570192337 0.416181504726 0.010287 0.984127 0.177166
0.079517103732 2.232699871063 0.435141026974 0.010287 0.984127 0.177166
0.025760216638 2.221212148666 0.487612843513 0.010627 0.974177 0.225537
0.096932537854 2.197942733765 0.579335868359 0.010777 0.968733 0.247871
0.058806080371 2.192948818207 0.600488603115 0.010777 0.968733 0.247871
0.062201980501 2.176501035690 0.664240956306 0.010821 0.967854 0.251281
0.154548838735 2.162513494492 0.714040040970 0.010814 0.967267 0.253532
0.058233398944 2.147453546524 0.773785412312 0.010870 0.964985 0.262080
0.035869039595 2.131774425507 0.829205095768 0.008554 0.959291 0.282288
-0.101116016507 2.135200262070 0.811873435974 -0.018471 0.959241 0.281985
-0.045348040760 2.155019283295 0.744937777519 -0.018211 0.965162 0.261019
-0.042373664677 2.166010856628 0.704071938992 -0.018148 0.966695 0.255285
-0.056865304708 2.172228097916 0.679248154163 -0.018117 0.967446 0.252430
-0.078844755888 2.185040473938 0.628406047821 -0.018086 0.968185 0.249582
-0.188175573945 2.190686225891 0.596109509468 -0.050865 0.966431 0.251843
-0.323680579662 2.175649166107 0.626355767250 -0.050775 0.967192 0.248919
-0.115992322564 2.123471975327 0.850477218628 -0.036414 0.955552 0.292567
0.145737156272 2.135662555695 0.811569035053 0.026064 0.956918 0.289185
0.181710779667 2.160827636719 0.717136859894 0.038224 0.965467 0.257705
0.240787833929 2.161182403564 0.706746280193 0.038067 0.966405 0.254188
0.258984446526 2.173444032669 0.656708002090 0.040569 0.967509 0.249561
0.413627594709 2.152284860611 0.704545557499 0.069032 0.965189 0.252280
0.512589156628 2.178824186325 0.567400634289 0.078922 0.968356 0.236765
0.478149205446 2.188667297363 0.538472831249 0.081506 0.969300 0.231980
0.467344969511 2.206428766251 0.466133356094 0.088076 0.973802 0.209647
0.470471680164 2.216823816299 0.414263397455 0.086439 0.980051 0.178966
0.718384027481 2.181133985519 0.349505066872 0.360635 0.919129 0.158567
0.629934132099 2.204411745071 0.361360728741 0.165195 0.974778 0.150063
0.612720966339 2.205396652222 0.373567938805 0.163353 0.973787 0.158288
0.711589217186 2.172330856323 0.406679540873 0.316207 0.928947 0.192535
0.682874381542 2.170989990234 0.451063513756 0.277772 0.936607 0.213563
0.675494492054 2.143680810928 0.564348101616 0.220030 0.947086 0.233697
0.535435140133 2.176676750183 0.559016108513 0.212342 0.946633 0.242481
0.574117839336 2.160215854645 0.589065551758 0.212607 0.945072 0.248270
0.625967383385 2.128297567368 0.666484594345 0.212607 0.945072 0.248270
0.370204985142 2.136922597885 0.774199545383 0.061413 0.963805 0.259438
0.353197246790 2.136745452881 0.778956711292 0.061521 0.962994 0.262407
0.332054585218 2.131684064865 0.801780700684 0.041279 0.959420 0.278945
0.346004635096 2.221880912781 0.443041086197 0.044774 0.974143 0.221451
0.239880904555 2.222521066666 0.462051898241 0.044856 0.973492 0.224279
0.197521656752 2.200698852539 0.560184538364 0.042897 0.969465 0.241447
0.204559490085 2.195019483566 0.581606268883 0.042973 0.968739 0.244333
0.237747460604 2.179199457169 0.637818515301 0.040473 0.967666 0.248968
-0.142775058746 2.248174190521 0.330507636070 -0.020780 0.994140 0.106085
-0.187679320574 2.250388622284 0.299589365721 -0.038944 0.993635 0.105706
-0.262229144573 2.242567062378 0.338124364614 -0.053693 0.990473 0.126808
-0.344531059265 2.238341569901 0.335593044758 -0.060455 0.991232 0.117488
-0.465503424406 2.228573799133 0.324960619211 -0.104970 0.983340 0.148406
-0.339216142893 2.226199865341 0.411766469479 -0.053452 0.982330 0.179361
-0.250671416521 2.227869987488 0.428790628910 -0.053452 0.982330 0.179361
-0.286425918341 2.222390413284 0.445420503616 -0.052578 0.972087 0.228654
-0.496849387884 2.103546619415 0.833867549896 -0.151506 0.940426 0.304376
-0.831454157829 0.749765574932 0.479874432087 -0.976308 -0.005846 0.216308
-0.827847123146 0.708984613419 0.495575100183 -0.976427 -0.003500 0.215817
-0.842113852501 0.665716767311 0.427107363939 -0.979858 -0.003462 0.199665
-0.838933765888 0.712306261063 0.443503558636 -0.979858 -0.003462 0.199665
-0.857117056847 0.720674633980 0.352868199348 -0.980840 -0.003458 0.194785
-0.848746955395 0.561761975288 0.392507135868 -0.980927 -0.003450 0.194345
-0.839691758156 0.184026569128 0.430702060461 -0.979315 -0.001156 0.202338
-0.843495428562 0.109221719205 0.412135422230 -0.978758 -0.001158 0.205018
-0.844918191433 0.095293834805 0.405284076929 -0.979409 -0.001154 0.201881
-0.848478674889 0.200828939676 0.388389557600 -0.979315 -0.001156 0.202338
-0.807952940464 -0.003202509135 0.569110155106 -0.970485 -0.003564 0.241136
-0.776954889297 -0.012679915875 0.687982439995 -0.965528 -0.003598 0.260273
-0.743554353714 0.112650379539 0.809579133987 -0.961369 -0.006062 0.275196
-0.753581643105 0.204774603248 0.776180982590 -0.961185 -0.006076 0.275839
-0.742901623249 0.311269283295 0.815318286419 -0.960549 -0.003643 0.278086
-0.742272615433 0.408937633038 0.818775177002 -0.959707 -0.003649 0.280979
-0.742661297321 0.576471626759 0.818829178810 -0.959904 -0.001214 0.280326
-0.744220018387 0.665230274200 0.813811838627 -0.959249 -0.001213 0.282560
-0.780610144138 0.681024610996 0.686196684837 -0.965534 -0.001199 0.260274
-0.792586624622 0.688381135464 0.641521632671 -0.969220 -0.003568 0.246170
-0.831219673157 0.606897115707 0.478923290968 -0.976427 -0.003500 0.215817
-0.844525814056 0.328164130449 0.409319490194 -0.979766 -0.003470 0.200117
-0.798538088799 0.178238824010 0.609246492386 -0.968355 -0.003582 0.249551
-0.785340487957 0.192419543862 0.660448849201 -0.965957 -0.006015 0.258631
-0.793374240398 0.466884285212 0.636023044586 -0.969075 -0.003576 0.246739
-0.762487590313 0.459160238504 0.749759018421 -0.963183 -0.003616 0.268823
-0.806207537651 0.526433527470 0.586362481117 -0.972648 -0.003537 0.232257
-0.832069396973 0.470836639404 0.473111301661 -0.976427 -0.003500 0.215817
-0.814543306828 0.238552197814 0.545486330986 -0.971852 -0.003551 0.235565
-0.809422552586 0.481669396162 0.572262346745 -0.972520 -0.003545 0.232790
-0.813482880592 0.321490496397 0.551795899868 -0.972381 -0.005922 0.233324
-0.818614363670 0.823424696922 0.538703441620 -0.972520 -0.003545 0.232790
-0.813015937805 0.844253063202 0.562305986881 -0.971852 -0.003551 0.235565
-0.793378829956 0.823591172695 0.639960408211 -0.967037 -0.003586 0.254609
-0.787133872509 0.806252241135 0.663319528103 -0.965528 -0.003598 0.260273
-0.839362084866 1.615694642067 0.418131351471 -0.976047 0.037126 0.214371
-0.832100927830 1.600459456444 0.453185021877 -0.977171 0.020087 0.211504
-0.848218202591 1.412166237831 0.391524612904 -0.978975 0.010477 0.203711
-0.816186010838 1.212500810623 0.543508291245 -0.971242 0.013141 0.237733
-0.774447560310 0.973281919956 0.709579646587 -0.963362 -0.001203 0.268202
-0.753191649914 0.978009700775 0.782904207706 -0.958188 0.003653 0.286117
-0.740411221981 1.297781348228 0.807691931725 -0.949861 0.011204 0.312471
-0.735924601555 1.456853747368 0.812915623188 -0.945233 0.016362 0.325986
-0.734230995178 1.614955186844 0.809898018837 -0.945233 0.016362 0.325986
-0.739147722721 1.700839281082 0.790923714638 -0.951617 0.023759 0.306368
-0.771913170815 1.708366632462 0.680695295334 -0.963851 0.030774 0.264659
-0.778659880161 1.595750093460 0.668153166771 -0.961832 0.028325 0.272170
-0.758788287640 1.220816016197 0.754696846008 -0.957492 0.018532 0.287865
-0.770667850971 1.400224208832 0.707097947598 -0.962425 0.010950 0.271328
-0.804207980633 1.471346616745 0.580388605595 -0.970157 0.010740 0.242241
-0.810661494732 1.465826034546 0.554769754410 -0.970157 0.010740 0.242241
-0.815675020218 1.564232587814 0.527789652348 -0.973545 0.020257 0.227597
-0.791306018829 1.636219382286 0.616438984871 -0.966735 0.033082 0.253630
-0.799311757088 1.654556989670 0.583281397820 -0.971239 0.032657 0.235855
-0.806985795498 1.619580030441 0.557173073292 -0.969464 0.035364 0.242671
-0.823583185673 1.729355812073 0.468915373087 -0.976803 0.049382 0.208369
-0.832780659199 1.437515258789 0.462542265654 -0.977143 0.010557 0.212320
-0.821515500546 1.418809652328 0.512264966965 -0.973532 0.010646 0.228301
-0.809341609478 1.000924706459 0.577553987503 -0.971989 0.001181 0.235025
-0.835142612457 1.312423348427 0.456450343132 -0.977973 0.005828 0.208650
-0.845403611660 1.345076084137 0.407381027937 -0.978644 0.005805 0.205480
-0.848288655281 1.166008710861 0.399942517281 -0.980397 0.003456 0.197001
-0.847408711910 0.967562079430 0.405349314213 -0.980402 -0.001152 0.197002
-0.836416125298 1.004030108452 0.459658950567 -0.978758 -0.001158 0.205018
-0.830445945263 1.006772756577 0.487053960562 -0.975939 0.001166 0.218041
-0.815243482590 0.990961253643 0.553208231926 -0.972119 0.001178 0.234487
-0.844108462334 1.135943531990 0.421112716198 -0.978644 0.005805 0.205480
0.842225134373 1.729425787926 0.381308257580 0.979572 0.056352 0.193037
0.834477484226 1.496543407440 0.452892184258 0.977143 0.010557 0.212320
0.824515402317 1.400269389153 0.501197159290 0.973532 0.010646 0.228301
0.801031053066 1.200881004333 0.605616509914 0.967673 0.013256 0.251860
0.773444533348 1.124431610107 0.710888922215 0.963408 0.010907 0.267815
0.796054601669 1.301888585091 0.619565546513 0.967289 0.008411 0.253538
0.836042761803 1.658734321594 0.426946640015 0.975102 0.039775 0.218162
0.832951545715 1.728274703026 0.426693588495 0.977172 0.051811 0.206037
0.816887915134 1.777613878250 0.489201933146 0.974954 0.049656 0.216791
0.817725300789 1.653862953186 0.508210003376 0.974157 0.037329 0.222768
0.772964477539 1.254336476326 0.705741584301 0.962817 0.015864 0.269687
0.770473599434 1.216574430466 0.716589212418 0.958613 0.015997 0.284261
0.765014111996 1.107133030891 0.740525960922 0.959044 0.013473 0.282936
0.744246661663 1.070977091789 0.810746431351 0.955908 0.018549 0.293079
0.742606997490 1.134178876877 0.812393903732 0.952629 0.021225 0.303393
0.761769711971 1.199292659760 0.746874868870 0.957492 0.018532 0.287865
0.789524078369 1.581438899040 0.630278170109 0.967446 0.018117 0.252430
0.806106746197 1.687588214874 0.551630437374 0.971239 0.032657 0.235855
0.800410389900 1.753355383873 0.565022408962 0.970656 0.037755 0.237488
0.801937282085 1.769896388054 0.556031107903 0.972831 0.044937 0.227115
0.790989518166 1.758327841759 0.602640271187 0.970564 0.040186 0.237466
0.787406682968 1.756673336029 0.616957545280 0.968001 0.035489 0.248425
0.781472146511 1.642654776573 0.653934657574 0.961832 0.028325 0.272170
0.750748872757 1.325719237328 0.776172041893 0.949861 0.011204 0.312471
0.744864761829 1.484828591347 0.786708414555 0.945233 0.016362 0.325986
0.758022248745 1.730734467506 0.728007555008 0.958218 0.028585 0.284607
0.752617180347 1.690744876862 0.749927341938 0.957603 0.026083 0.286908
0.747025072575 1.709923267365 0.766465544701 0.951081 0.026384 0.307813
0.746676087379 1.025622129440 0.804390549660 0.952546 0.003697 0.304371
0.808241903782 1.026254653931 0.582839965820 0.971989 0.001181 0.235025
0.842012286186 1.010890364647 0.433831930161 0.980402 -0.001152 0.197002
0.839645802975 1.037998557091 0.445330560207 0.978855 -0.001156 0.204554
0.855698645115 1.049304485321 0.365777730942 0.981019 -0.001147 0.193909
0.857816159725 0.995597481728 0.355051368475 0.981019 -0.001147 0.193909
0.853505730629 1.285214900970 0.371985137463 0.978546 0.005818 0.205948
0.853374004364 1.329182863235 0.371202528477 0.978530 0.008145 0.205945
0.847643792629 1.364629268646 0.397315829992 0.978644 0.005805 0.205480
0.849406540394 1.643174409866 0.366130560637 0.978895 0.036872 0.201012
0.824215173721 1.236311078072 0.509212970734 0.974029 0.013019 0.226050
0.830216109753 1.074151396751 0.488746434450 0.975699 0.005857 0.219035
0.834741711617 1.205636739731 0.464235872030 0.977834 0.010514 0.209119
0.842097282410 1.361245393753 0.423542708158 0.977973 0.005828 0.208650
0.849595844746 0.764795482159 0.391598880291 0.980829 -0.005763 0.194783
0.841655910015 0.695243418217 0.429775536060 0.979858 -0.003462 0.199665
0.848707318306 0.836007058620 0.397681474686 0.980397 -0.003456 0.197001
0.832144379616 0.752500891685 0.476810634136 0.976308 -0.005846 0.216308
0.799641788006 0.814229607582 0.615549147129 0.969075 -0.003576 0.246739
0.794798314571 0.658518910408 0.632511973381 0.969220 -0.003568 0.246170
0.786791801453 0.816481292248 0.665115058422 0.965528 -0.003598 0.260273
0.781843900681 0.806294620037 0.683275222778 0.963981 -0.001203 0.265967
0.774787783623 0.786815047264 0.708353877068 0.962379 -0.003623 0.271688
0.759056091309 0.769824385643 0.763734638691 0.960094 -0.001211 0.279674
0.757923543453 0.569573402405 0.766625702381 0.959904 -0.001214 0.280326
0.748205900192 0.520257234573 0.799521386623 0.959904 -0.001214 0.280326
0.767246246338 0.471146523952 0.732837677002 0.963183 -0.003616 0.268823
0.778214693069 0.513147294521 0.693690419197 0.966129 -0.003600 0.258034
0.785217702389 0.438530653715 0.666584610939 0.966129 -0.003600 0.258034
0.791996836662 0.435448259115 0.640924155712 0.969075 -0.003576 0.246739
0.847257435322 0.425407648087 0.397689968348 0.980840 -0.003458 0.194785
0.851104617119 0.420375943184 0.378383934498 0.980397 -0.003456 0.197001
0.844412565231 0.218635052443 0.408274084330 0.979315 -0.001156 0.202338
0.832625985146 0.194707870483 0.464799225330 0.979766 -0.003470 0.200117
0.834160208702 0.333799660206 0.460002511740 0.979755 -0.005784 0.200115
0.822700560093 0.210057094693 0.509551703930 0.975710 -0.003514 0.219037
0.818272411823 0.155047744513 0.528482854366 0.975822 -0.003506 0.218537
0.820801556110 0.065821386874 0.516136705875 0.975327 -0.001168 0.220763
0.817007541656 0.009233307093 0.531873881817 0.972648 -0.003537 0.232257
0.817050635815 0.060937147588 0.532409608364 0.971313 -0.001183 0.237800
0.810771405697 0.120298057795 0.558910191059 0.971308 -0.003549 0.237799
0.812042415142 0.251143872738 0.556029975414 0.972381 -0.005922 0.233324
0.812308847904 0.316656738520 0.556501388550 0.972381 -0.005922 0.233324
0.803157567978 0.334076017141 0.594754219055 0.968919 -0.005974 0.247307
0.770679652691 0.391931027174 0.719419956207 0.962997 -0.006041 0.269446
0.757892966270 0.175076842308 0.760402143002 0.963794 -0.006031 0.266581
0.770586311817 0.130849644542 0.713876426220 0.963621 -0.006045 0.267202
0.802960455418 0.023913890123 0.589502453804 0.970485 -0.003564 0.241136
0.744174778461 0.009455184452 0.805512368679 0.961369 -0.006062 0.275196
0.795834422112 0.208340570331 0.620372951031 0.968344 -0.005970 0.249549
0.767181515694 0.230107009411 0.728218317032 0.963621 -0.006045 0.267202
0.847859740257 -0.024352269247 0.391189664602 0.978758 0.001158 0.205018
0.846133649349 0.034957427531 0.399291992188 0.979409 -0.001154 0.201881
0.854798436165 0.143929123878 0.357582300901 0.979409 -0.001154 0.201881
0.842298805714 0.591337442398 0.425024658442 0.979858 -0.003462 0.199665
0.838639855385 0.644947826862 0.443822741508 0.979858 -0.003462 0.199665
0.830349326134 0.549280405045 0.482054173946 0.976427 -0.003500 0.215817
0.817748665810 0.643777728081 0.539462029934 0.972648 -0.003537 0.232257
0.801967501640 0.566371500492 0.603468835354 0.969220 -0.003568 0.246170
0.779358685017 0.712824165821 0.691054105759 0.965534 -0.001199 0.260274
0.778307795525 0.615022361279 0.694185316563 0.965696 -0.001197 0.259673
-0.725605607033 2.209810972214 -0.074813045561 -0.375571 0.926750 -0.008973
-0.773952960968 2.183542013168 -0.124469265342 -0.569966 0.820807 -0.037626
-0.824037134647 2.120568275452 -0.032720241696 -0.878477 0.476577 -0.033944
-0.848873198032 2.074121713638 -0.016909694299 -0.893849 0.444884 -0.055781
0.823845744133 2.119565010071 -0.070409595966 0.864237 0.501505 -0.039846
0.701451003551 2.217265129089 0.063439883292 0.292169 0.956075 0.023622
0.785654485226 2.174599170685 -0.118907287717 0.706322 0.706322 -0.047088
0.708530724049 2.216120481491 -0.085063911974 0.249582 0.968185 -0.018086
0.786980152130 2.174379348755 -0.052063837647 0.773951 0.633232 0.004139
0.824413120747 2.120275974274 -0.048968061805 0.851493 0.523040 -0.037261
0.743994235992 2.203341722488 -0.043411940336 0.387984 0.921622 0.009023
-0.425122201443 -2.238965272903 -0.070485472679 -0.152823 -0.945338 0.288064
-0.281466692686 -2.218555688858 0.045062929392 -0.072944 -0.932355 0.354109
-0.228774875402 -2.234326124191 0.013338504359 -0.072557 -0.937969 0.339041
-0.321362495422 -2.234909772873 -0.008878206834 -0.074823 -0.941192 0.329483
-0.277224004269 -2.273991823196 -0.120007619262 -0.075893 -0.955734 0.284276
0.070354796946 -2.223505020142 0.055233895779 -0.006361 -0.929942 0.367651
-0.010332995094 -2.228246688843 0.042144171894 -0.006370 -0.928721 0.370724
-0.100009575486 -2.234969854355 0.023452347144 -0.006315 -0.935843 0.352362
0.103319190443 -2.257271289825 -0.035085856915 -0.006258 -0.942486 0.334188
-0.035877406597 -2.273067951202 -0.083258770406 -0.006205 -0.949407 0.313987
0.204041406512 -2.264800548553 -0.067939884961 0.039529 -0.947430 0.317510
0.119611009955 -2.244766235352 -0.000641584862 0.034542 -0.942876 0.331350
0.269525170326 -2.237098693848 -0.000861081819 0.074823 -0.941192 0.329483
0.290086627007 -2.239346742630 -0.011895243078 0.074823 -0.941192 0.329483
0.364578962326 -2.226101875305 0.003380679991 0.148842 -0.938116 0.312705
0.233561307192 -2.232607364655 0.019585041329 0.072492 -0.937128 0.341373
0.354998856783 -2.250519514084 -0.068106241524 0.152823 -0.945338 0.288064
0.716601014137 -0.753949880600 -0.627811193466 0.023063 -0.005014 -0.999721
0.728430330753 -0.840432584286 -0.627135574818 0.023063 -0.005014 -0.999721
0.731738090515 -0.869953393936 -0.626883327961 0.014983 -0.006992 -0.999863
0.682843208313 -0.774516880512 -0.628307104111 0.014983 -0.006992 -0.999863
0.612876653671 -0.611919581890 -0.630530536175 0.014983 -0.006992 -0.999863
0.593785762787 -0.646057248116 -0.630601108074 0.014983 -0.006992 -0.999863
0.618136227131 -0.700432598591 -0.629840314388 0.014983 -0.006992 -0.999863
0.562252044678 -0.523812353611 -0.632066905499 0.015013 -0.009008 -0.999847
0.482112675905 -0.240426018834 -0.635749280453 0.015013 -0.009008 -0.999847
0.551671862602 -0.347574502230 -0.633735001087 0.015013 -0.009008 -0.999847
0.451692730188 -0.192915722728 -0.636635720730 0.015013 -0.009008 -0.999847
