0.185944318771 1.289803504944 0.492835313082 0.054288 0.374721 0.925547
0.351473182440 1.396338224411 0.436690539122 0.081204 0.350110 0.933182
0.248398154974 1.411820530891 0.439744621515 0.067942 0.371681 0.925871
0.097900837660 0.523124217987 0.650145351887 0.045332 0.034790 0.998366
0.013624298386 0.304732888937 0.653374373913 0.088717 -0.066257 0.993851
0.069554328918 0.106853231788 0.632061660290 0.039407 -0.120473 0.991934
0.114594742656 0.103187061846 0.630557656288 0.018517 -0.103476 0.994460
0.195820242167 0.067546688020 0.623037040234 0.057359 -0.102346 0.993094
0.187214955688 0.116533242166 0.628579795361 0.057372 -0.100119 0.993320
0.326547145844 0.142015218735 0.620745360851 0.096130 -0.100763 0.990255
0.270597308874 0.163593396544 0.628342092037 0.096130 -0.100763 0.990255
0.354602694511 0.024898996577 0.606344103813 0.093641 -0.098265 0.990745
0.445542097092 0.112588256598 0.605624496937 0.113505 -0.097123 0.988779
0.521422386169 0.142332732677 0.599797964096 0.113505 -0.097123 0.988779
0.464189410210 0.233914762735 0.613535702229 0.112952 -0.065033 0.991470
0.413198083639 0.317232817411 0.624975442886 0.115727 -0.065312 0.991131
0.329530954361 0.298688709736 0.632225394249 0.096038 -0.066661 0.993143
0.359521299601 0.218071401119 0.623823642731 0.093784 -0.068925 0.993204
0.228023216128 0.233739256859 0.636118173599 0.058186 -0.071360 0.995752
0.201664477587 0.310018569231 0.643118917942 0.058314 -0.071517 0.995733
0.046757560223 0.244204133749 0.646328866482 0.044555 -0.070636 0.996507
0.061998531222 0.363371372223 0.651919543743 0.046387 -0.011339 0.998859
0.175758898258 0.414957165718 0.646665394306 0.059452 -0.011473 0.998165
0.189125493169 0.473572492599 0.646443426609 0.059453 -0.009387 0.998187
0.285642266273 0.393478363752 0.638839423656 0.097903 -0.007531 0.995167
0.384211182594 0.421589374542 0.629425346851 0.095363 -0.007500 0.995414
0.390030115843 0.394032329321 0.628681242466 0.114004 -0.005429 0.993465
0.468594640493 0.467640906572 0.619892537594 0.116399 -0.003264 0.993197
0.493344038725 0.551100969315 0.613874614239 0.118231 0.043914 0.992015
0.388078868389 0.508269309998 0.628250777721 0.120462 0.041655 0.991844
0.358841329813 0.614750564098 0.626962780952 0.100846 0.041003 0.994057
0.278189241886 0.556883871555 0.637460589409 0.098443 0.038714 0.994389
0.182714253664 0.540674507618 0.644779324532 0.060937 0.037417 0.997440
0.160878255963 0.534642636776 0.646354854107 0.063072 0.035277 0.997385
0.178383603692 0.632097065449 0.641505718231 0.063618 0.083709 0.994457
0.180757448077 0.711623609066 0.634581267834 0.063606 0.085924 0.994269
0.265508919954 0.651744186878 0.633710265160 0.104953 0.086500 0.990708
0.366570413113 0.631031274796 0.625065028667 0.102650 0.088810 0.990745
0.396935760975 0.668390035629 0.618241786957 0.120531 0.087765 0.988822
0.492573499680 0.775589823723 0.594711244106 0.124333 0.129161 0.983798
0.419003933668 0.790956199169 0.601972222328 0.124333 0.129161 0.983798
0.297099173069 0.751896321774 0.620962679386 0.105877 0.127290 0.986198
0.188429191709 0.759720981121 0.629044592381 0.065686 0.125610 0.989903
0.053138647228 0.766527175903 0.635842978954 0.049024 0.126551 0.990748
0.040316160768 0.819552183151 0.629700779915 0.087918 0.125430 0.988199
-0.093789152801 0.075500354171 0.627957999706 -0.018517 -0.103476 0.994460
-0.184061333537 0.042002171278 0.620837509632 -0.057359 -0.102346 0.993094
-0.137791872025 0.105266518891 0.630023002625 -0.057359 -0.102346 0.993094
-0.184658095241 0.153334468603 0.632193803787 -0.059614 -0.100106 0.993189
-0.158354580402 0.150784760714 0.633498549461 -0.059614 -0.100106 0.993189
-0.200233012438 0.207028403878 0.635557293892 -0.058195 -0.069175 0.995906
-0.193686142564 0.294600576162 0.642157673836 -0.060506 -0.071507 0.995603
-0.094069249928 0.306657165289 0.648458898067 -0.044555 -0.070636 0.996507
-0.108386851847 0.427171528339 0.650235235691 -0.046387 -0.011339 0.998859
-0.027098260820 0.628219604492 0.649650037289 -0.083803 0.035915 0.995835
-0.085744589567 0.705838322639 0.640181124210 -0.047290 0.084682 0.995285
-0.114323958755 0.651240825653 0.643481671810 -0.047290 0.084682 0.995285
-0.184589266777 0.589358031750 0.642593443394 -0.060937 0.037417 0.997440
-0.228758633137 0.491614371538 0.643594682217 -0.060937 0.037417 0.997440
-0.193337276578 0.430112570524 0.645483851433 -0.059453 -0.009387 0.998187
-0.198468834162 0.336904495955 0.644257426262 -0.059453 -0.009387 0.998187
-0.174481436610 0.424505591393 0.646564602852 -0.059453 -0.009387 0.998187
-0.306682139635 0.455132275820 0.636786401272 -0.097903 -0.007531 0.995167
-0.359548091888 0.424885302782 0.631378769875 -0.095364 -0.005358 0.995428
-0.323344022036 0.307955741882 0.632925093174 -0.098276 -0.066647 0.992925
-0.290286660194 0.276846230030 0.634053945541 -0.096023 -0.068911 0.992991
-0.299501597881 0.056888762861 0.614417970181 -0.096152 -0.098469 0.990484
-0.398218363523 0.092740371823 0.608430683613 -0.095932 -0.098244 0.990528
-0.422165453434 0.103366270661 0.606834888458 -0.113505 -0.097123 0.988779
-0.524887144566 0.130571186543 0.597582101822 -0.115840 -0.094778 0.988736
-0.473902493715 0.187321424484 0.608855187893 -0.112969 -0.062760 0.991614
-0.397672563791 0.308101832867 0.625522255898 -0.115465 -0.065164 0.991172
-0.436062395573 0.379247784615 0.622838437557 -0.114004 -0.005429 0.993465
-0.482871502638 0.443368673325 0.617587089539 -0.116148 -0.001085 0.993231
-0.482055395842 0.526432275772 0.615856885910 -0.116010 0.043926 0.992276
-0.388578057289 0.529894053936 0.626788556576 -0.120462 0.041655 0.991844
-0.313646346331 0.590636849403 0.632066726685 -0.101069 0.041094 0.994030
-0.326038807631 0.696220159531 0.623028934002 -0.102650 0.088810 0.990745
-0.251456081867 0.687474608421 0.631561994553 -0.102671 0.086520 0.990946
-0.225470617414 0.690717160702 0.633224725723 -0.063606 0.085924 0.994269
-0.193767294288 0.639366805553 0.639653325081 -0.063606 0.085924 0.994269
-0.199060261250 0.764913678169 0.627422690392 -0.063391 0.125629 0.990050
-0.129611909389 0.808678627014 0.626290798187 -0.063372 0.127897 0.989761
-0.036581620574 0.792913258076 0.632947087288 -0.049024 0.126551 0.990748
-0.117161460221 0.880034327507 0.616920590401 -0.047287 0.144169 0.988423
0.151949554682 0.846240639687 0.619973063469 0.064277 0.143746 0.987525
0.362006753683 0.840816020966 0.602143943310 0.104795 0.143340 0.984110
0.406143784523 0.871601760387 0.592111885548 0.125874 0.145427 0.981329
0.423887550831 0.888424694538 0.587035357952 0.125184 0.167325 0.977922
0.387079149485 0.886007726192 0.592176795006 0.125235 0.164914 0.978325
0.143292799592 0.892184495926 0.613644003868 0.065140 0.164626 0.984203
0.064581751823 0.912385523319 0.614396989346 0.048025 0.165159 0.985097
0.016206394881 0.942797183990 0.612141907215 0.084435 0.192120 0.977732
0.043513119221 0.949102222919 0.608928143978 0.046087 0.183165 0.982001
0.215944662690 0.962359488010 0.596633791924 0.063242 0.177792 0.982034
0.459300160408 0.933584451675 0.574663996696 0.126498 0.179101 0.975664
0.334104537964 0.989379703999 0.579991400242 0.105272 0.184536 0.977172
0.061887927353 1.016692996025 0.593800783157 0.022042 0.184454 0.982594
-0.137997016311 0.875544428825 0.616271793842 -0.064129 0.143415 0.987583
-0.278427392244 0.849530160427 0.609328329563 -0.104795 0.143340 0.984110
-0.264082580805 0.817169964314 0.615538239479 -0.103523 0.127322 0.986444
-0.271222740412 0.756793856621 0.622612178326 -0.103523 0.127322 0.986444
-0.426309347153 0.795823216438 0.599936664104 -0.124333 0.129161 0.983798
-0.402240306139 0.711055159569 0.613228917122 -0.121040 0.092836 0.988297
-0.407597780228 0.663655698299 0.616891682148 -0.120506 0.090087 0.988617
-0.452778458595 0.831565856934 0.591681063175 -0.123468 0.145472 0.981628
-0.288305103779 0.881643772125 0.603541195393 -0.103824 0.164897 0.980831
-0.410471886396 1.008276820183 0.566494345665 -0.124223 0.184452 0.974960
-0.407076120377 0.992782175541 0.569885909557 -0.124469 0.187332 0.974379
-0.001377224922 0.129663988948 0.637612760067 -0.046460 -0.121250 0.991534
0.009336531162 0.630571603775 0.651598989964 0.083809 0.033741 0.995910
0.070773825049 0.720580101013 0.639940083027 0.047394 0.084868 0.995264
0.053190849721 0.422327250242 0.652891576290 0.044239 -0.009259 0.998978
0.330120563507 -0.003514895216 0.602709829807 0.105317 -0.227129 0.968153
0.115761063993 -0.052567183971 0.606146991253 0.017907 -0.230400 0.972931
0.018224172294 -0.035774454474 0.611958026886 0.017907 -0.230400 0.972931
0.067358121276 -0.018692020327 0.615076482296 0.017907 -0.230400 0.972931
-0.073328807950 -0.035623580217 0.610793471336 -0.020293 -0.230389 0.972887
-0.221503630280 -0.004611181095 0.611379623413 -0.063074 -0.231271 0.970843
-0.099337793887 -0.006338182837 0.617177903652 -0.020293 -0.230389 0.972887
-0.331011831760 -0.029405612499 0.595804572105 -0.108153 -0.225213 0.968288
-0.666077911854 -0.209600299597 0.435918152332 -0.464170 -0.383864 0.798244
-0.688819169998 -0.144820600748 0.442902475595 -0.757157 -0.162356 0.632735
0.363427042961 -0.021865081042 0.594769179821 0.105317 -0.227129 0.968153
0.740763604641 -0.449721813202 0.264310866594 0.414765 -0.470067 0.779107
0.778315484524 -0.399153828621 0.255428433418 0.776476 -0.198347 0.598117
0.658970594406 -0.016610495746 0.505340576172 0.799405 -0.043706 0.599201
0.630830168724 -0.061542831361 0.525106370449 0.462540 -0.348097 0.815405
0.675840318203 -0.137445658445 0.461001336575 0.753786 -0.169031 0.635008
0.468602538109 0.004339055158 0.588611602783 0.136919 -0.269851 0.953118
0.743369400501 -1.406438350677 0.145708113909 0.097398 -0.186166 0.977679
0.689637482166 -1.548086881638 0.116478785872 0.141284 -0.291987 0.945929
0.720028758049 -1.623587250710 0.088458195329 0.142762 -0.311357 0.939508
0.665217936039 -1.698730468750 0.071096010506 0.122675 -0.319496 0.939613
0.637787342072 -1.648072361946 0.092232488096 0.141517 -0.331123 0.932915
0.653869569302 -1.625625252724 0.097581371665 0.130399 -0.299782 0.945054
0.635097146034 -1.406131386757 0.156651362777 0.097542 -0.191380 0.976657
0.654247641563 -1.257655620575 0.178046554327 0.065033 -0.112952 0.991470
0.709655821323 -1.241018056870 0.176212206483 0.064773 -0.107954 0.992044
0.711908996105 -0.976472079754 0.203581884503 0.064267 -0.095837 0.993320
0.666823327541 -0.980832278728 0.206047311425 0.061869 -0.097865 0.993275
0.652974247932 -0.668106615543 0.237911269069 0.076336 -0.096844 0.992368
0.680054247379 -0.590120971203 0.242701172829 0.098041 -0.093427 0.990787
0.726660668850 -0.685823559761 0.229655310512 0.073437 -0.091514 0.993092
0.628416359425 -0.927916228771 0.214276731014 0.076319 -0.099101 0.992146
0.612369000912 -1.119855165482 0.196055263281 0.059868 -0.102792 0.992900
0.556874871254 -1.360909223557 0.171046614647 0.077244 -0.153299 0.985156
0.586986720562 -1.421030640602 0.158473551273 0.097778 -0.191843 0.976543
0.583259344101 -1.564754009247 0.126365840435 0.112403 -0.246770 0.962533
0.558959782124 -1.623933672905 0.110888689756 0.146045 -0.315293 0.937689
0.581677258015 -1.640684247017 0.102473124862 0.115875 -0.299677 0.946978
0.506735503674 -1.754803657532 0.070722401142 0.089743 -0.346916 0.933593
0.492718935013 -1.620611190796 0.122150905430 0.143372 -0.315418 0.938060
0.507656157017 -1.425761580467 0.164853394032 0.079606 -0.153271 0.984973
0.558360040188 -0.942735731602 0.217984423041 0.079424 -0.107050 0.991076
0.548274397850 -0.919999599457 0.221190407872 0.076804 -0.104316 0.991574
0.586158633232 -0.689402699471 0.241603165865 0.098878 -0.101204 0.989940
0.482748597860 -1.642603039742 0.115620277822 0.103049 -0.330558 0.938143
0.493487119675 -1.302478194237 0.183927148581 0.231192 -0.125283 0.964808
0.496750831604 -1.103372812271 0.207306504250 0.267674 -0.110987 0.957096
0.426564693451 -1.787420272827 0.070797331631 0.312175 -0.404444 0.859635
0.458939492702 -1.219009160995 0.201783612370 0.108856 -0.099492 0.989066
0.409014552832 -1.688967108727 0.118182800710 0.166338 -0.336870 0.926742
0.413634270430 -1.749068975449 0.093652874231 0.200087 -0.404555 0.892357
0.301553577185 -1.832781791687 0.071963958442 0.120859 -0.453578 0.882984
0.445188254118 -1.201259613037 0.204721167684 0.047765 -0.096640 0.994173
0.467810750008 -0.981439113617 0.224764749408 0.066797 -0.098497 0.992893
0.469692438841 -0.869135260582 0.235320270061 0.066526 -0.093588 0.993386
0.487797975540 -0.776536762714 0.242802232504 0.083522 -0.094964 0.991971
0.419840157032 -1.283190488815 0.195368766785 0.757624 -0.139523 0.637604
0.370732367039 -1.642708897591 0.136881142855 0.079981 -0.255177 0.963581
0.392818629742 -1.536341309547 0.161241576076 0.079687 -0.197378 0.977083
0.402030140162 -1.428695917130 0.180049479008 0.072152 -0.154949 0.985284
0.394297122955 -1.422154664993 0.181647717953 0.074678 -0.155284 0.985043
0.441323965788 -0.892487943172 0.234694927931 0.061744 -0.095423 0.993520
0.441639035940 -0.810016214848 0.242526143789 0.054664 -0.094825 0.993992
0.403945237398 -1.076157569885 0.219128593802 0.054774 -0.097251 0.993752
0.339891374111 -1.584965705872 0.154669106007 0.074701 -0.257022 0.963514
0.283100068569 -1.808278918266 0.085064537823 0.105790 -0.386064 0.916386
0.323631107807 -1.479282617569 0.177029535174 0.054989 -0.155606 0.986287
0.325421154499 -1.274160027504 0.203434094787 0.053059 -0.111763 0.992317
0.360441118479 -1.086894154549 0.220346540213 0.047870 -0.096854 0.994147
0.320869445801 -0.973488330841 0.233678713441 0.052544 -0.097263 0.993871
0.376280277967 -0.764023780823 0.250807225704 0.059507 -0.095436 0.993655
0.391252428293 -0.786172807217 0.247762963176 0.061882 -0.095636 0.993491
0.289600402117 -1.279204726219 0.204773619771 0.043311 -0.101060 0.993937
0.271392703056 -1.554466843605 0.165462613106 0.046805 -0.202820 0.978097
0.249102234840 -1.513402104378 0.175754830241 0.112166 -0.207949 0.971687
0.271837234497 -1.056133866310 0.228129073977 0.047966 -0.099279 0.993903
0.240766718984 -1.517109394073 0.175610676408 0.074842 -0.207349 0.975400
0.216416850686 -1.747274756432 0.115569412708 0.069697 -0.340595 0.937623
0.244716212153 -1.297941565514 0.204932734370 0.043753 -0.111065 0.992850
0.272331506014 -0.792079210281 0.253928333521 0.045447 -0.096437 0.994301
0.289178162813 -0.719364583492 0.260143607855 0.057129 -0.097456 0.993599
0.224485427141 -0.874635994434 0.247909858823 0.036352 -0.095838 0.994733
0.216559007764 -1.116825461388 0.224468633533 0.036424 -0.098235 0.994496
0.183529689908 -1.133685588837 0.224008291960 0.036424 -0.098235 0.994496
0.196347132325 -1.422472119331 0.192982420325 0.039098 -0.110592 0.993097
0.172803431749 -1.474829673767 0.185941606760 0.040572 -0.158810 0.986475
0.194406330585 -1.587509512901 0.163269817829 0.039465 -0.209284 0.977058
0.194689929485 -1.688794136047 0.136915117502 0.048699 -0.265974 0.962749
-0.212931856513 -1.886169791222 0.052526991814 -0.162619 -0.709747 0.685430
-0.063672006130 -1.808139085770 0.102458558977 -0.056164 -0.346128 0.936505
0.010765448213 -1.888566374779 0.069852791727 0.036813 -0.489476 0.871240
0.135881125927 -1.474930405617 0.187398374081 0.040572 -0.158810 0.986475
0.159305095673 -1.406902432442 0.196172237396 0.036786 -0.110357 0.993211
0.173163577914 -1.155012130737 0.222259342670 0.034145 -0.098028 0.994598
0.148801490664 -1.146685004234 0.223936378956 0.036416 -0.100421 0.994278
0.143060773611 -0.895219981670 0.248632296920 0.031811 -0.095434 0.994927
0.083310917020 -1.830358505249 0.088685661554 -0.568988 -0.283702 0.771859
0.089049175382 -1.659145712852 0.145851135254 -0.156735 -0.261225 0.952468
0.027033956721 -1.767212510109 0.118890017271 0.045434 -0.349196 0.935948
0.001934586093 -1.694126605988 0.147930637002 0.169689 -0.275574 0.946184
0.081606514752 -1.327858209610 0.207903847098 0.032189 -0.109887 0.993423
0.064994595945 -1.079888701439 0.233060717583 0.034070 -0.097814 0.994621
0.105025917292 -1.113316178322 0.228777766228 0.020659 -0.098944 0.994879
0.131773129106 -0.720707178116 0.265721112490 0.022792 -0.094426 0.995271
0.021264752373 -0.760342299938 0.263837128878 0.009666 -0.093436 0.995578
0.043118916452 -0.961673855782 0.244700118899 0.024972 -0.090116 0.995618
0.008974405006 -1.549915552139 0.181038141251 0.348121 -0.201996 0.915429
0.051196850836 -1.501635432243 0.186629846692 0.042968 -0.161422 0.985950
0.013184397481 -1.513213038445 0.186485946178 0.052738 -0.160558 0.985616
0.056442610919 -1.068416595459 0.234477043152 0.034070 -0.097814 0.994621
0.005828445777 -1.240176558495 0.219859361649 0.345348 -0.084004 0.934707
-0.035422239453 -1.650395274162 0.155734047294 -0.062103 -0.275028 0.959428
-0.009949052706 -1.002036333084 0.242480278015 -0.418052 -0.072172 0.905552
-0.029896127060 -1.396410822868 0.202683329582 -0.050706 -0.109300 0.992715
-0.089733302593 -1.227307796478 0.218105748296 -0.034070 -0.097814 0.994621
-0.088055618107 -1.115172266960 0.229166671634 -0.025119 -0.097201 0.994948
-0.141728281975 -1.766811370850 0.113445088267 -0.047994 -0.343744 0.937836
-0.219889983535 -1.570165395737 0.166038066149 -0.051907 -0.208834 0.976572
-0.202499255538 -1.678267240524 0.139693707228 -0.051190 -0.265940 0.962629
-0.225889995694 -1.477540969849 0.183397173882 -0.052636 -0.157908 0.986050
-0.129553794861 -1.208199620247 0.218762814999 -0.027415 -0.099792 0.994631
-0.264441072941 -1.378430128098 0.195171535015 -0.057819 -0.112237 0.991998
-0.322054088116 -0.766623914242 0.253653347492 -0.287137 0.062532 -0.955846
-0.329023540020 -0.983788967133 0.232413768768 -0.054785 -0.095036 0.993965
-0.352869898081 -1.180346369743 0.211698383093 -0.050092 -0.096844 0.994038
-0.388544052839 -1.274931192398 0.200219720602 -0.053059 -0.111763 0.992317
-0.465468138456 -0.847771048546 0.237652286887 -0.061620 -0.092990 0.993758
-0.453035414219 -1.178809762001 0.206622421741 -0.069066 -0.096239 0.992959
-0.468344539404 -1.076521635056 0.215641498566 -0.047775 -0.094439 0.994384
-0.544215083122 -1.394865751266 0.166977733374 -0.079606 -0.153271 0.984973
-0.565270245075 -1.449285387993 0.155347719789 -0.100229 -0.191796 0.976304
-0.630815505981 -1.479486107826 0.142182499170 -0.123128 -0.239775 0.962989
-0.652005434036 -1.663663625717 0.084733530879 -0.147030 -0.328412 0.933021
-0.583316683769 -1.676250219345 0.090591162443 -0.132066 -0.328124 0.935357
-0.456813544035 -1.725410580635 0.092633880675 -0.347023 -0.393707 0.851217
-0.250636339188 -1.820707321167 0.044682394713 -0.021739 -0.040372 -0.998948
0.049980901182 -1.871787309647 0.043308477849 0.009223 -0.039966 -0.999159
0.147237479687 -1.874386787415 0.045029859990 0.021958 -0.049143 -0.998550
0.107508420944 -1.894464850426 0.045182801783 0.021958 -0.049143 -0.998550
0.211845219135 -1.886232972145 0.050322577357 0.212222 -0.910965 0.353703
-0.352053433657 -1.827462911606 0.069381572306 -0.063465 -0.406447 0.911467
-0.346939176321 -1.780712366104 0.090404912829 -0.102359 -0.375315 0.921228
-0.283379316330 -1.408098697662 0.188438430429 0.568199 -0.063763 0.820417
-0.290888488293 -1.193989038467 0.210723578930 -0.216753 -0.112813 0.969686
-0.302945852280 -1.417372107506 0.188340604305 -0.059929 -0.156286 0.985892
-0.319541096687 -1.481823444366 0.177162393928 -0.057321 -0.155586 0.986158
-0.352742880583 -1.547033190727 0.162101000547 -0.071991 -0.198891 0.977374
-0.411345720291 -1.502020001411 0.165791288018 -0.788276 -0.184490 0.587014
-0.408618807793 -1.610613107681 0.139443263412 0.559842 -0.156756 0.813637
-0.420972049236 -1.522782802582 0.162301078439 -0.012723 -0.188532 0.981985
-0.509392678738 -1.674530148506 0.101282238960 -0.123287 -0.329218 0.936171
-0.588021874428 -1.609645605087 0.111635014415 -0.149096 -0.315974 0.936980
-0.563841938972 -1.573402404785 0.126766040921 -0.114953 -0.246698 0.962250
-0.545860588551 -1.578087210655 0.127699479461 -0.112124 -0.246158 0.962722
-0.505044937134 -1.588232398033 0.130051046610 -0.135327 -0.253575 0.957803
-0.478528827429 -1.542740106583 0.147961333394 -0.299142 -0.261569 0.917658
-0.553469419479 -1.492809295654 0.148006677628 -0.097778 -0.191843 0.976543
-0.454721480608 -1.256672263145 0.198681294918 -0.060229 -0.110231 0.992079
-0.271010905504 -1.816699385643 0.083537131548 -0.099554 -0.377761 0.920536
-0.338345259428 -1.598053336143 0.151569381356 -0.071959 -0.258801 0.963246
-0.702245473862 -1.360990881920 0.158555909991 -0.102774 -0.186975 0.976974
-0.636308908463 -1.369905591011 0.163381829858 -0.081833 -0.148249 0.985558
-0.747991144657 -1.159721016884 0.182462632656 -0.064773 -0.107954 0.992044
-0.693843007088 -1.113758921623 0.191356003284 -0.069769 -0.108656 0.991628
-0.643654823303 -1.248959779739 0.179773345590 -0.065050 -0.110699 0.991723
-0.592448055744 -1.337671637535 0.171931654215 -0.079635 -0.150949 0.985329
-0.570198655128 -1.219914555550 0.187867745757 -0.067611 -0.113448 0.991241
-0.593722403049 -0.904504776001 0.219333574176 -0.076492 -0.099325 0.992111
-0.659166336060 -0.869373440742 0.217752382159 -0.078761 -0.099308 0.991935
-0.643010556698 -1.128748655319 0.193152338266 -0.064123 -0.095623 0.993350
-0.713698327541 -0.993289351463 0.201751843095 -0.066512 -0.095823 0.993174
-0.711037218571 -0.645529985428 0.234339192510 -0.098041 -0.093427 0.990787
-0.685916960239 -0.822454988956 0.220239371061 -0.076336 -0.096844 0.992368
-0.623164474964 -0.741106629372 0.232958391309 -0.076164 -0.096626 0.992402
-0.607491195202 -0.720210134983 0.236352741718 -0.101181 -0.101181 0.989709
-0.584459125996 -0.613975346088 0.249457925558 -0.096351 -0.100994 0.990210
-0.540608942509 -0.844623923302 0.229756161571 -0.079083 -0.104297 0.991397
-0.530553400517 -0.847966611385 0.230199173093 -0.079083 -0.104297 0.991397
-0.507604360580 -0.894221901894 0.229542389512 -0.173255 -0.104445 0.979323
-0.432964026928 -1.127526760101 0.212743267417 -0.045548 -0.096650 0.994276
-0.392968624830 -0.995344996452 0.227784529328 -0.054774 -0.097251 0.993752
-0.400063246489 -0.945911943913 0.232069894671 -0.054675 -0.092613 0.994200
-0.442662268877 -0.699285030365 0.252928256989 -0.061882 -0.095636 0.993491
-0.372733920813 -0.860608696938 0.241845935583 -0.059507 -0.095436 0.993655
-0.274366557598 -1.107889175415 0.223036438227 -0.050192 -0.099268 0.993794
-0.193105533719 -1.205456972122 0.216722950339 -0.038629 -0.098227 0.994414
-0.172505736351 -1.141289234161 0.223842397332 -0.034145 -0.098028 0.994598
-0.149034589529 -0.788721680641 0.258752465248 -0.034003 -0.095427 0.994856
-0.183292523026 -0.800740063190 0.256540596485 -0.029555 -0.095233 0.995016
-0.230288371444 -0.758486688137 0.258978694677 -0.036352 -0.095838 0.994733
-0.237420529127 -0.911088824272 0.243990138173 -0.036352 -0.095838 0.994733
-0.259177625179 -1.011000990868 0.233407944441 -0.043235 -0.096447 0.994399
-0.277461469173 -0.837285459042 0.249388918281 -0.045447 -0.096437 0.994301
-0.303409785032 -0.886867046356 0.243150532246 -0.054774 -0.097251 0.993752
-0.137201532722 -0.745602190495 0.263260275126 -0.027308 -0.095031 0.995100
-0.080293819308 -0.729084491730 0.266141057014 -0.022792 -0.094426 0.995271
-0.057925403118 -0.915576457977 0.248893782496 -0.009666 -0.093436 0.995578
-0.041679821908 -0.937955379486 0.247069075704 -0.024972 -0.090116 0.995618
-0.046077758074 -1.128294587135 0.229227274656 -0.029555 -0.095233 0.995016
0.181742891669 -0.884136557579 0.248496055603 0.029555 -0.095233 0.995016
0.691688060760 -0.384973913431 0.298574328423 0.225033 -0.591294 0.774424
0.670158147812 -0.362714022398 0.321244508028 0.217621 -0.566432 0.794856
0.218178331852 -0.088866449893 0.586121261120 0.071506 -0.506151 0.859475
0.138300955296 -0.093548022211 0.589946091175 0.020276 -0.498800 0.866480
-0.147160291672 -0.103019833565 0.583092331886 -0.077330 -0.496318 0.864690
-0.359948903322 -0.076326623559 0.573897719383 -0.138672 -0.506516 0.851006
-0.682239949703 -0.306457400322 0.354817688465 -0.224192 -0.570530 0.790084
-0.643672943115 -0.205943301320 0.433647125959 -0.159809 -0.554102 0.816965
-0.558078527451 -0.041076172143 0.558455228806 -0.160173 -0.564349 0.809848
-0.466341018677 -0.048067584634 0.572551906109 -0.165466 -0.532173 0.830309
-0.368655592203 -0.057943910360 0.583720684052 -0.136380 -0.529390 0.837345
-0.343097954988 -0.073038205504 0.578595876694 -0.138672 -0.506516 0.851006
-0.220951914787 -0.084013797343 0.587558627129 -0.077378 -0.505070 0.859603
0.742130517960 0.157116293907 0.328089565039 0.902362 0.009168 0.430881
0.723605990410 0.131315559149 0.367559134960 0.897377 0.033434 0.439996
0.743678510189 0.106191344559 0.327833086252 0.901778 0.019805 0.431745
0.735551238060 0.063870072365 0.346820771694 0.901778 0.019805 0.431745
0.754983544350 -0.017819076777 0.308343350887 0.910183 0.014364 0.413957
0.754328727722 -0.066102489829 0.310797333717 0.911587 0.006484 0.411057
0.716162025928 -0.104928739369 0.398452550173 0.903341 0.041487 0.426912
0.684918701649 -0.053678236902 0.459547102451 0.902847 0.041587 0.427947
0.715042948723 -0.008354905993 0.393019765615 0.901778 0.019805 0.431745
0.697160899639 0.050161324441 0.427255213261 0.897377 0.033434 0.439996
0.664495766163 0.046595793217 0.493433982134 0.893026 0.036368 0.448533
0.682810664177 0.159047886729 0.452268332243 0.898824 0.003925 0.438291
0.709803700447 0.167667344213 0.395788341761 0.902865 0.006533 0.429874
0.718885242939 0.218848764896 0.375604510307 0.903354 0.011800 0.428733
0.711831808090 0.258231490850 0.388969749212 0.907111 0.030458 0.419787
0.745523512363 0.321804791689 0.311632394791 0.907111 0.030458 0.419787
0.734506547451 0.633172333241 0.305357515812 0.909317 0.041272 0.414052
0.723029196262 0.628736138344 0.331252485514 0.911321 0.038469 0.409895
0.675840020180 0.771814167500 0.414025634527 0.910849 0.066317 0.407378
0.658813178539 0.677435457706 0.466052740812 0.909757 0.057955 0.411076
0.685855805874 0.681191682816 0.406376034021 0.907656 0.060871 0.415276
0.647600889206 0.561574816704 0.506038606167 0.912754 0.038418 0.406699
0.657576680183 0.513041734695 0.487522691488 0.911477 0.030339 0.410231
0.682703793049 0.504522502422 0.432152181864 0.913963 0.022292 0.405186
0.659406244755 0.365720927715 0.492817401886 0.906089 0.033263 0.421777
0.667332828045 0.336801260710 0.478294432163 0.905527 0.036008 0.422757
0.693290948868 0.284939527512 0.426822543144 0.905071 0.033226 0.423961
0.646772623062 0.309530496597 0.524206161499 0.901849 0.011815 0.431890
0.650687575340 0.275586634874 0.516838073730 0.899341 0.006565 0.437198
0.657616138458 0.163999572396 0.504114866257 0.900357 0.001307 0.435151
0.671731352806 1.025575876236 0.350616842508 0.906834 0.130753 0.400694
0.641860306263 0.986600697041 0.432116836309 0.909383 0.109681 0.401239
0.662090599537 0.955139696598 0.395096093416 0.906249 0.121860 0.404800
0.649234592915 0.875716626644 0.449239909649 0.904272 0.130789 0.406430
0.493253290653 1.390877604485 -0.350826293230 0.972248 0.104125 -0.209504
0.525002777576 1.080632805824 -0.356993168592 0.972248 0.104125 -0.209504
0.527121245861 1.053563952446 -0.378541916609 0.991285 0.131508 -0.007736
0.542157232761 0.938208580017 -0.431223124266 0.991428 0.130653 -0.001098
0.538261592388 0.962018251419 -0.442909181118 0.957569 0.173983 -0.229763
0.468466371298 1.380248308182 -0.418545007706 0.957569 0.173983 -0.229763
0.473420351744 1.450081348419 -0.376474469900 0.879960 0.136372 -0.455053
0.461930334568 1.582310199738 -0.357634723186 0.911162 0.136183 -0.388893
0.533598899841 1.132789611816 -0.281952232122 0.980338 0.104031 -0.167673
0.505566239357 1.395672917366 -0.284519582987 0.980338 0.104031 -0.167673
0.493838638067 1.588615894318 -0.266868531704 0.952281 0.081624 -0.294106
0.516199827194 1.545803308487 -0.195875734091 0.969451 0.081309 -0.231417
0.515400469303 1.416684269905 -0.243983060122 0.969451 0.081309 -0.231417
0.530205726624 1.260269641876 -0.226083427668 0.988112 0.056895 -0.142818
0.537327289581 1.125268816948 -0.231295332313 0.988112 0.056895 -0.142818
0.550324261189 0.913896441460 -0.232438936830 0.997204 0.071305 -0.022349
0.535504698753 1.113009452820 -0.264923721552 0.997391 0.070864 -0.013750
0.547249495983 1.001128196716 -0.211823135614 0.992957 0.055227 -0.104818
0.539595901966 1.240275263786 -0.158887743950 0.992957 0.055227 -0.104818
0.536588370800 1.470942020416 -0.095845527947 0.996922 0.035489 -0.069903
0.544103682041 1.176730751991 -0.134549587965 0.996922 0.035489 -0.069903
0.545979678631 1.079498291016 -0.179257154465 0.999235 0.035944 -0.015404
0.538600265980 1.415345430374 -0.093887068331 0.997869 0.032943 -0.056323
0.542223572731 1.386585354805 -0.064009331167 0.993978 0.031993 -0.104803
0.548370480537 1.352245211601 -0.012586517259 0.985788 0.012536 -0.167527
0.552340030670 1.289447903633 0.014336609282 0.996481 0.005295 -0.083658
0.551080763340 1.203662872314 -0.006646642927 0.998575 0.015619 -0.051022
0.550321400166 1.191206693649 -0.024348117411 0.995847 0.024869 -0.087583
0.547110497952 1.212357997894 -0.062285058200 0.998016 0.024290 -0.058086
0.547685146332 1.171422481537 -0.070220202208 0.999025 0.027952 -0.034164
0.551401317120 0.996601819992 -0.106413334608 0.999286 0.027729 -0.025675
0.515938460827 -1.170971035957 -0.400498628616 0.960092 -0.093824 -0.263479
0.479828208685 -1.512873768806 -0.411772996187 0.960092 -0.093824 -0.263479
0.482733666897 -1.428893208504 -0.427287489176 0.882480 -0.109071 -0.457530
0.470024645329 -1.433242082596 -0.447514057159 0.789562 -0.094515 -0.606349
0.468216866255 -1.417005300522 -0.452392131090 0.934424 -0.158728 -0.318836
0.493147253990 -1.259827613831 -0.458196908236 0.934424 -0.158728 -0.318836
0.532948195934 -1.002701044083 -0.462184309959 0.990726 -0.134846 -0.016716
0.540652334690 -0.954980373383 -0.395245105028 0.990897 -0.132939 -0.021226
0.489422082901 -1.475266456604 -0.388230085373 0.980434 -0.096217 -0.171728
0.520483672619 -1.217170715332 -0.355843961239 0.980434 -0.096217 -0.171728
0.536268174648 -1.034970521927 -0.360823869705 0.996688 -0.078151 -0.022482
0.535789191723 -1.077764630318 -0.298847317696 0.990630 -0.067883 -0.118507
0.529367923737 -1.199765563011 -0.275588840246 0.996089 -0.066698 -0.057950
0.531891644001 -1.178156733513 -0.256454437971 0.998133 -0.057726 -0.019942
0.519087433815 -1.392351627350 -0.242784410715 0.995428 -0.062974 -0.071812
0.510194480419 -1.453632831573 -0.296189904213 0.990673 -0.067729 -0.118238
0.494932532310 -1.643324375153 -0.296382784843 0.981241 -0.080865 -0.175006
0.481835514307 -1.613125562668 -0.365164697170 0.964380 -0.079837 -0.252184
0.489245116711 -1.550827383995 -0.356666326523 0.964380 -0.079837 -0.252184
0.518996298313 -1.403536677361 -0.234217494726 0.993244 -0.062007 -0.098084
0.534688889980 -1.174617528915 -0.208355218172 0.994863 -0.054346 -0.085401
0.545015990734 -1.013145923615 -0.176607206464 0.997328 -0.052717 -0.050566
0.541101992130 -1.092350959778 -0.172709077597 0.996784 -0.050978 -0.061824
0.531964004040 -1.307375431061 -0.150966867805 0.994740 -0.045366 -0.091839
0.544253587723 -1.101137399673 -0.121042825282 0.995875 -0.047006 -0.077615
0.530798077583 -1.481515407562 -0.068795308471 0.997236 -0.041955 -0.061319
0.523492217064 -1.521335721016 -0.136848852038 0.995975 -0.044824 -0.077623
0.524145305157 -1.493198990822 -0.143965676427 0.994535 -0.045357 -0.094033
0.536418497562 -1.369853019714 -0.050883881748 0.997905 -0.043572 -0.047823
0.774868130684 1.647871851921 0.192005649209 0.317516 0.585068 0.746243
0.664961040020 1.718115329742 0.184505939484 0.304186 0.638952 0.706549
0.567493140697 1.810070157051 0.131340235472 0.268726 0.707592 0.653529
0.652942776680 1.799732446671 0.090782679617 0.317162 0.838994 0.442151
0.477647691965 1.862043142319 0.083963029087 0.282937 0.915556 0.285839
-0.850228905678 0.542732477188 -0.397139161825 -0.999568 0.003026 0.029251
-0.850661993027 0.477945029736 -0.403329014778 -0.999568 0.003026 0.029251
-0.852716982365 -0.023141367361 -0.405180007219 -0.999354 0.005083 0.035582
-0.853434026241 -0.022992480546 -0.431622356176 -0.999271 0.013296 0.035798
-0.852142572403 0.170372635126 -0.417915105820 -0.999876 0.004975 0.014924
-0.851057827473 0.412405669689 -0.425141930580 -0.999984 0.004916 0.002950
-0.853202104568 -0.308079868555 -0.453679084778 -0.923324 0.006421 -0.383969
-0.854959905148 -0.193523690104 -0.446358442307 -0.999429 0.005063 0.033416
-0.854137718678 -0.285331219435 -0.409368366003 -0.999426 0.005073 0.033483
-0.855039894581 -0.445482909679 -0.412814915180 -0.999496 0.005053 0.031329
-0.853786408901 -0.466424345970 -0.452969104052 -0.984306 0.005690 -0.176379
-0.856282651424 -0.674104630947 -0.436681956053 -0.999987 0.000983 -0.004916
-0.854968249798 -0.577719092369 -0.389023482800 -0.999559 0.005043 0.029250
-0.856816947460 -0.848539948463 -0.434045463800 -0.999972 0.002956 -0.006896
-0.852628529072 -0.746514201164 -0.461434692144 -0.875267 0.006661 -0.483595
-0.837658107281 -0.635282754898 -0.479890584946 -0.759266 0.015325 -0.650600
-0.836427927017 -0.730785906315 -0.483616322279 -0.757890 0.015297 -0.652203
-0.846565246582 -0.545621633530 -0.468561530113 -0.786061 0.006883 -0.618111
-0.854236960411 -0.359730064869 -0.342461794615 -0.998623 0.001028 0.052451
-0.828568279743 -0.456365168095 -0.256399214268 -0.985032 -0.019540 -0.171260
-0.840536236763 -0.447955101728 -0.171004042029 -0.994497 -0.016339 -0.103480
-0.843146026134 -0.397158920765 -0.125673890114 -0.999303 -0.019514 -0.031838
-0.841628015041 -0.483238965273 -0.124051377177 -0.999198 -0.017494 -0.036016
-0.841626226902 -0.498375892639 -0.115541920066 -0.999807 -0.018977 -0.004994
-0.839654088020 -0.478725939989 0.048483364284 -0.999753 -0.007033 0.021100
-0.840061962605 -0.394547075033 0.057903755456 -0.999795 -0.007006 0.019015
-0.838874340057 -0.495761543512 0.080921620131 -0.999288 -0.003050 0.037613
-0.840393960476 -0.434230446815 0.148343548179 -0.878738 -0.006647 0.477257
-0.809690713882 -0.256250798702 0.207313582301 -0.875754 -0.009359 0.482667
-0.787914335728 0.291795432568 0.239315450191 -0.894875 0.028090 0.445431
-0.774934470654 0.497613012791 0.248942703009 -0.898795 0.038961 0.436634
-0.769758224487 0.509266853333 0.258563727140 -0.898795 0.038961 0.436634
-0.792534947395 0.438110411167 0.217973068357 -0.898795 0.038961 0.436634
-0.802296102047 0.239145070314 0.214490637183 -0.885002 0.028288 0.464727
-0.823000967503 -0.033241257071 0.184209078550 -0.885513 0.003971 0.464597
-0.834956943989 0.031314097345 0.160673260689 -0.905843 0.003910 0.423596
-0.838161945343 0.007025655359 0.122860819101 -0.997278 0.011609 0.072817
-0.839151024818 0.061292152852 0.114813558757 -0.993465 -0.005429 0.114004
-0.837932705879 0.221387565136 0.126576825976 -0.993197 0.003264 0.116399
-0.835939884186 0.361361235380 0.142193555832 -0.995500 0.001065 0.094759
-0.832822442055 0.376673877239 0.169802263379 -0.989410 0.001108 0.145143
-0.833011806011 0.175075024366 0.165501832962 -0.541590 -0.043160 0.839534
-0.817876696587 0.361891835928 0.185173809528 -0.529816 -0.045890 0.846870
-0.798369944096 0.513233721256 0.205284431577 -0.560391 -0.037545 0.827377
-0.773639321327 0.791766762733 0.234531819820 -0.560391 -0.037545 0.827377
-0.814490258694 0.654367029667 0.201115921140 -0.548847 -0.037516 0.835081
-0.805682480335 0.702659010887 0.209141030908 -0.548847 -0.037516 0.835081
-0.799743115902 0.823134660721 0.218633681536 -0.548847 -0.037516 0.835081
-0.796696901321 0.855197846889 0.222122237086 -0.548847 -0.037516 0.835081
-0.816163837910 0.737284302711 0.203754886985 -0.566778 -0.037600 0.823012
-0.825634658337 0.718979239464 0.195820793509 -0.660307 -0.029566 0.750413
-0.836305618286 0.807434260845 0.113551989198 -0.994447 0.007575 0.104963
-0.833711445332 0.603343844414 0.153865769506 -0.994010 0.003245 0.109244
-0.832779586315 0.548100590706 0.162218675017 -0.992658 0.001090 0.120950
-0.834127247334 0.492818593979 0.152650237083 -0.993934 0.007604 0.109713
-0.826221585274 0.730045020580 0.158242270350 -0.750184 -0.145827 -0.644948
-0.840780198574 0.678636074066 0.079723432660 -0.995862 0.005337 0.090727
-0.842271625996 0.579018115997 0.069348491728 -0.995648 0.005347 0.093041
-0.839239120483 0.515702903271 0.104528084397 -0.995448 0.005346 0.095161
-0.845254242420 0.131283864379 0.055224638432 -0.996270 0.005316 0.086124
-0.846410036087 0.093472130597 0.038942437619 -0.997490 -0.007358 0.070423
-0.847895085812 0.061992838979 0.017592770979 -0.995981 -0.011768 0.088793
-0.849167108536 0.205575972795 0.010473778471 -0.996315 0.001059 0.085761
-0.845926284790 0.183133706450 0.046529550105 -0.995047 0.001069 0.099398
-0.848558306694 0.477974563837 0.004593929276 -0.997818 0.005224 0.065825
-0.849951863289 -0.004969418515 -0.027114018798 -0.999134 -0.011295 0.040048
-0.852120816708 0.135046496987 -0.066647917032 -0.999917 0.000989 0.012857
-0.851559638977 0.253125399351 -0.038437679410 -0.999889 0.000993 0.014894
-0.850858628750 0.411340236664 -0.038996312767 -0.999864 0.006978 0.014953
-0.849677503109 0.567208647728 -0.027753595263 -0.999831 0.007006 0.017014
-0.850416839123 0.566575586796 -0.069385834038 -0.999831 0.007006 0.017014
-0.849016189575 0.667145013809 -0.026709591970 -0.999795 0.007006 0.019015
-0.846629679203 0.780791699886 0.010826160200 -0.997208 0.003152 0.074607
-0.848806142807 0.767123818398 -0.047966975719 -0.999795 0.007006 0.019015
-0.848975181580 0.757661283016 -0.087804347277 -0.999916 0.006951 -0.010923
-0.849565863609 0.622130155563 -0.114590078592 -0.999892 0.006964 -0.012934
-0.850225210190 0.509916067123 -0.119960486889 -0.999892 0.006978 -0.012960
-0.851670980453 0.386708348989 -0.083808980882 -0.999863 0.006992 -0.014983
-0.849751770496 -0.029974432662 -0.137310922146 -0.999593 -0.013166 -0.025319
-0.847356498241 0.101591415703 -0.195837467909 -0.996530 -0.013856 -0.082067
-0.851101815701 0.143554225564 -0.152824178338 -0.997687 0.003134 -0.067905
-0.849169015884 0.591308355331 -0.139084607363 -0.998999 0.007187 -0.044149
-0.847713053226 0.685908794403 -0.162556141615 -0.999339 0.007131 -0.035654
-0.847046494484 0.760530710220 -0.172484040260 -0.999120 0.003062 -0.041843
-0.846054553986 0.655078351498 -0.197171300650 -0.998840 -0.001024 -0.048149
-0.845926403999 0.615602731705 -0.201691567898 -0.998239 0.005183 -0.059086
-0.848087370396 0.325744867325 -0.187935963273 -0.996270 0.005316 -0.086124
-0.846387505531 0.135669872165 -0.204900652170 -0.991428 0.001098 -0.130653
-0.842790663242 -0.196894198656 -0.192899018526 -0.994879 -0.020659 -0.098944
-0.847910046577 -0.148854732513 -0.123386248946 -0.999371 -0.019435 -0.029664
-0.850099146366 -0.058900255710 -0.064788341522 -0.999807 -0.019015 0.005004
-0.846902847290 -0.093748971820 0.008783102036 -0.997349 -0.015898 0.071012
-0.839382648468 -0.174799859524 0.109107315540 -0.997655 -0.007328 0.068046
-0.838812351227 -0.245427861810 0.109426647425 -0.999288 -0.003050 0.037613
-0.844553232193 -0.268638432026 -0.006208071485 -0.998259 -0.019902 0.055517
-0.845928728580 -0.246051371098 -0.030792068690 -0.999411 -0.017354 0.029605
-0.846270501614 -0.257425040007 -0.070366844535 -0.999820 -0.018940 0.000997
-0.843277275562 -0.236865162849 -0.180182948709 -0.994921 -0.018485 -0.098948
-0.840315937996 -0.247546166182 -0.207480058074 -0.988502 -0.016946 -0.150252
-0.830919861794 -0.146220773458 -0.283848583698 -0.991139 -0.023466 -0.130737
-0.840075969696 0.073479145765 -0.247407495975 -0.991672 -0.016657 -0.127707
-0.840588688850 0.483845680952 -0.283147484064 -0.998232 -0.005194 -0.059208
-0.838991761208 0.365617185831 -0.293367028236 -0.999505 -0.011162 -0.029427
-0.839734077454 0.426820009947 -0.291780412197 -0.999735 -0.009061 -0.021142
-0.843078911304 0.484834074974 -0.302893966436 -0.880464 -0.003984 0.474096
-0.829505741596 -0.213390186429 -0.295609861612 -0.885182 -0.022766 0.464687
-0.853956937790 -0.280092328787 -0.350461691618 -0.999815 0.002996 -0.018978
-0.853442370892 -0.136010095477 -0.346940219402 -0.999558 0.005053 -0.029310
-0.853485167027 -0.048977933824 -0.335772633553 -0.999632 0.001005 0.027126
-0.849977016449 0.515435516834 -0.343903601170 -0.999671 0.005034 -0.025168
-0.849695086479 0.499660462141 -0.357624948025 -0.999618 0.005033 -0.027180
-0.851376473904 0.128165364265 -0.362633913755 -0.998482 0.005173 -0.054839
-0.852527558804 0.033265512437 -0.351462066174 -0.998482 0.005173 -0.054839
-0.852402508259 -0.012630626559 -0.358163475990 -0.998605 0.005153 -0.052558
-0.852898776531 -0.169186025858 -0.365775644779 -0.999111 0.005103 -0.041842
-0.858111381531 -0.886317014694 -0.323421210051 -0.999941 0.010858 0.000987
-0.859439671040 -0.938238739967 -0.172161772847 -0.999739 0.015102 -0.017115
-0.812777459621 -1.289327502251 0.122680649161 -0.856700 -0.080448 0.509503
-0.798897862434 -1.241117000580 0.152708321810 -0.821714 -0.084609 0.563584
-0.842495024204 -1.305197954178 0.067864492536 -0.832868 -0.040322 0.552001
-0.822543740273 -1.412285447121 0.083167567849 -0.836894 -0.124147 0.533100
-0.800810456276 -1.398899435997 0.122062727809 -0.849480 -0.129680 0.511436
-0.812813282013 -1.529223203659 0.060396995395 -0.871596 -0.165530 0.461433
-0.861422181129 -1.044336199760 -0.102032631636 -0.999889 -0.000993 -0.014894
-0.861378133297 -1.078748941422 -0.082224451005 -0.994023 -0.063877 -0.088532
-0.856527924538 -0.953706681728 -0.265526354313 -0.173707 -0.942395 -0.285864
-0.845958054066 -0.934079945087 -0.351685762405 -0.026452 -0.985642 -0.166766
-0.851419925690 -1.457030653954 -0.034076210111 -0.998463 -0.054952 -0.007258
-0.823635995388 -1.586465358734 0.002920784056 -0.929160 -0.180243 0.322761
-0.797358632088 -1.632284641266 0.045905500650 -0.900788 -0.205188 0.382726
-0.772532701492 -1.465904116631 0.126132264733 -0.243455 -0.218697 0.944935
-0.768167912960 -1.356296300888 0.151358902454 -0.309607 -0.176323 0.934374
-0.765703916550 -1.200209856033 0.175644323230 -0.297503 -0.093052 0.950175
-0.729680001736 -0.494919776917 0.246178165078 -0.242661 -0.079211 0.966872
-0.768751442432 -0.507541358471 0.235091388226 -0.272030 -0.077905 0.959130
-0.790945708752 -0.690114915371 0.211269885302 -0.809630 -0.034958 0.585898
-0.805613994598 -0.649374783039 0.190575823188 -0.849628 -0.025995 0.526742
-0.818996667862 -0.615890562534 0.174568131566 -0.806340 -0.046438 0.589627
-0.829828798771 -0.559352815151 0.160943046212 -0.865021 -0.037014 0.500369
-0.828393518925 -0.853960514069 0.141968399286 -0.847759 -0.043012 0.528635
-0.800185739994 -1.089551925659 0.167717799544 -0.842234 -0.060461 0.535711
-0.779831349850 -1.079975724220 0.184397354722 -0.247621 -0.101358 0.963541
-0.818544566631 -1.053446888924 0.141522869468 -0.848537 -0.042911 0.527394
-0.814255893230 -0.869219124317 0.163570359349 -0.852533 -0.042834 0.520916
-0.834477961063 -0.816092133522 -0.020954111591 -0.998953 -0.011340 -0.044329
-0.839341282845 -0.545678138733 -0.053289756179 -0.989410 -0.145143 -0.001108
-0.834146916866 -0.581180214882 -0.055987790227 -0.989410 -0.145143 -0.001108
-0.836070835590 -0.557706236839 -0.100636504591 -0.983699 -0.178750 -0.019605
-0.794479846954 -0.697882950306 -0.235244691372 -0.826370 -0.001357 0.563126
-0.833508193493 -0.897557914257 -0.036938481033 -0.997619 0.056550 -0.039478
-0.836641550064 -0.940690815449 0.001221472397 -0.994509 0.104515 0.005387
-0.836625576019 -0.939030528069 -0.018768219277 -0.988403 0.145792 0.042475
-0.853455483913 -1.061030983925 0.026366449893 -0.970932 0.180371 0.157345
-0.845484673977 -0.976785838604 -0.028450511396 -0.965914 0.201503 0.162502
-0.830357611179 -0.867725074291 -0.105657473207 -0.993263 0.113547 0.023150
-0.834164679050 -0.877892732620 -0.125999152660 -0.944302 0.306731 0.119210
-0.825677275658 -0.802589893341 -0.272174000740 -0.934272 0.342791 0.098132
-0.853180527687 -0.868921697140 -0.300270140171 -0.938095 0.333988 0.091814
-0.828761458397 -0.663411915302 -0.317446738482 -0.657320 -0.029558 0.753032
-0.825029075146 -0.609679877758 -0.309714943171 -0.703133 -0.055850 0.708861
-0.852601051331 -0.603973209858 -0.340196073055 -0.768018 -0.015277 0.640246
-0.854673683643 -0.488534748554 -0.350937932730 -0.999964 0.006924 -0.004945
-0.837776482105 -0.763075232506 0.069146580994 -0.905295 0.044259 -0.422471
-0.713554084301 0.124990597367 0.385635375977 -0.897119 0.041695 0.439817
-0.669651746750 0.030004750937 0.483516633511 -0.892719 0.044704 0.448391
-0.649324834347 0.255970656872 0.514222919941 -0.899257 0.017166 0.437084
-0.642771840096 0.314453452826 0.525498211384 -0.901778 0.019805 0.431745
-0.655328571796 0.419826507568 0.488659054041 -0.912902 0.030298 0.407052
-0.634420871735 0.474346578121 0.531520724297 -0.911321 0.038469 0.409895
-0.631121814251 0.574700057507 0.529302775860 -0.912543 0.046626 0.406315
-0.683935284615 0.664277195930 0.399150788784 -0.909757 0.057955 0.411076
-0.659831643105 0.657177567482 0.453218460083 -0.907239 0.069369 0.414855
-0.636788725853 0.667444348335 0.502124488354 -0.908361 0.066333 0.412892
-0.632821083069 0.695580661297 0.507462143898 -0.931571 0.048478 0.360312
-0.650906980038 0.771743059158 0.453516989946 -0.908397 0.083578 0.409669
-0.667837917805 0.762977302074 0.417384207249 -0.910405 0.074846 0.406892
-0.696736335754 0.755072653294 0.354808211327 -0.907580 0.080765 0.412039
-0.716099321842 0.660810351372 0.328739285469 -0.909145 0.060790 0.412020
-0.716015160084 0.634467065334 0.332745611668 -0.911102 0.046689 0.409529
-0.721654772758 0.508363127708 0.335474878550 -0.908599 0.049658 0.414708
-0.714102566242 0.355972796679 0.369082361460 -0.907703 0.046927 0.416980
-0.726298511028 0.401707261801 0.337360411882 -0.906091 0.049667 0.420158
-0.723161160946 0.325365215540 0.352654606104 -0.906931 0.038621 0.419505
-0.734729230404 0.262818485498 0.333440035582 -0.906456 0.038715 0.420521
-0.708798587322 0.014066223055 0.404105842113 -0.901150 0.027953 0.432605
-0.699501812458 -0.056822247803 0.429808318615 -0.902556 0.049917 0.427669
-0.759545922279 -0.183092027903 0.309280931950 -0.928308 0.045956 0.368960
-0.767922520638 -0.064657486975 0.281050741673 -0.911128 0.016994 0.411772
-0.759132802486 0.067097261548 0.294220596552 -0.910140 0.022327 0.413700
-0.731350898743 -0.025207728148 0.359616488218 -0.901649 0.027886 0.431570
-0.651450932026 0.933743536472 0.407149761915 -0.903239 0.139938 0.405680
-0.637925267220 1.079887032509 0.390418916941 -0.913435 0.132889 0.384678
-0.444265842438 1.579979658127 -0.365640580654 -0.909116 0.145177 -0.390426
-0.491832345724 1.305806756020 -0.342998653650 -0.971546 0.112442 -0.208459
-0.483361691236 1.392703294754 -0.335475116968 -0.971546 0.112442 -0.208459
-0.483800172806 1.444969415665 -0.302619159222 -0.979264 0.112092 -0.168754
-0.484750449657 1.541893005371 -0.262476027012 -0.951640 0.090073 -0.293716
-0.481551855803 1.504619956017 -0.284448653460 -0.951640 0.090073 -0.293716
-0.500496268272 1.540407419205 -0.202960833907 -0.968933 0.089459 -0.230578
-0.520430922508 1.257287621498 -0.212407842278 -0.987703 0.066626 -0.141434
-0.517752408981 1.379187107086 -0.168934702873 -0.992319 0.064643 -0.105469
-0.514716506004 1.498257398605 -0.143396183848 -0.981900 0.058461 -0.180154
-0.522522926331 1.380527257919 -0.139439672232 -0.991390 0.053496 -0.119513
-0.534467577934 1.170859575272 -0.113899424672 -0.997420 0.043925 -0.056781
-0.538189113140 1.099145531654 -0.100563958287 -0.999008 0.036233 -0.025881
-0.541157305241 1.028164505959 -0.085880234838 -0.998734 0.036603 -0.034511
-0.526806533337 1.431372165680 -0.067210137844 -0.993805 0.041085 -0.103267
-0.540600299835 1.001402258873 -0.134203910828 -0.996522 0.044459 -0.070483
-0.540627300739 0.971087157726 -0.175419792533 -0.998794 0.046576 -0.015525
-0.534848511219 1.063082218170 -0.200979784131 -0.992319 0.064643 -0.105469
-0.523845255375 1.210437536240 -0.210726022720 -0.987703 0.066626 -0.141434
-0.536794364452 0.970502316952 -0.248454272747 -0.996504 0.080450 -0.022526
-0.522180497646 1.146944761276 -0.271790623665 -0.996703 0.079949 -0.013858
-0.527481198311 1.058151483536 -0.305956900120 -0.979264 0.112092 -0.168754
-0.520770072937 1.054191112518 -0.344222515821 -0.971546 0.112442 -0.208459
-0.524092197418 1.006405949593 -0.383502006531 -0.989964 0.141106 -0.007777
