0.475445389748 0.319614231586 0.573246598244 0.640246 -0.015277 0.768018
0.399170547724 -0.123808830976 0.558545827866 0.070497 -0.288396 0.954912
0.270989775658 -0.158631682396 0.557578086853 0.073476 -0.295193 0.952608
0.227242350578 -0.165184885263 0.558912038803 0.073476 -0.295193 0.952608
0.196121960878 -0.175082847476 0.557287156582 0.026107 -0.292151 0.956016
-0.468846172094 -0.072693742812 0.561955988407 -0.146036 -0.131309 0.980526
-0.453539103270 -0.003090798855 0.571755528450 -0.150638 -0.040247 0.987769
-0.486856251955 0.071479558945 0.570367813110 -0.084858 -0.049593 0.995158
-0.461136043072 0.608414530754 0.585793972015 -0.084718 0.018230 0.996238
-0.467126131058 0.737786412239 0.582920789719 -0.091688 0.018338 0.995619
-0.444814711809 0.961955487728 0.572198987007 -0.090203 0.085636 0.992235
0.184795945883 -0.241785839200 0.533741772175 0.043731 -0.602356 0.797029
-0.492863178253 0.098284900188 0.567161917686 -0.600361 -0.032187 0.799081
-0.492323011160 0.302888751030 0.575670301914 -0.640922 -0.026647 0.767143
-0.497649967670 0.515324532986 0.574095964432 -0.634562 0.009677 0.772811
-0.503511130810 0.721839308739 0.566014051437 -0.659751 0.009723 0.751422
-0.510359287262 1.084884643555 0.538120985031 -0.615648 0.082569 0.783684
0.105892986059 1.272752523422 0.528182268143 -0.008334 0.241687 -0.970319
0.376531302929 1.221405386925 0.510599315166 -0.025272 0.237074 -0.971163
-0.190406352282 1.212395191193 0.560543537140 -0.021395 0.140758 0.989813
-0.213001757860 1.272012114525 0.551576018333 -0.021395 0.140758 0.989813
-0.410820752382 1.128402113914 0.564248144627 -0.042324 0.138411 0.989470
-0.406900107861 1.219997763634 0.550799965858 -0.052210 0.149670 0.987357
-0.194398581982 0.894053697586 0.589106857777 -0.020502 0.087403 0.995962
-0.075459100306 1.080531239510 0.575390577316 -0.020502 0.087403 0.995962
-0.077184922993 1.088330507278 0.574674665928 -0.020502 0.087403 0.995962
-0.147678717971 1.182456254959 0.565531969070 -0.016716 0.134846 0.990726
-0.118301048875 1.229184985161 0.559691548347 -0.016716 0.134846 0.990726
-0.405173599720 0.916344046593 0.578082025051 -0.045005 0.082325 0.995589
-0.357843220234 0.975542485714 0.575291514397 -0.045005 0.082325 0.995589
-0.430530041456 0.707487106323 0.586056888103 -0.029605 0.017354 0.999411
-0.264930099249 0.796161711216 0.592555761337 -0.048841 0.017666 0.998650
-0.298694968224 0.721810996532 0.592159211636 -0.048841 0.017666 0.998650
-0.370015233755 0.748212218285 0.588183045387 -0.048841 0.017666 0.998650
-0.376470714808 0.627201497555 0.589934408665 -0.048841 0.017666 0.998650
-0.335299551487 0.925616383553 0.580593943596 -0.049702 0.085045 0.995137
-0.369018912315 0.888463258743 0.582137346268 -0.049702 0.085045 0.995137
-0.317834079266 0.564873754978 0.593550920486 -0.040046 0.013349 0.999109
-0.330783337355 0.489346444607 0.594010829926 -0.040046 0.013349 0.999109
-0.263281136751 0.744679987431 0.593411266804 -0.040046 0.013349 0.999109
-0.300535559654 0.485055774450 0.595284461975 -0.040046 0.013349 0.999109
-0.169943869114 0.584378242493 0.598276019096 -0.025319 0.013166 0.999593
-0.096698865294 0.729240834713 0.598181605339 -0.025319 0.013166 0.999593
-0.135989218950 0.640069425106 0.598382532597 -0.025319 0.013166 0.999593
-0.106084950268 0.698819398880 0.598349213600 -0.025319 0.013166 0.999593
-0.221698790789 0.530246376991 0.597710430622 -0.025319 0.013166 0.999593
-0.034953124821 0.857399523258 0.596392929554 -0.024972 0.090116 0.995618
-0.032385349274 0.872683167458 0.595076382160 -0.024972 0.090116 0.995618
-0.017060531303 0.873589038849 0.595380008221 -0.024972 0.090116 0.995618
-0.015957590193 1.050441026688 0.579315483570 0.018341 0.089548 0.995814
0.027381494641 0.954350769520 0.587236881256 0.018341 0.089548 0.995814
0.087490499020 1.030320167542 0.579208374023 0.018341 0.089548 0.995814
0.161591559649 1.035331368446 0.577333807945 0.022659 0.087399 0.995916
0.105970397592 0.844729781151 0.595278501511 0.022659 0.087399 0.995916
0.151285275817 1.021581888199 0.578770697117 0.022659 0.087399 0.995916
0.063273690641 0.807034790516 0.597238302231 0.023248 0.013140 0.999643
0.003342948854 0.662502288818 0.600470066071 0.023248 0.013140 0.999643
0.034203127027 0.809134781361 0.597906291485 0.023248 0.013140 0.999643
0.065300099552 0.682587027550 0.598740458488 0.023248 0.013140 0.999643
-0.146490424871 0.573001384735 0.598993539810 -0.023201 0.011096 0.999669
-0.074524529278 0.715775787830 0.598897278309 -0.023201 0.011096 0.999669
-0.068416386843 0.562911748886 0.600856006145 -0.023201 0.011096 0.999669
-0.079944655299 0.620520591736 0.599911928177 -0.023201 0.011096 0.999669
-0.050537500530 0.602897822857 0.600778222084 -0.023201 0.011096 0.999669
-0.178008168936 0.172890201211 0.591300547123 -0.021697 -0.036162 0.999110
-0.110167115927 0.317998707294 0.598066568375 -0.021697 -0.036162 0.999110
-0.210867255926 0.062170743942 0.586549580097 -0.021697 -0.036162 0.999110
-0.179641231894 0.090599656105 0.588265597820 -0.021697 -0.036162 0.999110
-0.217634320259 0.110094457865 0.588149011135 -0.021697 -0.036162 0.999110
-0.370214343071 -0.021597642452 0.576326787472 -0.047533 -0.036970 0.998185
-0.262074977160 0.170144051313 0.588540613651 -0.047533 -0.036970 0.998185
-0.314492464066 0.132128104568 0.584624826908 -0.047533 -0.036970 0.998185
-0.298196613789 0.202350750566 0.587973594666 -0.047533 -0.036970 0.998185
-0.373343884945 0.131824731827 0.581921994686 -0.038926 -0.041030 0.998399
-0.338033676147 0.274770081043 0.589078605175 -0.038926 -0.041030 0.998399
-0.403713226318 0.106440633535 0.579694569111 -0.038926 -0.041030 0.998399
-0.327488034964 0.338953793049 0.592081308365 -0.038926 -0.041030 0.998399
-0.308743238449 0.256379067898 0.589500725269 -0.038926 -0.041030 0.998399
-0.314019948244 -0.197374776006 0.545267999172 -0.062851 -0.296297 0.953026
-0.185534209013 -0.208045661449 0.549269437790 -0.028728 -0.293526 0.955519
-0.025300879031 -0.097922317684 0.580304563046 -0.023201 -0.113796 0.993233
-0.203828871250 -0.043279688805 0.581955373287 -0.025360 -0.111364 0.993456
-0.011565895751 0.033778790385 0.590357601643 -0.023764 -0.034097 0.999136
-0.055343918502 -0.013268195093 0.587634027004 -0.023764 -0.034097 0.999136
-0.148489639163 0.087578877807 0.588899374008 -0.023764 -0.034097 0.999136
-0.087985642254 0.099252864718 0.590789139271 -0.023764 -0.034097 0.999136
-0.019763100892 0.364842355251 0.601788699627 -0.023764 -0.034097 0.999136
0.032939136028 0.129339784384 0.592907309532 0.021654 -0.034028 0.999186
0.066809132695 0.231107816100 0.595678210258 0.021654 -0.034028 0.999186
0.016640797257 0.023027092218 0.589590430260 0.021654 -0.034028 0.999186
0.058312702924 0.390498608351 0.601379811764 0.021654 -0.034028 0.999186
0.117129072547 0.406602054834 0.600635468960 0.021654 -0.034028 0.999186
0.098377935588 0.503787517548 0.600332498550 0.021227 0.013140 0.999688
0.116092212498 0.640792489052 0.598082244396 0.021227 0.013140 0.999688
0.132138162851 0.493797302246 0.599741458893 0.021227 0.013140 0.999688
0.101019464433 0.520273864269 0.600050747395 0.021227 0.013140 0.999688
0.125706240535 0.507923781872 0.599687337875 0.021227 0.013140 0.999688
0.243936777115 0.787890553474 0.592216253281 0.048743 0.013482 0.998720
0.242715954781 0.803988993168 0.592049181461 0.048743 0.013482 0.998720
0.368841797113 0.841150164604 0.585392653942 0.048743 0.013482 0.998720
0.206949263811 0.760110914707 0.594405829906 0.048743 0.013482 0.998720
0.352595031261 0.948931097984 0.577210247517 0.047290 0.084682 0.995285
0.370190739632 0.933431744576 0.577700495720 0.047290 0.084682 0.995285
0.313826262951 1.059419393539 0.569470763206 0.042891 0.086882 0.995295
0.252850830555 1.073182225227 0.570918083191 0.042891 0.086882 0.995295
-0.534736096859 1.164794206619 0.495295464993 -0.844828 0.045930 0.533063
-0.256599158049 -0.060367643833 0.577849447727 -0.055434 -0.112000 0.992161
-0.296667546034 -0.029874932021 0.579371154308 -0.051198 -0.124012 0.990959
-0.306936472654 -0.137548625469 0.564186573029 -0.065344 -0.290845 0.954536
-0.530461192131 0.944003462791 0.530195236206 -0.791246 0.070365 0.607436
-0.582294404507 1.022065997124 0.426433116198 -0.613000 -0.722984 -0.318631
-0.530546486378 0.432656228542 0.525675714016 -0.920727 0.065670 0.384641
-0.575055003166 0.424730569124 0.420476764441 -0.920727 0.065670 0.384641
-0.708256900311 0.221378937364 0.108736433089 -0.696929 -0.026751 0.716641
-0.696831226349 0.122383043170 0.115472875535 -0.631374 -0.032342 0.774804
-0.525780618191 0.053484499454 0.523995876312 -0.809413 0.029256 -0.586511
-0.517879426479 0.250568360090 0.536119103432 0.835896 0.017785 -0.548600
-0.505226016045 0.288104206324 0.556462824345 0.833809 0.017799 -0.551766
-0.557880818844 0.403345286846 0.464799463749 0.887631 0.011941 -0.460401
-0.545737326145 0.405626803637 0.492157548666 -0.921129 0.035479 0.387636
-0.524761676788 0.374959290028 0.537629902363 -0.723518 0.029618 -0.689669
-0.525495946407 0.342293262482 0.539182305336 -0.793948 -0.020857 0.607628
-0.508968055248 0.465735197067 0.562728285789 -0.826370 -0.001357 0.563126
-0.540837585926 0.939999461174 0.511451125145 -0.774920 -0.388272 -0.498743
-0.516196250916 0.168253421783 0.545255064964 -0.811167 -0.017965 0.584538
-0.508852958679 0.015011608601 0.550675213337 -0.811167 -0.017965 0.584538
-0.516936302185 -0.063168346882 0.535616159439 -0.798054 -0.043633 0.601004
-0.629105687141 -0.403845012188 0.300968378782 0.888651 0.036409 -0.457136
-0.573890388012 0.419484943151 0.433690339327 0.890347 -0.011942 -0.455125
-0.670768678188 0.440459728241 0.195330798626 0.953793 -0.052071 -0.295917
0.655285537243 0.428270220757 0.177831158042 0.919251 0.085543 0.384266
0.657879412174 0.445674985647 0.167718574405 0.919251 0.085543 0.384266
0.737710833549 0.517728924751 -0.129766851664 0.966136 0.015719 0.257556
0.728316724300 0.678493201733 -0.076433219016 0.999680 0.025118 -0.003014
0.715167641640 1.089495658875 -0.078451812267 0.980354 0.031853 0.194655
0.686127841473 1.119172692299 0.084777608514 0.986057 0.033524 0.162994
0.704773247242 1.177016735077 -0.040477816015 0.986057 0.033524 0.162994
0.684484958649 1.096684455872 0.099446430802 0.986057 0.033524 0.162994
0.705113947392 1.137989521027 -0.034393884242 0.986057 0.033524 0.162994
0.701940715313 1.100041151047 -0.007207207382 0.986057 0.033524 0.162994
0.712222695351 0.981078624725 -0.044769097120 0.986057 0.033524 0.162994
0.700421035290 0.675153017044 0.093403518200 0.986772 0.035778 0.158114
0.701703846455 0.702211439610 0.079405270517 0.986772 0.035778 0.158114
0.726160347462 0.522759914398 -0.033020004630 0.986772 0.035778 0.158114
0.700400590897 0.743399858475 0.078370906413 0.986772 0.035778 0.158114
0.710222363472 0.684463381767 0.030303910375 0.986772 0.035778 0.158114
0.711436271667 0.656732201576 0.028904862702 0.986772 0.035778 0.158114
0.696874976158 0.692051053047 0.103752262890 0.779922 0.004127 0.625863
0.753759324551 -0.390205264091 -0.104084081948 0.987304 0.017042 0.157923
0.732277035713 -0.043180286884 -0.006756167859 0.987304 0.017042 0.157923
0.724966704845 0.318897455931 0.000613865443 0.987304 0.017042 0.157923
0.731288552284 0.080922305584 -0.013690423220 0.987304 0.017042 0.157923
0.735735356808 0.095580697060 -0.042965255678 0.987304 0.017042 0.157923
0.731007635593 0.105187684298 -0.014499673620 0.987304 0.017042 0.157923
0.752245724201 -0.425729662180 -0.090896815062 0.987304 0.017042 0.157923
0.732672214508 0.081286817789 -0.022356666625 0.987304 0.017042 0.157923
0.724151790142 0.303330689669 0.007338085212 0.987304 0.017042 0.157923
0.754337310791 -0.492165148258 -0.096927151084 0.987304 0.017042 0.157923
0.723715543747 -0.136907875538 0.058276209980 0.987712 0.017010 0.155358
0.716590940952 0.260670214891 0.059156812727 0.987712 0.017010 0.155358
0.746740818024 -0.568159699440 -0.040222957730 0.987712 0.017010 0.155358
0.742796599865 -0.460297077894 -0.027158878744 0.987712 0.017010 0.155358
0.709083199501 0.440841674805 0.086841605604 0.987712 0.017010 0.155358
0.715311169624 0.192747458816 0.074928343296 0.987712 0.017010 0.155358
0.745599389076 -0.423473119736 -0.049157321453 0.987712 0.017010 0.155358
0.743125975132 -0.425323456526 -0.033178299665 0.987712 0.017010 0.155358
0.736132919788 -0.531791627407 0.023343939334 0.987712 0.017010 0.155358
0.747580647469 -0.675099074841 -0.033123500645 0.988017 0.019284 0.153137
0.731510937214 -0.610285878181 0.056247811764 0.961357 0.015880 0.274848
0.615525007248 -0.371619611979 0.322007983923 -0.888683 0.014612 -0.458289
0.594388484955 -0.348964989185 0.362855374813 -0.855209 0.059990 -0.514800
0.528356850147 -0.176940441132 0.490397542715 -0.834513 0.026208 -0.550365
0.658521950245 -0.482048749924 0.230857223272 -0.959902 -0.072469 -0.270807
0.675471246243 -0.483801394701 0.171003967524 -0.959902 -0.072469 -0.270807
0.730053663254 0.867866039276 -0.146940603852 0.997753 0.024335 -0.062426
0.729517400265 0.909163296223 -0.139963671565 0.997753 0.024335 -0.062426
0.728286981583 1.001543641090 -0.114022932947 0.933523 0.006333 0.358463
0.726999461651 1.050984740257 -0.108457110822 0.908284 -0.044143 0.416018
0.726475536823 0.935160696507 -0.202558159828 0.999034 0.017563 -0.040292
0.728907883167 0.896009862423 -0.160471424460 0.999034 0.017563 -0.040292
0.725837647915 0.568269968033 -0.270824402571 0.984330 0.024290 -0.174658
0.729222834110 0.670245289803 -0.237382754683 0.984330 0.024290 -0.174658
0.723807752132 0.578133940697 -0.280848026276 0.984330 0.024290 -0.174658
0.731619477272 -0.073725029826 -0.334728270769 0.984199 0.026663 -0.175046
0.723237872124 0.425125122070 -0.306096196175 0.984199 0.026663 -0.175046
0.723382234573 0.097038201988 -0.355079233646 0.984199 0.026663 -0.175046
0.730436682701 0.412642687559 -0.267555177212 0.984199 0.026663 -0.175046
0.735838711262 -0.351655453444 -0.353211194277 0.984199 0.026663 -0.175046
0.734335422516 0.284655123949 -0.265080869198 0.984199 0.026663 -0.175046
0.741317093372 -0.583734869957 -0.356440484524 0.986991 0.024017 -0.158971
0.747502505779 -0.430160880089 -0.294183999300 0.986991 0.024017 -0.158971
0.742311239243 -0.400350451469 -0.321822643280 0.986991 0.024017 -0.158971
0.745795130730 -0.493455052376 -0.314610540867 0.986991 0.024017 -0.158971
0.734394788742 0.399839460850 -0.246923685074 0.986991 0.024017 -0.158971
0.737314522266 0.031314224005 -0.285931140184 0.986991 0.024017 -0.158971
0.745360612869 0.091762229800 -0.185497581959 0.997802 0.022220 -0.062429
0.746191203594 -0.102501906455 -0.240580424666 0.997802 0.022220 -0.062429
0.747322142124 -0.198157221079 -0.256202548742 0.997802 0.022220 -0.062429
0.745215713978 0.037172015756 -0.207002997398 0.997802 0.022220 -0.062429
0.735802292824 0.414868563414 -0.224144458771 0.997802 0.022220 -0.062429
0.743541657925 0.045967932791 -0.230578541756 0.997802 0.022220 -0.062429
0.754006385803 -0.247928023338 -0.161998718977 0.998081 0.022086 -0.057845
0.747248470783 0.100875295699 -0.149495571852 0.998081 0.022086 -0.057845
0.753263056278 -0.274020016193 -0.184666052461 0.998081 0.022086 -0.057845
0.756071090698 -0.448695331812 -0.200954571366 0.998081 0.022086 -0.057845
0.747555971146 0.060132198036 -0.159341186285 0.998081 0.022086 -0.057845
0.755868673325 -0.570212662220 -0.249801009893 0.998081 0.022086 -0.057845
0.761030912399 -0.623289763927 -0.173566356301 0.965756 0.010851 0.259223
0.744734823704 0.033472374082 -0.137176111341 0.965756 0.010851 0.259223
0.758668661118 -0.592249333858 -0.157405436039 0.993923 0.018629 0.108488
0.751057565212 -0.288164079189 -0.135947912931 0.999730 0.023063 -0.003008
0.735796391964 0.379974722862 -0.078222535551 0.999730 0.023063 -0.003008
0.758205175400 -0.574453115463 -0.130736321211 0.999085 0.025829 -0.034095
0.758941888809 -0.590843021870 -0.121399559081 0.999085 0.025829 -0.034095
0.761113286018 -0.675976872444 -0.121410429478 0.999139 0.023715 -0.034026
0.731495857239 -0.100774385035 0.024013455957 0.989709 0.014571 0.142348
0.733767688274 -0.154844567180 0.014047102071 0.989709 0.014571 0.142348
0.742670416832 -0.254756122828 -0.036889202893 0.989709 0.014571 0.142348
0.732549607754 -0.122793622315 0.019065966830 0.989709 0.014571 0.142348
0.740533530712 0.012462980114 -0.050470199436 0.989709 0.014571 0.142348
0.741572141647 -0.147177681327 -0.040711477399 0.989709 0.014571 0.142348
0.723772048950 0.160188853741 0.038641083986 0.989296 0.026004 0.143589
0.731473207474 0.095230087638 -0.002652369440 0.989296 0.026004 0.143589
0.720344364643 0.270281761885 0.042289525270 0.989296 0.026004 0.143589
0.721828043461 0.139335602522 0.055823713541 0.989296 0.026004 0.143589
0.731909334660 0.476835399866 -0.059190198779 0.987206 0.019357 0.158272
0.721190750599 0.361792802811 0.022238912061 0.987206 0.019357 0.158272
0.728402972221 0.317193448544 -0.017059354112 0.987206 0.019357 0.158272
0.717881798744 0.411246418953 0.036587204784 0.987206 0.019357 0.158272
0.736295521259 0.364119350910 -0.109807796776 0.999680 0.025118 -0.003014
0.744804143906 0.045292168856 -0.103557534516 0.999286 0.027729 -0.025675
0.747061312199 -0.039052441716 -0.095312312245 0.999396 0.023527 -0.025573
0.756545722485 -0.507183849812 -0.139127582312 0.999396 0.023527 -0.025573
0.760498881340 -0.624647140503 -0.167895078659 0.993988 0.016402 0.108256
0.758313715458 -0.545189499855 -0.199747815728 0.998125 0.019984 -0.057847
0.758964419365 -0.661800742149 -0.230303347111 0.998125 0.019984 -0.057847
0.756393015385 -0.431447654963 -0.192309260368 0.998125 0.019984 -0.057847
0.748268127441 -0.016740875319 -0.143522158265 0.981058 0.010424 0.193432
0.741974294186 0.375045657158 -0.138995841146 0.965756 0.010851 0.259223
0.742693185806 0.294452935457 -0.159034118056 0.997802 0.022220 -0.062429
0.743074178696 0.314823567867 -0.145481601357 0.997802 0.022220 -0.062429
0.747800707817 -0.160113170743 -0.239538446069 0.997811 0.022174 -0.062297
0.748981237411 -0.279370635748 -0.261742532253 0.997811 0.022174 -0.062297
0.747599601746 -0.053946577013 -0.206156089902 0.997811 0.022174 -0.062297
0.751462280750 -0.402995407581 -0.264619171619 0.997811 0.022174 -0.062297
0.749385118484 -0.447173118591 -0.285711437464 0.986991 0.024017 -0.158971
0.743970274925 -0.597707450390 -0.342305600643 0.986991 0.024017 -0.158971
0.744362711906 -0.535948038101 -0.330451577902 0.986991 0.024017 -0.158971
0.763137996197 -0.747177720070 -0.243129685521 0.862175 0.422695 0.279253
0.752528786659 -0.744515836239 -0.056617058814 0.988017 0.019284 0.153137
0.737088978291 -0.664558351040 0.032878108323 0.988017 0.019284 0.153137
0.737498939037 -0.251488059759 -0.001504801214 0.987213 0.010154 0.159082
0.754403531551 -0.594774007797 -0.083318755031 0.987213 0.010154 0.159082
0.731256902218 -0.449039876461 0.051144979894 0.987213 0.010154 0.159082
0.758541524410 -0.660870790482 -0.104586414993 0.987213 0.010154 0.159082
0.726901829243 -0.223845034838 0.062759764493 0.987213 0.010154 0.159082
0.782063961029 -0.827098429203 -0.197745218873 0.996873 0.063860 -0.046542
0.680711507797 0.736709654331 -0.487158387899 0.864221 -0.014831 -0.502893
0.660189449787 0.609337806702 -0.518622696400 0.864221 -0.014831 -0.502893
0.672720372677 0.768690109253 -0.499259054661 0.864264 0.028582 -0.502226
0.671291828156 0.849615156651 -0.516503155231 0.934587 -0.078436 -0.346980
0.714980661869 0.850693702698 -0.292929589748 0.984864 0.024190 -0.171631
0.712812423706 0.882280468941 -0.300972402096 0.984864 0.024190 -0.171631
0.703293323517 0.724535524845 -0.359002560377 0.901649 0.027886 -0.431570
0.684926807880 0.428236156702 -0.417544275522 0.900864 0.038819 -0.432361
0.707741022110 -0.186086401343 -0.424095988274 0.900864 0.038819 -0.432361
0.700667679310 0.043436035514 -0.418629020452 0.900864 0.038819 -0.432361
0.697952866554 0.109186261892 -0.418496072292 0.900864 0.038819 -0.432361
0.694016695023 0.069756388664 -0.430157810450 0.900864 0.038819 -0.432361
0.720201253891 -0.074122577906 -0.383651793003 0.947010 0.029080 -0.319885
0.716235578060 -0.327112853527 -0.418253064156 0.947010 0.029080 -0.319885
0.726013898849 -0.105743542314 -0.369253695011 0.947010 0.029080 -0.319885
0.718977987766 -0.646061122417 -0.438897430897 0.947010 0.029080 -0.319885
0.721409738064 -0.527742326260 -0.420781493187 0.947010 0.029080 -0.319885
0.717989385128 -0.636277854443 -0.440918982029 0.947010 0.029080 -0.319885
0.730400145054 -0.218853294849 -0.362107783556 0.984199 0.026663 -0.175046
0.732165157795 0.021924914792 -0.314817219973 0.984199 0.026663 -0.175046
0.737080395222 -0.252022743225 -0.329704582691 0.984199 0.026663 -0.175046
0.739654183388 -0.378236532211 -0.334825068712 0.984199 0.026663 -0.175046
0.730065584183 0.189749702811 -0.301993668079 0.984272 0.026602 -0.174647
0.728245794773 0.174414396286 -0.314468681812 0.984272 0.026602 -0.174647
0.726158380508 0.033295154572 -0.346878886223 0.984272 0.026602 -0.174647
0.735946178436 0.465642780066 -0.204141005874 0.997802 0.022220 -0.062429
0.738828837872 0.222180292010 -0.247072622180 0.997802 0.022220 -0.062429
0.737829685211 0.368468254805 -0.209612324834 0.997802 0.022220 -0.062429
0.733047604561 0.473013669252 -0.243726968765 0.984272 0.026602 -0.174647
0.722654044628 0.258275419474 -0.333609461784 0.984272 0.026602 -0.174647
0.728016138077 0.403167277575 -0.282241046429 0.984272 0.026602 -0.174647
0.712503433228 0.139360517263 -0.379153132439 0.901080 0.030613 -0.432572
0.710295557976 0.180500954390 -0.380968391895 0.901080 0.030613 -0.432572
0.720505177975 0.002129291883 -0.372571229935 0.901202 0.044321 -0.431127
0.708681643009 -0.455775409937 -0.443392902613 0.901202 0.044321 -0.431127
0.711113810539 -0.409323990345 -0.433635026217 0.901202 0.044321 -0.431127
0.696062922478 -0.290913760662 -0.450467526913 0.851775 0.042935 -0.522145
0.714232802391 -0.602585375309 -0.446981638670 0.845457 0.037361 -0.532735
0.688430070877 -0.016926676035 -0.446363031864 0.845457 0.037361 -0.532735
0.685630321503 0.057019509375 -0.440871447325 0.901150 0.027953 -0.432605
0.706518352032 0.386257350445 -0.374882787466 0.901150 0.027953 -0.432605
0.693963348866 -0.290273249149 -0.465614706278 0.514100 0.001342 0.857729
0.687851071358 0.018781423569 -0.462956517935 0.545602 0.004062 0.838034
0.704936087132 -0.455124676228 -0.516156077385 0.899021 0.047175 -0.435358
0.715550303459 -0.525694966316 -0.501785933971 0.899021 0.047175 -0.435358
0.707516551018 -0.437047243118 -0.508933782578 0.899021 0.047175 -0.435358
0.715379059315 -0.660892069340 -0.526995778084 0.893566 0.117166 -0.433373
0.723194003105 -0.667383313179 -0.477870494127 0.633936 0.040945 0.772301
0.722009539604 -0.608560383320 -0.480514407158 0.512830 0.098566 0.852813
0.756379842758 -0.748268365860 -0.390252679586 0.978290 -0.001158 -0.207235
0.666578114033 -0.042316611856 -0.534097373486 0.837883 0.063369 -0.542159
0.682708024979 -0.091572523117 -0.514780521393 0.837883 0.063369 -0.542159
0.676247715950 0.138831660151 -0.506839871407 0.839173 0.020534 -0.543477
0.687531471252 0.178703427315 -0.487855166197 0.839173 0.020534 -0.543477
0.673123776913 0.679221689701 -0.440250575542 0.657262 -0.032371 0.752966
0.677586495876 0.746224224567 -0.429926812649 0.895208 0.003944 -0.445632
0.685591042042 0.561566293240 -0.407533884048 0.956436 -0.001222 -0.291939
0.693431913853 0.723920702934 -0.382896035910 0.956436 -0.001222 -0.291939
0.688633263111 -0.048377003521 -0.448387771845 0.885294 0.036493 -0.463597
0.678653895855 0.241932466626 -0.444907873869 0.885294 0.036493 -0.463597
0.675858736038 0.506950438023 -0.492807596922 0.818485 0.009597 -0.574448
0.653639197350 0.309609353542 -0.531436204910 0.818426 0.029180 -0.573871
0.684180617332 0.347296059132 -0.485962122679 0.818426 0.029180 -0.573871
0.623079001904 -0.489577680826 0.283120334148 0.522262 -0.430001 0.736439
0.610804796219 -0.402245134115 0.336923450232 0.509168 -0.392043 0.766192
0.518082201481 -0.232300534844 0.483910381794 0.466340 -0.414344 0.781566
-0.588120520115 -0.287259638309 0.400356382132 -0.834873 -0.118019 0.537641
-0.623694300652 -0.424571931362 0.318932592869 -0.882559 -0.033789 0.468986
-0.709225893021 -0.615674614906 0.116753295064 -0.903596 -0.060962 0.424026
-0.622778773308 -0.498938053846 0.286500006914 -0.515498 -0.452511 0.727664
-0.606026530266 -0.447035372257 0.325168222189 -0.500585 -0.399490 0.767999
0.417319506407 -0.858443140984 0.120492227376 -0.271667 0.933241 0.235070
0.578816413879 -0.416874647141 0.349791467190 0.414342 -0.443362 0.794827
-0.712148606777 -0.899757623672 0.077546983957 -0.901513 -0.049859 0.429870
-0.745125770569 -0.990404605865 -0.031883034855 -0.981256 -0.034161 0.189655
-0.750286757946 -0.912261843681 -0.072558283806 -0.983770 0.033843 0.176215
-0.733517944813 -0.765691637993 0.033369351178 -0.988993 0.001112 0.147960
-0.751094520092 -0.837674736977 -0.083124354482 -0.988993 0.001112 0.147960
-0.734517335892 -1.316935777664 -0.120124079287 -0.955593 -0.169261 0.241231
-0.710716485977 -1.184556484222 -0.003534207121 -0.847264 -0.170640 0.503017
-0.680922985077 -0.531865596771 0.160240784287 0.961921 -0.048784 -0.268938
-0.683047175407 -0.575051188469 0.160526111722 0.961921 -0.048784 -0.268938
-0.700735628605 -0.619701206684 0.105879753828 0.942835 -0.058360 -0.328112
0.551046192646 1.055355191231 0.431610554457 0.935531 -0.281079 0.213955
0.515329360962 1.000084877014 0.495802849531 0.825986 0.108873 0.553077
0.732380568981 -1.454996466637 -0.187661290169 0.957569 -0.229763 0.173983
-0.685078442097 1.334896683693 0.172543779016 -0.929474 0.081580 0.359753
-0.595700204372 1.648430705070 0.038152664900 -0.244051 0.938551 0.244051
-0.496510058641 -0.285641282797 0.470096945763 -0.243039 -0.524778 0.815806
0.515600740910 -0.335887193680 0.424180567265 0.252730 -0.513212 0.820208
-0.424562096596 -0.802188694477 0.136143609881 -0.096873 -0.459094 0.883090
0.625995337963 -0.616827964783 0.202584952116 0.429082 -0.474764 0.768432
0.607649445534 -0.740524470806 0.134380459785 0.371025 -0.447460 0.813708
0.444490283728 -0.794201254845 0.133694723248 0.105741 -0.455389 0.883991
0.505035102367 -0.111853405833 0.533292710781 -0.314750 -0.369489 0.874306
0.477730333805 0.298492699862 0.540744364262 -0.369242 0.027207 -0.928935
0.477326482534 0.306597918272 0.541153311729 -0.369242 0.027207 -0.928935
0.502098381519 0.018658708781 0.522991716862 -0.359020 0.027023 -0.932938
0.475676983595 -0.119603194296 0.516664922237 -0.383018 0.241050 -0.891736
0.575732529163 -0.349794387817 0.352628707886 -0.408846 0.450862 -0.793453
0.510266304016 -0.208104103804 0.476177573204 -0.294347 -0.657856 0.693242
0.583620548248 0.434296548367 0.296717941761 -0.697425 -0.678618 -0.230385
0.617256522179 0.432268023491 0.188600361347 -0.639484 -0.746831 -0.182491
0.622874140739 0.463306277990 0.269269794226 -0.676080 0.721454 -0.149736
0.540865480900 0.448916077614 0.449076890945 -0.519836 0.833244 -0.188346
0.569652080536 0.439003199339 0.324208468199 -0.331511 0.934507 -0.129603
0.578228175640 0.419946521521 0.338739395142 -0.664569 -0.644780 -0.377633
0.509371817112 0.410037070513 0.481065154076 -0.574693 -0.760387 -0.302554
0.657990038395 0.343730986118 0.125273838639 -0.039324 -0.049952 0.997977
0.656804263592 0.104129239917 0.113233670592 -0.043660 -0.050049 0.997792
0.648231625557 0.275746375322 0.121490046382 -0.043660 -0.050049 0.997792
0.664192676544 -0.636236906052 -0.114423006773 -0.998840 -0.025984 -0.040536
0.653704881668 -0.418376922607 0.010939370841 -0.998840 -0.025984 -0.040536
0.641557514668 0.029180873185 0.033014606684 -0.998840 -0.025984 -0.040536
0.636947035789 0.120374530554 0.091012597084 -0.998840 -0.025984 -0.040536
0.633564472198 0.237019628286 0.102192968130 -0.998840 -0.025984 -0.040536
0.655832648277 -0.376426398754 -0.068827822804 -0.998840 -0.025984 -0.040536
0.640498280525 0.057482644916 0.041704226285 -0.998840 -0.025984 -0.040536
0.659015774727 -0.476069360971 -0.085735335946 -0.998840 -0.025984 -0.040536
0.661128580570 -0.545208096504 -0.095065698028 -0.998840 -0.025984 -0.040536
0.652269423008 -0.409818410873 0.041507437825 -0.998840 -0.025984 -0.040536
0.651061892509 -0.397659540176 0.064092501998 -0.998840 -0.025984 -0.040536
0.632597148418 0.400280714035 0.048549018800 -0.998329 -0.021999 -0.053426
0.653452634811 -0.210698634386 -0.094351783395 -0.998329 -0.021999 -0.053426
0.646261930466 -0.071546912193 -0.016731120646 -0.998329 -0.021999 -0.053426
0.645260572433 0.041497975588 -0.043057799339 -0.998329 -0.021999 -0.053426
0.661467373371 -0.457147449255 -0.144649609923 -0.998329 -0.021999 -0.053426
0.656439542770 -0.321166932583 -0.105713590980 -0.998329 -0.021999 -0.053426
0.649431943893 0.046903755516 -0.122235246003 -0.998329 -0.021999 -0.053426
0.638997852802 0.374450445175 -0.059413008392 -0.998329 -0.021999 -0.053426
0.651284039021 -0.043649923056 -0.120535835624 -0.998329 -0.021999 -0.053426
0.646046757698 -0.019970841706 -0.033206708729 -0.998329 -0.021999 -0.053426
0.637090206146 0.372826546431 -0.023539654911 -0.998329 -0.021999 -0.053426
0.642171680927 0.358851104975 -0.111840300262 -0.998329 -0.021999 -0.053426
0.635809004307 0.294068753719 0.031346186996 -0.998329 -0.021999 -0.053426
0.641402781010 0.182862788439 -0.027864627540 -0.998329 -0.021999 -0.053426
0.646800875664 0.178001552820 -0.154467567801 -0.999735 -0.023017 -0.001001
0.661697447300 -0.450613707304 -0.209422901273 -0.999735 -0.023017 -0.001001
0.663286983967 -0.511131167412 -0.302271485329 -0.999735 -0.023017 -0.001001
0.650636792183 0.018444843590 -0.199321344495 -0.999735 -0.023017 -0.001001
0.660963952541 -0.414789378643 -0.271334260702 -0.999735 -0.023017 -0.001001
0.661626994610 -0.441969037056 -0.284384936094 -0.999735 -0.023017 -0.001001
0.651869654655 -0.035511553288 -0.178249418736 -0.999735 -0.023017 -0.001001
0.662576317787 -0.490837395191 -0.171060860157 -0.999735 -0.023017 -0.001001
0.665506422520 -0.603763937950 -0.324080228806 -0.999735 -0.023017 -0.001001
0.666154026985 -0.637281775475 -0.244333893061 -0.999735 -0.023017 -0.001001
0.650677442551 0.015795655549 -0.187071755528 -0.999735 -0.023017 -0.001001
0.658427476883 -0.305290460587 -0.326090216637 -0.999735 -0.023017 -0.001001
0.647441744804 0.153388202190 -0.215816766024 -0.999735 -0.023017 -0.001001
0.656607747078 -0.229656159878 -0.291073501110 -0.999735 -0.023017 -0.001001
0.641027390957 0.421923696995 -0.187038376927 -0.999735 -0.023017 -0.001001
0.644095242023 0.294900298119 -0.270213097334 -0.999735 -0.023017 -0.001001
0.649669408798 0.061839580536 -0.310022592545 -0.999735 -0.023017 -0.001001
0.655645370483 -0.189645051956 -0.272904664278 -0.999735 -0.023017 -0.001001
0.663127064705 -0.501959621906 -0.351146906614 -0.999735 -0.023017 -0.001001
0.648529827595 0.108338773251 -0.245436310768 -0.999735 -0.023017 -0.001001
0.646382033825 0.199429452419 -0.293571978807 -0.999735 -0.023017 -0.001001
0.646736323833 0.185042187572 -0.317079544067 -0.999735 -0.023017 -0.001001
0.709059715271 0.470282495022 -0.123859867454 -0.419096 0.903200 -0.092671
0.624753057957 -0.526707172394 0.206811323762 -0.966263 -0.108497 -0.233588
0.650555789471 -0.597679018974 0.132864505053 -0.966263 -0.108497 -0.233588
0.566231846809 -0.279518753290 0.397336691618 -0.488665 0.416754 -0.766501
0.662646830082 -0.456967383623 0.202846318483 -0.511882 0.795730 -0.323714
0.690484881401 -0.193067014217 0.100487098098 -0.087247 -0.047489 0.995054
0.664477884769 -0.608879923820 0.062637813389 -0.986245 -0.086430 -0.140892
0.662986874580 -0.596489012241 0.034836020321 -0.991334 -0.128817 0.025763
0.689221501350 -0.665073692799 -0.037471476942 -0.185278 -0.982321 0.026801
0.726425349712 -0.670513153076 -0.251493036747 -0.199020 -0.978212 -0.059103
0.728392958641 -0.666383922100 -0.334788978100 -0.210719 -0.976531 -0.044552
0.654530048370 -0.167976856232 -0.369549393654 -0.999396 -0.025573 0.023527
0.664563834667 -0.569906055927 -0.366109371185 -0.999396 -0.025573 0.023527
0.650438427925 0.022591054440 -0.342069119215 -0.999396 -0.025573 0.023527
0.651644408703 -0.060390859842 -0.381517738104 -0.999488 -0.025471 0.019358
0.645642518997 0.212253972888 -0.347597897053 -0.999488 -0.025471 0.019358
0.660102784634 -0.418135136366 -0.396959394217 -0.999488 -0.025471 0.019358
0.642111837864 0.370411008596 -0.330368995667 -0.999488 -0.025471 0.019358
0.678148865700 0.410898685455 -0.380941987038 -0.446216 0.807667 -0.385441
0.688101947308 0.463530361652 -0.037600740790 -0.426413 0.904312 -0.019802
0.726346790791 0.480172902346 -0.093562796712 -0.422979 0.905626 -0.030497
0.700849354267 -0.666658759117 0.003069274127 -0.248447 -0.968585 -0.010802
0.681913793087 -0.190587639809 -0.458099842072 -0.578126 -0.004100 -0.815937
0.666343569756 -0.035282686353 -0.446629524231 -0.637877 -0.001378 -0.770137
0.648429393768 0.221794351935 -0.432436943054 -0.637877 -0.001378 -0.770137
0.641546010971 0.348027646542 -0.385337352753 -0.998380 -0.028345 0.049342
0.645268261433 0.142546623945 -0.424804806709 -0.998380 -0.028345 0.049342
0.676327526569 0.114725835621 -0.454673588276 -0.800146 -0.006862 -0.599766
0.653174757957 -0.135527133942 -0.401141107082 -0.999613 -0.023294 -0.015192
0.648439049721 -0.501270055771 0.255260109901 -0.251320 -0.684412 0.684412
0.547393560410 0.489235401154 0.455201476812 0.892607 -0.058778 0.446987
0.507439553738 0.520311534405 0.528427839279 0.820311 0.026283 0.571313
0.503970921040 0.649179100990 0.528418779373 0.888085 0.017309 0.459354
-0.603366851807 1.043031096458 0.374200105667 -0.892680 0.067191 0.445654
-0.679366111755 1.004552364349 0.165536269546 -0.954159 0.008618 0.299175
-0.541133642197 0.737399935722 0.511857509613 -0.821582 0.006835 0.570049
-0.692140758038 0.571123123169 0.145062759519 -0.987513 0.021641 0.156043
-0.667533159256 0.503515005112 0.227986395359 -0.948675 -0.096052 0.301313
-0.596217095852 0.450636297464 0.400228232145 -0.890603 -0.081719 0.447379
-0.553932309151 0.960735678673 0.481816411018 -0.884912 0.056250 0.462349
0.587239980698 0.505372643471 0.374053955078 0.898831 -0.001308 0.438294
0.666662395000 0.523025810719 0.153697445989 0.973532 0.010646 0.228301
0.650484502316 0.886458814144 0.159582868218 0.986578 0.045320 0.156876
0.659714341164 0.771140933037 0.139058411121 0.953659 0.028823 0.299507
0.546324849129 1.643960356712 0.034708265215 -0.203503 0.304553 0.930502
0.455874264240 1.637328624725 0.017848588526 -0.173030 0.147770 0.973768
0.416198134422 1.653714895248 0.000217557885 -0.345216 0.223885 0.911428
0.018839880824 1.690165281296 -0.100134097040 0.003257 0.114005 0.993475
-0.415722578764 1.695448040962 -0.103246264160 -0.014677 0.154670 0.987857
-0.420962601900 1.642526268959 -0.093153029680 0.246186 -0.969133 -0.013210
-0.530172824860 1.613758206367 -0.125130891800 0.395439 -0.911590 -0.112388
-0.504374027252 1.615933537483 -0.022509280592 0.301594 -0.952734 0.036595
-0.598623037338 1.581236839294 -0.073993980885 0.363222 -0.931632 -0.011470
-0.563361167908 1.595520853996 0.017957290635 0.342907 -0.938820 0.032107
-0.626234531403 1.628895282745 0.038880430162 0.011115 0.297624 0.954619
-0.600278854370 1.596614360809 0.046451598406 0.194733 0.306810 0.931637
-0.501628279686 1.624539971352 0.017086593434 0.170514 0.150305 0.973824
-0.507802128792 1.615348815918 0.036786604673 0.360158 -0.932849 -0.008909
-0.623944699764 1.546547532082 0.062978416681 0.920873 -0.387110 0.046242
-0.564243197441 1.324935913086 0.336972653866 0.968064 0.161129 -0.192066
-0.601115465164 1.381371617317 0.287003695965 -0.969014 -0.155711 0.191744
-0.627426922321 1.454757571220 0.209831163287 -0.982901 -0.122711 0.137290
-0.632694959641 1.551960349083 0.060219164938 -0.776482 0.390673 0.494420
-0.363703340292 1.653174757957 -0.080855198205 0.074263 -0.986642 0.144990
-0.094855360687 1.671589612961 -0.091327041388 0.072747 -0.983877 0.163383
-0.080151796341 1.666479110718 -0.110824726522 0.070732 -0.927525 0.367006
-0.314453780651 1.651354908943 -0.104210548103 0.070732 -0.927525 0.367006
-0.330936133862 1.630348086357 -0.160303801298 0.061146 -0.943202 0.326543
-0.435680806637 1.635512709618 -0.125651270151 0.061146 -0.943202 0.326543
-0.597205877304 1.223967790604 0.254834502935 0.929289 -0.027142 -0.368355
-0.604674875736 1.239235997200 0.234876960516 0.929289 -0.027142 -0.368355
-0.596246778965 1.154056787491 0.261376768351 0.928520 -0.021954 -0.370633
-0.592908024788 1.170630931854 0.268764108419 0.928520 -0.021954 -0.370633
-0.561223864555 1.176286578178 0.347409754992 0.907281 -0.019752 -0.420062
-0.542387127876 1.203068852425 0.435431480408 -0.061794 0.656737 0.751583
-0.517808616161 1.185159921646 0.479045480490 -0.067712 0.667031 0.741946
0.295378953218 1.127097368240 0.557322502136 0.041140 0.750444 0.659653
0.479585826397 1.210514426231 0.466781705618 0.049962 0.666629 0.743713
0.567119777203 1.403958439827 0.259455382824 0.021037 0.694216 0.719460
0.487654954195 1.177240133286 0.469246923923 0.043921 0.647476 0.760819
0.537346184254 1.274328708649 0.382290124893 0.026640 0.657576 0.752917
0.515662252903 1.202555775642 0.358445644379 -0.906359 -0.041380 -0.420476
0.561217367649 1.182689189911 0.249010279775 -0.927516 -0.043293 -0.371269
0.564730703831 1.259677648544 0.230704858899 -0.928193 -0.048576 -0.368914
0.574015200138 1.315762996674 0.200050577521 -0.928193 -0.048576 -0.368914
0.580632686615 1.215397953987 0.196303203702 -0.928193 -0.048576 -0.368914
0.492465287447 1.614953041077 0.049533374608 -0.297621 -0.953654 -0.044327
0.579048991203 1.584048867226 -0.037522435188 -0.321399 -0.946411 0.031759
0.571283757687 1.489121198654 0.174882397056 -0.984997 0.106778 -0.135572
0.529208421707 1.316344499588 0.367190688848 0.961149 -0.153417 0.229469
0.595158636570 1.555938005447 0.119202643633 0.980724 0.185607 0.061071
0.616005063057 1.531419992447 0.065745711327 0.035696 0.986833 0.157755
0.613864421844 1.533550262451 0.054325524718 0.311526 0.031531 0.949714
0.369525313377 1.670333147049 -0.047903411090 0.350812 0.935064 -0.050861
0.169783204794 1.686293363571 -0.082414522767 0.054348 0.988671 -0.139917
0.093937732279 1.688567161560 -0.094282075763 0.052636 0.986050 -0.157908
-0.256207406521 1.668243408203 -0.070208065212 -0.001083 0.113760 0.993508
0.018148183823 1.687128305435 -0.072091743350 0.001083 0.115898 0.993261
0.073080375791 1.671418070793 -0.092520631850 -0.049799 -0.987870 0.147080
0.001472502947 1.652416467667 -0.153308942914 -0.048623 -0.929090 0.366642
0.028540700674 1.672378420830 -0.099164567888 -0.048623 -0.929090 0.366642
0.150167316198 1.698565006256 -0.101304799318 -0.001100 0.135260 0.990809
0.187430113554 1.636947154999 -0.173082739115 -0.039719 -0.944286 0.326720
0.433274537325 1.631440758705 -0.158844411373 -0.039719 -0.944286 0.326720
0.445647388697 1.630540132523 -0.050998497754 -0.375356 -0.919829 -0.114119
0.452023714781 1.633306741714 -0.106893569231 -0.223795 -0.974515 -0.015393
0.269846051931 1.092687726021 0.550209045410 -0.038073 0.015435 -0.999156
0.230615377426 1.025167942047 0.558653533459 -0.096130 -0.100763 -0.990255
0.017171472311 1.094506621361 0.556734502316 -0.014076 -0.098529 -0.995035
-0.004032881930 0.988070845604 0.568518221378 -0.018593 -0.106090 -0.994183
-0.108485855162 1.034241199493 0.562267839909 0.016371 -0.105864 -0.994246
-0.143378689885 0.971373379230 0.567810654640 0.022882 -0.099154 -0.994809
-0.153525114059 1.015615701675 0.563210368156 0.022882 -0.099154 -0.994809
-0.265762418509 1.043783187866 0.557457447052 0.043321 -0.098860 -0.994158
-0.399644762278 1.084920167923 0.547507941723 0.043321 -0.098860 -0.994158
-0.409171938896 1.045846700668 0.549027085304 0.104070 0.001073 -0.994569
-0.451894134283 1.001389265060 0.544542670250 0.104070 0.001073 -0.994569
-0.484253644943 1.085338830948 0.508750319481 0.893481 -0.087542 -0.440487
-0.164587810636 1.100685000420 0.557106912136 -0.028985 0.837807 0.545196
0.256413221359 1.115210413933 0.550165832043 -0.040042 -0.070344 -0.996719
-0.067195251584 1.131254434586 0.553501129150 0.015898 -0.071012 -0.997349
-0.220737203956 1.118774771690 0.551892518997 0.015898 -0.071012 -0.997349
-0.472807168961 1.119322538376 0.526831090450 0.857361 -0.065736 -0.510500
-0.519939482212 1.131631493568 0.435283035040 0.895704 0.009234 -0.444554
-0.468440055847 1.127717971802 0.535263478756 -0.107758 0.724783 0.680499
0.423141568899 1.133401513100 0.536256194115 -0.541149 -0.037368 -0.840096
0.508444309235 1.135957479477 0.380446076393 -0.895704 -0.009234 -0.444554
0.471847295761 1.064588665962 0.465254157782 -0.891119 -0.108398 -0.440632
-0.619817554951 1.485035181046 0.171594724059 0.982149 0.130547 -0.135427
-0.168891817331 1.674101948738 -0.098524354398 -0.003306 0.135555 0.990764
-0.634752273560 1.544504642487 0.017261262983 0.886571 -0.408619 -0.216848
-0.431688338518 1.289665699005 -0.174731761217 -0.002938 -0.000979 0.999995
-0.065684661269 1.630717873573 -0.173699632287 -0.002938 -0.000979 0.999995
-0.364783018827 1.348239541054 -0.174543231726 -0.002938 -0.000979 0.999995
-0.537555158138 1.265526890755 -0.175027862191 -0.002938 -0.000979 0.999995
-0.205557584763 1.515872597694 -0.174093574286 -0.002938 -0.000979 0.999995
-0.390392154455 1.544293045998 -0.174608170986 -0.002938 -0.000979 0.999995
-0.294027626514 1.564029932022 -0.174338743091 -0.002938 -0.000979 0.999995
-0.512666940689 1.422754406929 -0.174953237176 -0.002938 -0.000979 0.999995
-0.127906620502 1.631133556366 -0.173873171210 -0.002938 -0.000979 0.999995
-0.419372975826 1.541835069656 -0.174689069390 -0.002938 -0.000979 0.999995
-0.378685504198 1.572437644005 -0.174574568868 -0.002938 -0.000979 0.999995
-0.160747855902 1.586527705193 -0.173966243863 -0.002938 -0.000979 0.999995
-0.548259258270 1.341199755669 -0.173726275563 0.959044 0.013473 0.282936
-0.561149656773 1.510072350502 -0.135231658816 0.964032 0.010914 0.265563
-0.556742310524 1.449562191963 -0.148672387004 0.964032 0.010914 0.265563
-0.564470767975 1.345878124237 -0.116664201021 0.959291 0.008554 0.282288
-0.566711544991 1.178326606750 -0.103697709739 0.959291 0.008554 0.282288
-0.597156465054 1.314291119576 -0.085645809770 0.372047 -0.001270 0.928213
-0.575077652931 1.438829302788 -0.094417467713 0.372047 -0.001270 0.928213
-0.621579110622 1.439775824547 -0.073920376599 0.443437 -0.017208 0.896140
-0.624486327171 1.353778958321 -0.074077315629 0.443437 -0.017208 0.896140
-0.644913017750 1.387590169907 -0.000727250241 0.995881 -0.029323 -0.085796
-0.639495849609 1.475088357925 0.032625567168 0.995881 -0.029323 -0.085796
-0.617620229721 1.443744540215 0.160468414426 0.983919 0.003412 -0.178584
-0.619489669800 1.403407692909 0.149561956525 0.983919 0.003412 -0.178584
-0.650552213192 1.188408255577 -0.024579070508 0.983919 0.003412 -0.178584
0.583573341370 1.247363328934 0.175515666604 -0.990000 -0.082211 -0.114632
0.617394208908 1.163639903069 -0.057551383972 -0.990000 -0.082211 -0.114632
0.605204105377 1.209287166595 0.015345199965 -0.990000 -0.082211 -0.114632
0.584999680519 1.229000210762 0.176336944103 -0.990000 -0.082211 -0.114632
0.607266962528 1.228044867516 -0.009422948584 -0.983624 -0.019649 -0.179156
0.579416334629 1.364304423332 0.127993702888 -0.983624 -0.019649 -0.179156
0.596398770809 1.377039670944 0.033457189798 -0.983624 -0.019649 -0.179156
0.584713399410 1.465384840965 0.087618149817 -0.983624 -0.019649 -0.179156
0.609251558781 1.277155995369 -0.029518704861 -0.994813 -0.052009 -0.087420
0.598510503769 1.477608680725 -0.025937881321 -0.994813 -0.052009 -0.087420
0.585113048553 1.421791195869 -0.068062461913 -0.370611 -0.024535 0.928464
0.563038766384 1.221126675606 -0.081920854747 -0.370611 -0.024535 0.928464
0.551310181618 1.333205223083 -0.084320381284 -0.438224 -0.009212 0.898819
0.568197667599 1.452214121819 -0.074777498841 -0.438224 -0.009212 0.898819
0.032662451267 1.286730766296 -0.174682363868 0.002944 -0.002944 0.999991
0.372154176235 1.626268267632 -0.174513012171 0.002944 -0.002944 0.999991
-0.008265763521 1.417824149132 -0.174238696694 0.002944 -0.002944 0.999991
0.184289336205 1.562205314636 -0.174272671342 0.002944 -0.002944 0.999991
0.073599666357 1.458039999008 -0.174310252070 0.002944 -0.002944 0.999991
0.230327874422 1.631481409073 -0.174187034369 0.002944 -0.002944 0.999991
0.113583579659 1.607292413712 -0.173995524645 0.002944 -0.002944 0.999991
0.396513223648 1.607167840004 -0.174618095160 0.002944 -0.002944 0.999991
0.077965572476 1.558994293213 -0.174047499895 0.002944 -0.002944 0.999991
0.101752758026 1.386618852615 -0.174564838409 0.002944 -0.002944 0.999991
0.115153647959 1.531314134598 -0.174203962088 0.002944 -0.002944 0.999991
0.067662209272 1.638135075569 -0.173811331391 0.002944 -0.002944 0.999991
0.018496289849 1.528719663620 -0.173998385668 0.002944 -0.002944 0.999991
-0.188353925943 1.411603927612 -0.174284279346 -0.000979 -0.002938 0.999995
-0.224216222763 1.461868524551 -0.174160182476 -0.000979 -0.002938 0.999995
-0.033615991473 1.558509469032 -0.173827484250 -0.000979 -0.002938 0.999995
-0.063559629023 1.274842977524 -0.174612060189 -0.000979 -0.002938 0.999995
-0.279397547245 1.259522914886 -0.174732103944 -0.000979 -0.002938 0.999995
-0.332510590553 1.361864805222 -0.174472212791 -0.000979 -0.002938 0.999995
-0.095377817750 1.514963507652 -0.173968657851 -0.000979 -0.002938 0.999995
-0.039255701005 1.211267709732 -0.174776673317 -0.000979 -0.002938 0.999995
-0.232574552298 1.247966527939 -0.174746647477 -0.000979 -0.002938 0.999995
-0.501604139805 1.181688904762 -0.175024956465 -0.000979 -0.002938 0.999995
-0.213927328587 1.470557928085 -0.174132749438 -0.000979 -0.002938 0.999995
-0.294796347618 1.269319772720 -0.174710959196 -0.000979 -0.002938 0.999995
-0.485927164555 1.162678718567 -0.159973770380 -0.009724 0.707073 0.707073
-0.213848978281 1.160150170326 -0.154197812080 -0.009724 0.707073 0.707073
0.455432713032 1.188574194908 -0.174691721797 -0.006946 0.707090 0.707090
0.468300551176 1.486967682838 -0.174808785319 -0.000978 0.000978 0.999999
0.498665332794 1.312492251396 -0.174806162715 -0.000978 0.000978 0.999999
0.409247815609 1.463763713837 -0.174813330173 -0.000978 0.000978 0.999999
0.363832890987 1.439471364021 -0.174816831946 -0.000978 0.000978 0.999999
0.396943122149 1.322749495506 -0.174814090133 -0.000978 0.000978 0.999999
0.465881317854 1.461251020432 -0.174808934331 -0.000978 0.000978 0.999999
0.386462807655 1.332502961159 -0.174814924598 -0.000978 0.000978 0.999999
0.061795383692 1.230705857277 -0.174840018153 -0.000978 0.000978 0.999999
0.461585432291 1.201702713966 -0.174808889627 -0.000978 0.000978 0.999999
0.419052541256 1.200912714005 -0.174812197685 -0.000978 0.000978 0.999999
0.224622368813 1.284770607948 -0.174827441573 -0.000978 0.000978 0.999999
0.502589106560 1.566747546196 -0.173250019550 -0.959269 -0.010998 0.282282
0.084790498018 1.157311201096 -0.147839725018 -0.009724 0.707073 0.707073
0.043056845665 1.153285026550 -0.143106371164 -0.010858 0.999941 0.000987
0.527962625027 1.192358255386 -0.099911108613 -0.959044 -0.013473 0.282936
0.515154480934 1.583545446396 -0.127016544342 -0.964032 -0.010914 0.265563
0.505172669888 1.588302254677 -0.163096934557 -0.964032 -0.010914 0.265563
-0.017809683457 1.152576923370 -0.017776370049 -0.010858 0.999941 -0.000987
0.300377905369 1.156280159950 0.012525246479 -0.010858 0.999941 -0.000987
0.001401323825 1.152800798416 0.071444183588 -0.010858 0.999941 -0.000987
0.040050394833 1.153250575066 0.079437278211 -0.010858 0.999941 -0.000987
-0.015291590244 1.152606368065 0.018789440393 -0.010858 0.999941 -0.000987
0.214927628636 1.155285596848 -0.014740079641 -0.010858 0.999941 -0.000987
0.009900126606 1.152899622917 0.043495923281 -0.010858 0.999941 -0.000987
0.159155160189 1.154636740685 0.056307870895 -0.010858 0.999941 -0.000987
0.052054081112 1.153390407562 0.134153664112 -0.010858 0.999941 -0.000987
0.443008810282 1.157993793488 0.030576765537 -0.012857 0.999917 -0.000989
0.171155035496 1.154806256294 0.130021244287 -0.012857 0.999917 -0.000989
0.203486278653 1.155183434486 0.115256160498 -0.012857 0.999917 -0.000989
0.123978868127 1.154248595238 0.140265524387 -0.012857 0.999917 -0.000989
