-0.598504185677 -0.456885039806 -0.554337620735 0.000978 0.000978 -0.999999
-0.731169223785 -0.539690256119 -0.554361045361 0.000978 0.000978 -0.999999
-0.769395947456 -0.526350438595 -0.554357290268 0.000978 0.000978 -0.999999
-0.631203651428 -0.627574920654 -0.554385781288 0.000978 0.000978 -0.999999
-0.803601861000 -0.011570155621 -0.554212212563 0.000978 0.000978 -0.999999
-0.546817541122 -0.674091577530 -0.554398834705 0.000978 0.000978 -0.999999
-0.757857620716 -0.653077960014 -0.554393053055 0.000978 0.000978 -0.999999
-0.810312271118 -0.832901239395 -0.554443717003 0.000978 0.000978 -0.999999
-0.825165092945 -0.138843953609 -0.554248094559 0.000978 0.000978 -0.999999
-0.709456980228 -0.221129238605 -0.554271221161 0.000978 0.000978 -0.999999
-0.641717493534 -0.636016368866 -0.554388165474 0.000978 0.000978 -0.999999
-0.288405269384 -0.922485113144 -0.554468750954 0.000978 0.000978 -0.999999
-0.775331139565 -0.172941505909 -0.554257690907 0.000978 0.000978 -0.999999
-0.835824489594 -0.684767425060 -0.554401934147 0.000978 0.000978 -0.999999
-0.391135692596 -0.851211190224 -0.554448723793 0.000978 0.000978 -0.999999
-0.591164052486 -0.486323416233 -0.554345905781 0.000978 0.000978 -0.999999
-0.141715168953 -0.842647135258 -0.554446160793 0.000978 0.000978 -0.999999
-0.235414177179 -0.818194568157 -0.554439365864 0.000978 0.000978 -0.999999
-0.613122940063 -0.531976461411 -0.554358839989 0.000978 0.000978 -0.999999
-0.516064465046 -0.332393884659 -0.554302513599 0.000978 0.000978 -0.999999
-0.479185014963 -0.673060297966 -0.554398536682 0.000978 0.000978 -0.999999
-0.365614145994 -0.893491208553 -0.554460585117 0.000978 0.000978 -0.999999
-0.677343845367 -0.544703006744 -0.554362416267 0.000978 0.000978 -0.999999
-0.391836106777 -0.676611304283 -0.554399490356 0.000978 0.000978 -0.999999
-0.688480377197 -0.898839950562 -0.554462313652 0.000978 0.000978 -0.999999
-0.414832264185 -0.940561890602 -0.556821346283 0.001240 0.323658 -0.946173
-0.163207486272 -0.951619386673 -0.560585856438 0.001240 0.323658 -0.946173
-0.436414927244 -0.959087789059 -0.558103680611 -0.001380 -0.686096 -0.727510
-0.203387200832 -0.976187109947 -0.542005777359 -0.001380 -0.686096 -0.727510
-0.037108842283 -1.010466814041 -0.509733557701 -0.001380 -0.686096 -0.727510
-0.070470452309 -0.959014058113 -0.558173179626 -0.001380 -0.686096 -0.727510
0.114861369133 -0.955181598663 -0.561781287193 0.001380 -0.686096 -0.727510
0.613059401512 -0.966276109219 -0.551336288452 0.001380 -0.686096 -0.727510
0.437177598476 -0.980040669441 -0.538377881050 0.001380 -0.686096 -0.727510
0.577532529831 -0.959425866604 -0.557785391808 0.001380 -0.686096 -0.727510
0.370664387941 -0.994511604309 -0.524754405022 -0.001380 -0.686096 -0.727510
0.428746104240 -0.993692815304 -0.525525212288 -0.001380 -0.686096 -0.727510
0.676261246204 -0.969716489315 -0.548097372055 -0.001380 -0.686096 -0.727510
0.301769703627 -1.207565307617 -0.471090763807 -0.001116 -0.155160 -0.987889
0.380136668682 -1.075093388557 -0.491983771324 -0.001116 -0.155160 -0.987889
0.056092619896 -1.090830445290 -0.489501714706 -0.001116 -0.155160 -0.987889
0.046960681677 -1.426081180573 -0.436627238989 -0.001116 -0.155160 -0.987889
0.551688313484 -1.091817140579 -0.489346206188 -0.001116 -0.155160 -0.987889
0.269894838333 -1.166474223137 -0.477571517229 -0.001116 -0.155160 -0.987889
0.066628485918 -1.091043353081 -0.489468127489 -0.001116 -0.155160 -0.987889
0.406084418297 -1.080024600029 -0.491206020117 -0.001116 -0.155160 -0.987889
0.138881564140 -1.637621879578 -0.403263866901 -0.001116 -0.155160 -0.987889
0.167771220207 -1.295546054840 -0.457214742899 -0.001116 -0.155160 -0.987889
0.009441167116 -1.230402588844 -0.467488914728 -0.001116 -0.155160 -0.987889
0.045516356826 -1.675589442253 -0.397275745869 -0.001116 -0.155160 -0.987889
0.140917986631 -1.358330130577 -0.447312682867 -0.001116 -0.155160 -0.987889
0.155215829611 -1.281479597092 -0.459433257580 -0.001116 -0.155160 -0.987889
0.506066858768 -1.116038680077 -0.485526084900 -0.001116 -0.155160 -0.987889
0.320327818394 -1.042075037956 -0.497191280127 -0.001116 -0.155160 -0.987889
0.103215739131 -1.633824467659 -0.403862774372 -0.001116 -0.155160 -0.987889
0.097249336541 -1.765959978104 -0.383022874594 -0.001116 -0.155160 -0.987889
0.032389760017 -1.483443260193 -0.427580296993 -0.001116 -0.155160 -0.987889
0.118420004845 -1.436146616936 -0.435039758682 -0.001116 -0.155160 -0.987889
0.300583481789 -1.098774552345 -0.488248854876 -0.001116 -0.155160 -0.987889
0.429501116276 -1.260713338852 -0.462708503008 -0.001116 -0.155160 -0.987889
0.182234629989 -1.372818589211 -0.445027619600 -0.001116 -0.155160 -0.987889
0.074766591191 -1.569718003273 -0.413973391056 -0.001116 -0.155160 -0.987889
0.189594268799 -1.430091261864 -0.435994803905 -0.001116 -0.155160 -0.987889
0.255120396614 -1.106067657471 -0.487098604441 -0.001116 -0.155160 -0.987889
0.439490973949 -1.224487185478 -0.468421965837 -0.001116 -0.155160 -0.987889
0.278249740601 -1.204726576805 -0.471538484097 -0.001116 -0.155160 -0.987889
0.284768581390 -1.404039502144 -0.440103650093 -0.001116 -0.155160 -0.987889
0.471036851406 -1.721743822098 -0.382352799177 0.024199 -0.169394 -0.985251
0.248546272516 -1.584157228470 -0.411602735519 0.024199 -0.169394 -0.985251
0.480437725782 -1.641768455505 -0.395960807800 0.024199 -0.169394 -0.985251
0.502221226692 -1.270739078522 -0.459626466036 0.024199 -0.169394 -0.985251
0.190426900983 -1.749716997147 -0.384378165007 0.024199 -0.169394 -0.985251
0.509029626846 -1.180074453354 -0.475147426128 0.024199 -0.169394 -0.985251
0.214877292514 -1.752317786217 -0.383329927921 0.024199 -0.169394 -0.985251
0.311845093966 -1.895856857300 -0.356121152639 0.024199 -0.169394 -0.985251
0.568027675152 -1.224871397018 -0.465952843428 0.024199 -0.169394 -0.985251
0.444876283407 -1.777966380119 -0.373264759779 0.024199 -0.169394 -0.985251
0.553828895092 -1.425918698311 -0.431513309479 0.024199 -0.169394 -0.985251
0.310523748398 -1.917332649231 -0.352437555790 0.024199 -0.169394 -0.985251
0.193280830979 -1.673274636269 -0.397535055876 0.024199 -0.169394 -0.985251
0.471055686474 -1.600806951523 -0.403277814388 0.024199 -0.169394 -0.985251
0.414389103651 -1.719519138336 -0.384123682976 0.024199 -0.169394 -0.985251
0.561924338341 -1.122580766678 -0.483801335096 0.024199 -0.169394 -0.985251
0.277748614550 -1.822759628296 -0.369603246450 0.024199 -0.169394 -0.985251
0.200415626168 -1.856776952744 -0.365609347820 0.024199 -0.169394 -0.985251
0.579327106476 -1.886039018631 -0.351275563240 0.024199 -0.169394 -0.985251
0.262286365032 -1.650623083115 -0.399766057730 0.024199 -0.169394 -0.985251
0.487048655748 -1.507976174355 -0.418948918581 0.024199 -0.169394 -0.985251
0.051961850375 -1.961598634720 -0.351104378700 0.024199 -0.169394 -0.985251
0.335989892483 -1.595244646072 -0.407544881105 0.024199 -0.169394 -0.985251
0.453599333763 -1.637849807739 -0.397295475006 0.024199 -0.169394 -0.985251
0.540554046631 -1.741558909416 -0.377223372459 0.024199 -0.169394 -0.985251
0.592831790447 -1.125159502029 -0.482598960400 0.024199 -0.169394 -0.985251
0.696319580078 -0.938065886497 -0.555971741676 -0.001240 0.323658 -0.946173
0.104926273227 -0.947735309601 -0.559263467789 -0.001240 0.323658 -0.946173
0.525541424751 -0.395686417818 -0.554320335388 -0.000978 0.000978 -0.999999
0.838672935963 -0.894373297691 -0.554461061954 -0.000978 0.000978 -0.999999
0.361569762230 -0.630602777004 -0.554386556149 -0.000978 0.000978 -0.999999
0.810166656971 -0.852566301823 -0.554449260235 -0.000978 0.000978 -0.999999
0.638108789921 -0.518967866898 -0.554355144501 -0.000978 0.000978 -0.999999
0.173283755779 -0.813782334328 -0.554438054562 -0.000978 0.000978 -0.999999
0.641333103180 -0.214974358678 -0.554269492626 -0.000978 0.000978 -0.999999
0.586492300034 -0.525520920753 -0.554356992245 -0.000978 0.000978 -0.999999
0.621373176575 -0.291022241116 -0.554290890694 -0.000978 0.000978 -0.999999
0.392842352390 -0.753392815590 -0.554421126842 -0.000978 0.000978 -0.999999
0.212225258350 -0.814533233643 -0.554438292980 -0.000978 0.000978 -0.999999
0.746728599072 -0.097072698176 -0.554236292839 -0.000978 0.000978 -0.999999
0.699720501900 -0.926014721394 -0.554469943047 -0.000978 0.000978 -0.999999
0.692963004112 -0.770467877388 -0.554426074028 -0.000978 0.000978 -0.999999
0.684857845306 -0.892721772194 -0.554460525513 -0.000978 0.000978 -0.999999
0.693701386452 -0.473616361618 -0.554342389107 -0.000978 0.000978 -0.999999
0.276345193386 -0.794289410114 -0.554432570934 -0.000978 0.000978 -0.999999
0.731389999390 -0.329036235809 -0.554301619530 -0.000978 0.000978 -0.999999
0.688264548779 -0.124400027096 -0.554243981838 -0.000978 0.000978 -0.999999
0.169945836067 -0.923534989357 -0.554468989372 -0.000978 0.000978 -0.999999
0.545668125153 -0.396540641785 -0.554320573807 -0.000978 0.000978 -0.999999
0.586482644081 -0.767628669739 -0.554425239563 -0.000978 0.000978 -0.999999
0.517790675163 -0.360167682171 -0.554310321808 -0.000978 0.000978 -0.999999
0.755419373512 -0.404051423073 -0.554322838783 -0.000978 0.000978 -0.999999
0.418928891420 -0.922056674957 -0.554468691349 -0.000978 0.000978 -0.999999
0.588488399982 -0.295990139246 -0.554292261600 -0.000978 0.000978 -0.999999
0.524129271507 -0.461599797010 -0.554338932037 -0.000978 0.000978 -0.999999
0.434729784727 -0.816683471203 -0.554438948631 -0.000978 0.000978 -0.999999
0.437356889248 -0.695474684238 -0.554404795170 -0.000978 0.000978 -0.999999
0.549620270729 -0.838968396187 -0.554445326328 -0.000978 0.000978 -0.999999
0.657169163227 -0.909529387951 -0.554465293884 -0.000978 0.000978 -0.999999
0.227156102657 -0.745694875717 -0.554418921471 -0.000978 0.000978 -0.999999
0.472667515278 -0.487456798553 -0.554346203804 -0.000978 0.000978 -0.999999
0.614674866199 -0.628360033035 -0.554385960102 -0.000978 0.000978 -0.999999
0.783160865307 -0.113366886973 -0.554240882397 -0.000978 0.000978 -0.999999
0.802497684956 -0.752645611763 -0.554421067238 -0.000978 0.000978 -0.999999
0.814918100834 -0.557447016239 -0.554366111755 -0.000978 0.000978 -0.999999
0.815553128719 -0.000652823597 -0.554209113121 -0.000978 0.000978 -0.999999
0.661512434483 -0.670629143715 -0.554397940636 -0.000978 0.000978 -0.999999
0.733398854733 -0.470234185457 -0.554341435432 -0.000978 0.000978 -0.999999
0.632762432098 -0.337747991085 -0.554304063320 -0.000978 0.000978 -0.999999
0.856660485268 -0.815385878086 -0.554438769817 -0.000978 0.000978 -0.999999
0.597601532936 -0.661996722221 -0.554395496845 -0.000978 0.000978 -0.999999
0.504864513874 -0.470619142056 -0.554341495037 -0.000978 0.000978 -0.999999
0.251743078232 0.078570879996 -0.554186642170 -0.000978 0.000978 -0.999999
0.174338161945 -0.411922186613 -0.554324865341 -0.000978 0.000978 -0.999999
0.676151335239 0.050133708864 -0.554194748402 -0.000978 0.000978 -0.999999
0.329724341631 -0.456863403320 -0.554337561131 -0.000978 0.000978 -0.999999
0.224354416132 -0.513165771961 -0.554353356361 -0.000978 0.000978 -0.999999
0.080096513033 -0.357448309660 -0.554309427738 -0.000978 0.000978 -0.999999
0.553296446800 0.027121514082 -0.554201245308 -0.000978 0.000978 -0.999999
0.100069433451 -0.427925139666 -0.554329276085 -0.000978 0.000978 -0.999999
0.550081491470 -0.024227321148 -0.554215669632 -0.000978 0.000978 -0.999999
0.681245744228 -0.004674077034 -0.554210245609 -0.000978 0.000978 -0.999999
0.029474556446 -0.005380523857 -0.554210245609 -0.000978 0.000978 -0.999999
0.406488806009 -0.343649834394 -0.554305672646 -0.000978 0.000978 -0.999999
0.513477802277 -0.279778867960 -0.554287672043 -0.000978 0.000978 -0.999999
0.634085357189 -0.087038688362 -0.554233431816 -0.000978 0.000978 -0.999999
0.325510680676 0.023717496544 -0.554202139378 -0.000978 0.000978 -0.999999
0.226658046246 -0.440785109997 -0.554332971573 -0.000978 0.000978 -0.999999
0.191233992577 -0.259452164173 -0.554281830788 -0.000978 0.000978 -0.999999
0.219624787569 -0.260107666254 -0.554282069206 -0.000978 0.000978 -0.999999
0.167034149170 0.022026093677 -0.554202556610 -0.000978 0.000978 -0.999999
0.081941843033 -0.128831684589 -0.554244995117 -0.000978 0.000978 -0.999999
0.134845912457 -0.560567140579 -0.554366707802 -0.000978 0.000978 -0.999999
0.487995922565 -0.164357662201 -0.554255127907 -0.000978 0.000978 -0.999999
0.121437907219 -0.305564194918 -0.554294824600 -0.000978 0.000978 -0.999999
0.408845067024 -0.438522785902 -0.554332375526 -0.000978 0.000978 -0.999999
0.627072811127 -0.186712831259 -0.554261505604 -0.000978 0.000978 -0.999999
0.141801953316 0.019645122811 -0.554203212261 -0.000978 0.000978 -0.999999
0.021308563650 -0.850871443748 -0.554448485374 -0.000978 0.000978 -0.999999
0.076311677694 -0.680086195469 -0.554400324821 -0.000978 0.000978 -0.999999
0.096819877625 -0.201406314969 -0.554265499115 -0.000978 0.000978 -0.999999
0.301079660654 -0.533642351627 -0.554359197617 -0.000978 0.000978 -0.999999
0.488438814878 0.000850056589 -0.554208636284 -0.000978 0.000978 -0.999999
0.543287694454 -0.243029370904 -0.554277360439 -0.000978 0.000978 -0.999999
0.279713571072 -0.003366521094 -0.554209768772 -0.000978 0.000978 -0.999999
0.096358120441 -0.216035425663 -0.554269611835 -0.000978 0.000978 -0.999999
0.357712596655 -0.066846072674 -0.554227650166 -0.000978 0.000978 -0.999999
0.169273912907 -0.090952195227 -0.554234385490 -0.000978 0.000978 -0.999999
0.694523572922 0.085065998137 -0.554184913635 -0.000978 0.000978 -0.999999
0.103691279888 -0.141214460135 -0.554248511791 -0.000978 0.000978 -0.999999
0.372468054295 -0.345227986574 -0.554306089878 -0.000978 0.000978 -0.999999
0.064451634884 -0.012769100256 -0.554212331772 -0.000978 0.000978 -0.999999
0.524067163467 -0.006348752417 -0.554210662842 -0.000978 0.000978 -0.999999
0.127170294523 -0.490612030029 -0.554346978664 -0.000978 0.000978 -0.999999
0.032534226775 -0.738444745541 -0.554416775703 -0.000978 0.000978 -0.999999
0.366078078747 -0.259548962116 -0.554281949997 -0.000978 0.000978 -0.999999
0.523826777935 0.419358670712 -0.554188311100 -0.000978 -0.000978 -0.999999
0.571337163448 0.492773354053 -0.554189383984 -0.000978 -0.000978 -0.999999
0.435024291277 0.348517477512 -0.554187238216 -0.000978 -0.000978 -0.999999
0.588614523411 0.404824525118 -0.554188132286 -0.000978 -0.000978 -0.999999
0.648438215256 0.390603244305 -0.554187893867 -0.000978 -0.000978 -0.999999
0.730839848518 0.388110578060 -0.554187893867 -0.000978 -0.000978 -0.999999
0.600870072842 0.241076648235 -0.554185748100 -0.000978 -0.000978 -0.999999
0.556939899921 0.209903091192 -0.554185271263 -0.000978 -0.000978 -0.999999
0.825093090534 0.289714276791 -0.554186522961 -0.000978 -0.000978 -0.999999
0.825654327869 0.363152086735 -0.554187595844 -0.000978 -0.000978 -0.999999
0.517953217030 0.278230071068 -0.554186224937 -0.000978 -0.000978 -0.999999
0.544807732105 0.370565235615 -0.554187655449 -0.000978 -0.000978 -0.999999
0.591558158398 0.483715713024 -0.554189264774 -0.000978 -0.000978 -0.999999
0.159619227052 0.184077322483 -0.554184794426 -0.000978 -0.000978 -0.999999
0.383245378733 0.277148008347 -0.554186224937 -0.000978 -0.000978 -0.999999
0.560642004013 0.317162871361 -0.554186880589 -0.000978 -0.000978 -0.999999
0.427594333887 0.412134826183 -0.554188191891 -0.000978 -0.000978 -0.999999
0.410028785467 0.220016077161 -0.554185390472 -0.000978 -0.000978 -0.999999
0.424073547125 0.300028294325 -0.554186522961 -0.000978 -0.000978 -0.999999
0.674347043037 0.226758331060 -0.554185509682 -0.000978 -0.000978 -0.999999
0.638667821884 0.280634641647 -0.554186344147 -0.000978 -0.000978 -0.999999
0.763600289822 0.238396257162 -0.554185748100 -0.000978 -0.000978 -0.999999
0.696332335472 0.603171586990 -0.554190993309 -0.000978 -0.000978 -0.999999
0.533421278000 0.419695526361 -0.554188311100 -0.000978 -0.000978 -0.999999
0.767743527889 0.198296934366 -0.554185152054 -0.000978 -0.000978 -0.999999
0.539856493473 0.116105325520 -0.554183900356 -0.000978 -0.000978 -0.999999
0.766574382782 0.384824156761 -0.554187893867 -0.000978 -0.000978 -0.999999
0.605104386806 0.409854382277 -0.554188191891 -0.000978 -0.000978 -0.999999
0.341709136963 0.413460016251 -0.554188191891 -0.000978 -0.000978 -0.999999
0.577801942825 0.677461922169 -0.554192066193 -0.000978 -0.000978 -0.999999
0.464163631201 0.689072012901 -0.554192185402 -0.000978 -0.000978 -0.999999
0.000974178314 0.488222688437 -0.554189145565 -0.000978 -0.000978 -0.999999
0.128896087408 0.443014442921 -0.554188489914 -0.000978 -0.000978 -0.999999
0.079795539379 0.625006258488 -0.554191112518 -0.000978 -0.000978 -0.999999
0.027318537235 0.432120382786 -0.554188370705 -0.000978 -0.000978 -0.999999
0.165978997946 0.510899722576 -0.554189503193 -0.000978 -0.000978 -0.999999
0.407698541880 0.609951794147 -0.554190993309 -0.000978 -0.000978 -0.999999
0.317754954100 0.654069900513 -0.554191648960 -0.000978 -0.000978 -0.999999
0.434014081955 0.483488917351 -0.554189264774 -0.000978 -0.000978 -0.999999
0.335889309645 0.423419445753 -0.554188311100 -0.000978 -0.000978 -0.999999
0.644480586052 0.624909341335 -0.554191350937 -0.000978 -0.000978 -0.999999
0.194742426276 0.366544276476 -0.554187417030 -0.000978 -0.000978 -0.999999
0.275708049536 0.663573861122 -0.554191768169 -0.000978 -0.000978 -0.999999
0.353844732046 0.706957221031 -0.554192423820 -0.000978 -0.000978 -0.999999
0.232336610556 0.347816944122 -0.554187178612 -0.000978 -0.000978 -0.999999
0.091551661491 0.732721090317 -0.554192721844 -0.000978 -0.000978 -0.999999
0.345125347376 0.723657071590 -0.554192662239 -0.000978 -0.000978 -0.999999
0.250640630722 0.684839725494 -0.554192066193 -0.000978 -0.000978 -0.999999
0.093768395483 0.176766723394 -0.554184675217 -0.000978 -0.000978 -0.999999
0.554980456829 0.679529726505 -0.554192125797 -0.000978 -0.000978 -0.999999
0.310538351536 0.528594911098 -0.554189801216 -0.000978 -0.000978 -0.999999
0.304866671562 0.344747513533 -0.554187178612 -0.000978 -0.000978 -0.999999
0.008633971214 0.345600634813 -0.554187059402 -0.000978 -0.000978 -0.999999
0.021595597267 0.278553605080 -0.554186105728 -0.000978 -0.000978 -0.999999
0.077218309045 0.185148298740 -0.554184794426 -0.000978 -0.000978 -0.999999
-0.401111364365 0.493108630180 -0.554189324379 0.000978 -0.000978 -0.999999
-0.185279697180 0.698114156723 -0.554192245007 0.000978 -0.000978 -0.999999
-0.279723107815 0.525481224060 -0.554189741611 0.000978 -0.000978 -0.999999
-0.229386270046 0.464796721935 -0.554188907146 0.000978 -0.000978 -0.999999
-0.349474281073 0.580056428909 -0.554190576077 0.000978 -0.000978 -0.999999
-0.388635605574 0.564719438553 -0.554190397263 0.000978 -0.000978 -0.999999
-0.233074530959 0.717914938927 -0.554192543030 0.000978 -0.000978 -0.999999
-0.011545700952 0.258792638779 -0.554185807705 0.000978 -0.000978 -0.999999
-0.339972704649 0.539803266525 -0.554190039635 0.000978 -0.000978 -0.999999
-0.235657632351 0.664053678513 -0.554191768169 0.000978 -0.000978 -0.999999
-0.147634297609 0.358777344227 -0.554187297821 0.000978 -0.000978 -0.999999
-0.254847705364 0.305715531111 -0.554186522961 0.000978 -0.000978 -0.999999
-0.248804867268 0.708066582680 -0.554192364216 0.000978 -0.000978 -0.999999
-0.396026045084 0.623523831367 -0.554191231728 0.000978 -0.000978 -0.999999
-0.327964663506 0.401382625103 -0.554187953472 0.000978 -0.000978 -0.999999
-0.113578654826 0.278742223978 -0.554186165333 0.000978 -0.000978 -0.999999
-0.427256584167 0.594773352146 -0.554190814495 0.000978 -0.000978 -0.999999
-0.512401640415 0.595346868038 -0.554190814495 0.000978 -0.000978 -0.999999
-0.072239659727 0.341953217983 -0.554187059402 0.000978 -0.000978 -0.999999
-0.695493698120 0.689542055130 -0.554192245007 0.000978 -0.000978 -0.999999
-0.221137031913 0.552242040634 -0.554190158844 0.000978 -0.000978 -0.999999
-0.087766975164 0.289271324873 -0.554186284542 0.000978 -0.000978 -0.999999
-0.143940716982 0.674884021282 -0.554191887379 0.000978 -0.000978 -0.999999
-0.202700376511 0.657999932766 -0.554191708565 0.000978 -0.000978 -0.999999
-0.374179363251 0.559967994690 -0.554190278053 0.000978 -0.000978 -0.999999
-0.282739013433 0.605131864548 -0.554190933704 0.000978 -0.000978 -0.999999
-0.261995285749 0.561471402645 -0.554190278053 0.000978 -0.000978 -0.999999
-0.244604960084 0.698809981346 -0.554192245007 0.000978 -0.000978 -0.999999
-0.667601287365 0.772090554237 -0.554006040096 0.000981 0.004907 -0.999987
-0.591326355934 0.757536530495 -0.554082393646 0.000981 0.004907 -0.999987
-0.774279475212 0.753787875175 -0.554102122784 0.000981 0.004907 -0.999987
-0.861466586590 0.793365657330 -0.548165977001 0.019243 0.999630 -0.019243
-0.683217167854 0.792123138905 -0.487113535404 0.000987 0.999960 0.008884
-0.681596219540 0.792174935341 -0.492818325758 0.000987 0.999960 0.008884
-0.598114728928 1.041693568230 -0.378008276224 -0.999999 0.000978 0.000978
-0.598144233227 0.872768580914 -0.416151046753 -0.999999 0.000978 0.000978
-0.598140716553 0.893212437630 -0.451031386852 -0.999999 0.000978 0.000978
-0.598155260086 0.809759795666 -0.442031890154 -0.999999 0.000978 0.000978
-0.598075509071 1.265786290169 -0.249807924032 -0.999999 0.000978 0.000978
-0.598141372204 0.889375269413 -0.467519909143 -0.999999 0.000978 0.000978
-0.598111331463 1.092369198799 -0.496721684933 -0.999999 0.000978 0.000978
-0.598041892052 1.513804793358 -0.350245416164 -0.999999 0.000978 0.000978
-0.598071515560 1.315075993538 -0.362221688032 -0.999999 0.000978 0.000978
-0.598086953163 1.215162634850 -0.378957957029 -0.999999 0.000978 0.000978
-0.598107397556 1.123106837273 -0.505906403065 -0.999999 0.000978 0.000978
-0.598094522953 1.171838402748 -0.401442170143 -0.999999 0.000978 0.000978
-0.598098218441 1.141691803932 -0.388458758593 -0.999999 0.000978 0.000978
-0.598068535328 1.352323532104 -0.405753463507 -0.999999 0.000978 0.000978
-0.598038136959 1.505919218063 -0.262333512306 -0.999999 0.000978 0.000978
-0.598023056984 1.640595793724 -0.343617767096 -0.999999 0.000978 0.000978
-0.598023414612 1.575633406639 -0.178675889969 -0.999999 0.000978 0.000978
-0.598065078259 1.386266350746 -0.433890879154 -0.999999 0.000978 0.000978
-0.598111033440 1.067462801933 -0.425082445145 -0.999999 0.000978 0.000978
-0.446959644556 1.216336250305 -0.500821113586 0.001098 0.132811 -0.991141
-0.477179169655 0.956539690495 -0.535443425179 0.001098 0.132811 -0.991141
-0.295280963182 0.951532006264 -0.536084473133 0.001098 0.132811 -0.991141
-0.491799116135 1.433160066605 -0.471935689449 0.001098 0.132811 -0.991141
-0.422614872456 1.200664520264 -0.502905845642 0.001098 0.132811 -0.991141
-0.404825538397 1.341904878616 -0.484082937241 0.001098 0.132811 -0.991141
-0.594801068306 1.009965658188 -0.528341352940 0.001098 0.132811 -0.991141
-0.451125621796 1.012933492661 -0.527925133705 0.001098 0.132811 -0.991141
-0.544228434563 1.176131725311 -0.506192386150 0.001098 0.132811 -0.991141
-0.473201006651 1.380812168121 -0.478908360004 0.001098 0.132811 -0.991141
-0.024252070114 0.826824963093 -0.552662611008 0.001098 0.132811 -0.991141
-0.090369090438 0.891853213310 -0.544007122517 0.001098 0.132811 -0.991141
-0.549356520176 0.973024368286 -0.533257246017 0.001098 0.132811 -0.991141
-0.341123104095 1.215330719948 -0.500939786434 0.001098 0.132811 -0.991141
-0.278896749020 1.062402009964 -0.521308660507 0.001098 0.132811 -0.991141
-0.227589353919 0.917224287987 -0.540646195412 0.001098 0.132811 -0.991141
-0.531961500645 1.499064445496 -0.463159680367 0.001098 0.132811 -0.991141
-0.577558934689 1.163121581078 -0.507930755615 0.001098 0.132811 -0.991141
-0.536291122437 1.107298374176 -0.515363276005 0.001098 0.132811 -0.991141
-0.140741720796 0.953168153763 -0.535844147205 0.001098 0.132811 -0.991141
-0.203523218632 0.828886270523 -0.552413821220 0.001098 0.132811 -0.991141
-0.496529102325 1.071406841278 -0.520140111446 0.001098 0.132811 -0.991141
-0.587743878365 0.879317045212 -0.545749306679 0.001098 0.132811 -0.991141
-0.293632358313 0.934261143208 -0.538385570049 0.001098 0.132811 -0.991141
-0.463545471430 1.167211174965 -0.507369399071 0.001098 0.132811 -0.991141
-0.492291688919 1.360848426819 -0.481571316719 0.001098 0.132811 -0.991141
-0.510853350163 1.035706520081 -0.524899244308 0.001098 0.132811 -0.991141
-0.377630800009 0.792088091373 -0.524461805820 -0.000987 -0.999960 -0.008884
-0.101499170065 0.791708767414 -0.516112446785 -0.000987 -0.999960 -0.008884
-0.184071943164 0.792074382305 -0.544870913029 -0.000987 -0.999960 -0.008884
-0.198611870408 0.791716873646 -0.505993247032 -0.000987 -0.999960 -0.008884
-0.173997744918 0.791210830212 -0.456067532301 -0.000987 -0.999960 -0.008884
-0.472780048847 0.791477262974 -0.450092196465 -0.000987 -0.999960 -0.008884
-0.404985606670 0.791138768196 -0.422486811876 -0.000987 -0.999960 -0.008884
-0.436806201935 0.791848719120 -0.492849767208 -0.000987 -0.999960 -0.008884
-0.526957631111 0.791564166546 -0.453029274940 -0.000987 -0.999960 -0.008884
0.228627905250 0.791461229324 -0.475985258818 0.000987 -0.999960 -0.008884
0.026120593771 0.791858971119 -0.540260493755 0.000987 -0.999960 -0.008884
0.494228154421 0.792280793190 -0.531376063824 0.000987 -0.999960 -0.008884
0.045216567814 0.791974306107 -0.550122439861 0.000987 -0.999960 -0.008884
0.316756874323 0.939524710178 -0.537687480450 -0.001098 0.132811 -0.991141
0.446673274040 1.250476121902 -0.496271878481 -0.001098 0.132811 -0.991141
0.497294366360 1.067692518234 -0.520635187626 -0.001098 0.132811 -0.991141
0.159594476223 0.880601942539 -0.545516371727 -0.001098 0.132811 -0.991141
0.333315730095 1.085321545601 -0.518262445927 -0.001098 0.132811 -0.991141
0.516262829304 1.218890666962 -0.500490665436 -0.001098 0.132811 -0.991141
0.154955118895 0.904572367668 -0.542321622372 -0.001098 0.132811 -0.991141
0.182778269053 0.944882273674 -0.536954343319 -0.001098 0.132811 -0.991141
0.489533543587 0.891621828079 -0.544095516205 -0.001098 0.132811 -0.991141
0.055977053940 0.868734240532 -0.547082781792 -0.001098 0.132811 -0.991141
0.450262218714 1.203093051910 -0.502586185932 -0.001098 0.132811 -0.991141
0.456289708614 1.032566308975 -0.525309801102 -0.001098 0.132811 -0.991141
0.588684558868 1.303832054138 -0.489182680845 -0.001098 0.132811 -0.991141
0.568853795528 1.356887817383 -0.482110112906 -0.001098 0.132811 -0.991141
0.512355923653 1.196694970131 -0.503447711468 -0.001098 0.132811 -0.991141
0.193013966084 0.997104644775 -0.529997169971 -0.001098 0.132811 -0.991141
0.396865755320 1.138954043388 -0.511125028133 -0.001098 0.132811 -0.991141
0.542090892792 0.994180023670 -0.530437171459 -0.001098 0.132811 -0.991141
0.381245881319 1.166601657867 -0.507438719273 -0.001098 0.132811 -0.991141
0.469084739685 0.977206885815 -0.532688319683 -0.001098 0.132811 -0.991141
0.239122346044 1.090149879456 -0.517605543137 -0.001098 0.132811 -0.991141
0.420497983694 1.344433307648 -0.483748257160 -0.001098 0.132811 -0.991141
0.524475514889 1.244778752327 -0.497042298317 -0.001098 0.132811 -0.991141
0.419130682945 0.894434034824 -0.543710649014 -0.001098 0.132811 -0.991141
0.443249166012 0.853295266628 -0.549195885658 -0.001098 0.132811 -0.991141
0.499934315681 1.374411225319 -0.479765176773 -0.001098 0.132811 -0.991141
0.507448375225 1.671772599220 -0.440142780542 -0.001098 0.132811 -0.991141
0.053582713008 1.134674072266 -0.511645913124 -0.001098 0.132811 -0.991141
0.046556353569 1.425130486488 -0.472941428423 -0.001098 0.132811 -0.991141
0.224314928055 1.300581455231 -0.489563286304 -0.001098 0.132811 -0.991141
0.075505197048 1.430906772614 -0.472175925970 -0.001098 0.132811 -0.991141
0.319032847881 1.351188778877 -0.482833474874 -0.001098 0.132811 -0.991141
0.398515313864 1.508688807487 -0.461858034134 -0.001098 0.132811 -0.991141
0.173339605331 1.234727263451 -0.498331010342 -0.001098 0.132811 -0.991141
0.045052751899 0.987783610821 -0.531217813492 -0.001098 0.132811 -0.991141
0.059741482139 1.058032155037 -0.521859288216 -0.001098 0.132811 -0.991141
0.393959224224 1.633978009224 -0.445162534714 -0.001098 0.132811 -0.991141
0.112371146679 1.605790019035 -0.448877990246 -0.001098 0.132811 -0.991141
0.192946225405 1.145377993584 -0.510239660740 -0.001098 0.132811 -0.991141
0.116158261895 1.225418329239 -0.499563157558 -0.001098 0.132811 -0.991141
0.378615319729 1.680451989174 -0.438967645168 -0.001098 0.132811 -0.991141
0.498833715916 1.541172266006 -0.457544058561 -0.001098 0.132811 -0.991141
0.266913175583 1.532777070999 -0.458629250526 -0.001098 0.132811 -0.991141
0.055355623364 1.155226469040 -0.508907496929 -0.001098 0.132811 -0.991141
0.278200685978 1.328758835793 -0.485816419125 -0.001098 0.132811 -0.991141
0.103721052408 1.208830952644 -0.501771688461 -0.001098 0.132811 -0.991141
0.036108106375 1.255741000175 -0.495511114597 -0.001098 0.132811 -0.991141
0.189804404974 1.578895330429 -0.452472895384 -0.001098 0.132811 -0.991141
0.321504890919 1.586615204811 -0.451463222504 -0.001098 0.132811 -0.991141
0.043326772749 1.008138895035 -0.528505206108 -0.001098 0.132811 -0.991141
0.361969769001 1.642161250114 -0.444067507982 -0.001098 0.132811 -0.991141
0.174608409405 1.319019317627 -0.487099260092 -0.001098 0.132811 -0.991141
-0.296002686024 1.574409008026 -0.453085958958 0.001098 0.132811 -0.991141
-0.088816396892 1.672466754913 -0.439989864826 0.001098 0.132811 -0.991141
-0.068240985274 1.226302146912 -0.499438494444 0.001098 0.132811 -0.991141
-0.149077206850 1.551691412926 -0.456091910601 0.001098 0.132811 -0.991141
-0.418027460575 1.478142261505 -0.465931147337 0.001098 0.132811 -0.991141
-0.268937230110 1.657971262932 -0.441947340965 0.001098 0.132811 -0.991141
-0.312184005976 1.339056491852 -0.484449118376 0.001098 0.132811 -0.991141
-0.189061909914 1.407498359680 -0.475311487913 0.001098 0.132811 -0.991141
-0.228318199515 1.320612668991 -0.486894637346 0.001098 0.132811 -0.991141
-0.171629026532 1.346602439880 -0.483423322439 0.001098 0.132811 -0.991141
-0.239115342498 1.451099514961 -0.469508796930 0.001098 0.132811 -0.991141
-0.265106588602 1.586154937744 -0.451516389847 0.001098 0.132811 -0.991141
-0.193210706115 1.139345526695 -0.511043488979 0.001098 0.132811 -0.991141
-0.465068280697 1.656195163727 -0.442212313414 0.001098 0.132811 -0.991141
-0.043921228498 1.213882803917 -0.501089930534 0.001098 0.132811 -0.991141
-0.030558122322 1.265959382057 -0.494148761034 0.001098 0.132811 -0.991141
-0.006620412227 0.813887059689 -0.554384052753 0.001098 0.132811 -0.991141
-0.008869609796 1.631534576416 -0.445432603359 0.001098 0.132811 -0.991141
-0.058670002967 0.899574160576 -0.542973697186 0.001098 0.132811 -0.991141
-0.059240877628 1.527386426926 -0.459317624569 0.001098 0.132811 -0.991141
-0.465101689100 1.609870195389 -0.448385149240 0.001098 0.132811 -0.991141
-0.161670818925 1.058036565781 -0.521873414516 0.001098 0.132811 -0.991141
-0.313487321138 1.411348700523 -0.474816352129 0.001098 0.132811 -0.991141
-0.134740114212 1.450390100479 -0.469588339329 0.001098 0.132811 -0.991141
-0.366269260645 1.398375391960 -0.476552605629 0.001098 0.132811 -0.991141
-0.260272175074 1.638539195061 -0.444535434246 0.001098 0.132811 -0.991141
-0.225201740861 1.311238050461 -0.488143384457 0.001098 0.132811 -0.991141
0.598025679588 1.657586932182 -0.433249682188 0.999999 0.000978 0.000978
0.598069012165 1.327749490738 -0.349600791931 0.999999 0.000978 0.000978
0.598082244396 1.273151636124 -0.444037944078 0.999999 0.000978 0.000978
0.598023235798 1.614409685135 -0.276537120342 0.999999 0.000978 0.000978
0.598052382469 1.469637393951 -0.421113461256 0.999999 0.000978 0.000978
0.598068296909 1.328660488129 -0.338747292757 0.999999 0.000978 0.000978
0.598075926304 1.305850982666 -0.416018962860 0.999999 0.000978 0.000978
0.598104715347 1.123928427696 -0.457444638014 0.999999 0.000978 0.000978
0.598034024239 1.514432549477 -0.209622606635 0.999999 0.000978 0.000978
0.598027288914 1.617255091667 -0.357160717249 0.999999 0.000978 0.000978
0.598089218140 1.197395682335 -0.370942860842 0.999999 0.000978 0.000978
0.598073184490 1.305098414421 -0.365384697914 0.999999 0.000978 0.000978
0.598033845425 1.552924990654 -0.306361973286 0.999999 0.000978 0.000978
0.598119199276 1.043104410172 -0.505394339561 0.999999 0.000978 0.000978
0.598061561584 1.345960617065 -0.238941192627 0.999999 0.000978 0.000978
0.598138451576 0.906601607800 -0.425878524780 0.999999 0.000978 0.000978
0.598054587841 1.385859131813 -0.208051443100 0.999999 0.000978 0.000978
0.598109066486 1.074458003044 -0.350532948971 0.999999 0.000978 0.000978
0.598127722740 0.967992365360 -0.382937848568 0.999999 0.000978 0.000978
0.598120033741 1.011573553085 -0.356405258179 0.999999 0.000978 0.000978
0.598147988319 0.861288011074 -0.317998230457 0.999999 0.000978 -0.000978
0.598142206669 0.885079383850 -0.366518110037 0.999999 0.000978 -0.000978
0.598058223724 1.097046494484 -0.232178941369 0.999999 -0.000979 0.000979
0.598047375679 1.382578611374 -0.186373203993 0.999999 -0.000979 0.000979
0.598071336746 1.030692815781 -0.192813187838 0.999999 0.000978 -0.000978
0.598080635071 0.871866226196 -0.217148274183 0.999999 0.000978 -0.000978
0.598082900047 0.890461623669 -0.207321375608 0.999999 0.000978 -0.000978
0.598061740398 1.132833838463 -0.139496937394 0.999999 0.000978 0.000978
0.598086535931 0.913870096207 -0.162000358105 0.999999 0.000978 0.000978
0.598070144653 1.069275379181 -0.152238830924 0.999999 0.000978 0.000978
0.598057210445 1.227007031441 -0.098642461002 0.999999 0.000978 -0.000978
0.598059892654 1.125925302505 -0.052216157317 0.999999 0.000978 0.000978
0.598036110401 1.350043535233 -0.087644740939 0.999999 0.000978 0.000978
0.645564854145 1.561231613159 -0.142026260495 -0.061805 -0.711481 -0.699982
0.611907243729 1.601204514503 -0.146387249231 0.000978 0.000978 -0.999999
0.784932732582 1.607579708099 -0.146387442946 0.000978 0.000978 -0.999999
0.853343307972 1.609930872917 -0.146387502551 0.000978 0.000978 -0.999999
0.681055843830 1.668105125427 -0.146387338638 0.000978 0.000978 -0.999999
0.786734223366 1.496011614799 -0.101988039911 -0.071535 -0.500748 -0.862632
0.704264581203 1.474992156029 -0.082977831364 -0.071535 -0.500748 -0.862632
0.833880603313 1.490519285202 -0.102962166071 -0.093160 -0.432431 -0.896842
0.761423230171 1.390511512756 -0.057421233505 -0.058861 -0.135033 -0.989091
0.733599245548 1.399734139442 -0.057041019201 -0.058861 -0.135033 -0.989091
0.662685930729 1.313887596130 -0.041565220803 -0.063012 -0.118005 -0.991012
0.738753318787 1.305897235870 -0.045418370515 -0.063012 -0.118005 -0.991012
0.665386795998 1.252088785172 -0.041210036725 -0.048346 0.005143 -0.998817
0.626112461090 1.257871031761 -0.039285093546 -0.048346 0.005143 -0.998817
0.667431533337 1.242121100426 -0.041366156191 -0.048346 0.005143 -0.998817
0.793748140335 1.220399856567 -0.047579463571 -0.048346 0.005143 -0.998817
0.732296943665 1.208648562431 -0.044684588909 -0.048346 0.005143 -0.998817
0.693973541260 1.107123136520 -0.050376746804 -0.040572 0.158810 -0.986475
0.689064562321 1.126251697540 -0.047096464783 -0.040572 0.158810 -0.986475
0.722445785999 1.037182092667 -0.062790103257 -0.040479 0.158447 -0.986537
0.830420136452 1.030487895012 -0.068290695548 -0.040479 0.158447 -0.986537
0.755008697510 1.001683592796 -0.077698387206 -0.025643 0.481812 -0.875899
0.617760539055 0.940697431564 -0.107234373689 -0.025643 0.481812 -0.875899
0.743112385273 0.945549905300 -0.107194468379 -0.017330 0.457249 -0.889170
0.835993707180 0.919282555580 -0.128941401839 -0.015369 0.697176 -0.716736
0.634476602077 0.918251037598 -0.125769659877 -0.015369 0.697176 -0.716736
0.729726016521 0.860788464546 -0.188341274858 -0.043972 0.750353 -0.659573
0.751968383789 0.850541591644 -0.210034191608 -0.047464 0.890965 -0.451585
0.694931805134 0.850024163723 -0.205170139670 -0.047464 0.890965 -0.451585
0.853232026100 0.845476806164 -0.233230099082 -0.057968 0.907259 -0.416557
0.839346230030 0.829129099846 -0.267270535231 -0.067361 0.959579 -0.273258
0.640867531300 0.797750413418 -0.326917201281 -0.050549 0.939685 -0.338286
0.801603555679 0.806586623192 -0.345569431782 -0.065615 0.997135 -0.037648
0.729712069035 0.797858417034 -0.385155230761 -0.033384 0.986550 -0.160012
0.873268663883 0.801992416382 -0.396040022373 -0.037497 0.997429 -0.061067
0.745740890503 0.794311225414 -0.441051155329 -0.037497 0.997429 -0.061067
0.862705588341 0.793607890606 -0.536159098148 -0.019243 0.999630 -0.019243
0.620986461639 0.761675834656 -0.554060697556 -0.000981 0.004907 -0.999987
0.659853100777 0.738565146923 -0.554181993008 -0.000981 0.004907 -0.999987
0.124661147594 0.785366892815 -0.553936183453 -0.000981 0.004907 -0.999987
0.630763411522 0.780444622040 -0.553962171078 -0.000981 0.004907 -0.999987
-0.393369495869 0.790293574333 -0.553910374641 0.000981 0.004907 -0.999987
-0.134898275137 0.789648234844 -0.553913712502 0.000981 0.004907 -0.999987
-0.044408846647 0.751887619495 -0.554111838341 0.000981 0.004907 -0.999987
0.664184451103 0.792101860046 -0.488509118557 -0.000987 0.999960 0.008884
0.603725671768 0.792297124863 -0.520293593407 -0.000987 0.999960 0.008884
0.223124265671 0.791083872318 -0.437298864126 0.000987 -0.999960 -0.008884
0.252134382725 0.790792584419 -0.403679877520 0.000987 -0.999960 -0.008884
0.326794505119 0.791154325008 -0.432935506105 0.000987 -0.999960 -0.008884
0.450349986553 0.791437447071 -0.448479294777 0.000987 -0.999960 -0.008884
-0.598050534725 1.410646438599 -0.189661026001 -0.999999 0.000978 -0.000978
-0.598141968250 0.887155950069 -0.359205961227 -0.999999 0.000978 -0.000978
-0.630435049534 0.793698608875 -0.388127297163 0.065615 0.997135 -0.037648
-0.882260143757 0.822805821896 -0.293373793364 0.050549 0.939685 -0.338286
-0.698501467705 0.817505836487 -0.273235499859 0.067361 0.959579 -0.273258
-0.738955259323 0.834529161453 -0.240885585546 0.057968 0.907259 -0.416557
-0.677028775215 0.846051633358 -0.211178138852 0.047464 0.890965 -0.451585
-0.598055899143 1.131076812744 -0.197142049670 -0.999999 0.000978 -0.000978
-0.598085105419 0.855333328247 -0.212143048644 -0.999999 0.000978 -0.000978
-0.598042428493 1.314492940903 -0.174782976508 -0.999999 0.000978 -0.000978
-0.598032891750 1.416542649269 -0.173558652401 -0.999999 -0.000979 0.000979
-0.598115682602 0.862914800644 -0.297095298767 -0.999999 -0.000979 0.000979
-0.598030149937 1.485427498817 -0.145867913961 -0.999999 0.000978 0.000978
-0.598075687885 1.025251150131 -0.159760832787 -0.999999 0.000978 0.000978
-0.598026096821 1.530223846436 -0.146496638656 -0.999999 0.000978 0.000978
-0.794953227043 0.932285964489 -0.115448459983 0.015369 0.697176 -0.716736
-0.729346394539 0.925761938095 -0.120432406664 0.015369 0.697176 -0.716736
-0.813534140587 0.876839518547 -0.175537824631 0.043972 0.750353 -0.659573
-0.739763617516 0.887395918369 -0.158674672246 0.043972 0.750353 -0.659573
-0.736616909504 0.940525770187 -0.109658002853 0.017330 0.457249 -0.889170
-0.893772244453 0.969081103802 -0.097929783165 0.017330 0.457249 -0.889170
-0.608695268631 1.017968535423 -0.064589232206 0.025643 0.481812 -0.875899
-0.745145678520 1.068996667862 -0.058611586690 0.040479 0.158447 -0.986537
-0.706288099289 1.058388590813 -0.058722406626 0.040479 0.158447 -0.986537
-0.661973476410 1.116534829140 -0.047546118498 0.040572 0.158810 -0.986475
-0.667403817177 1.101083517075 -0.050256062299 0.040572 0.158810 -0.986475
-0.598043501377 1.246125936508 -0.063223481178 -0.999999 0.000978 0.000978
-0.598046422005 1.239364624023 -0.067307107151 -0.999999 0.000978 0.000978
-0.598058044910 1.177565813065 -0.109473668039 -0.999999 0.000978 -0.000978
-0.598078846931 1.027361869812 -0.064173191786 -0.999999 0.000978 -0.000978
-0.598033308983 1.335169196129 -0.065974868834 -0.999999 0.000978 0.000978
-0.815306127071 1.264606595039 -0.048357781023 0.048346 0.005143 -0.998817
-0.621675729752 1.231204152107 -0.039225608110 0.048346 0.005143 -0.998817
-0.812243521214 1.181085824966 -0.048708543181 0.048346 0.005143 -0.998817
-0.865182280540 1.198337197304 -0.051159482449 0.048346 0.005143 -0.998817
-0.810143589973 1.374846577644 -0.058206349611 0.063012 -0.118005 -0.991012
-0.846307635307 1.338204383850 -0.056097809225 0.063012 -0.118005 -0.991012
-0.631438553333 1.419996023178 -0.053801178932 0.058861 -0.135033 -0.989091
-0.629571199417 1.367498993874 -0.046574976295 0.058861 -0.135033 -0.989091
-0.767522871494 1.467477917671 -0.084940135479 0.093160 -0.432431 -0.896842
-0.747996687889 1.496693253517 -0.099182903767 0.071535 -0.500748 -0.862632
-0.693551838398 1.465164303780 -0.076390124857 0.071535 -0.500748 -0.862632
-0.694044589996 1.551499366760 -0.136414930224 0.061805 -0.711481 -0.699982
-0.605830729008 1.594620943069 -0.146387234330 0.000978 0.000978 -0.999999
-0.801183819771 1.552099108696 -0.146387264132 0.000978 0.000978 -0.999999
-0.721730768681 1.647234916687 -0.146387308836 0.000978 -0.000978 -0.999999
-0.617544710636 0.792124569416 -0.397573560476 0.033384 0.986550 -0.160012
-0.865017592907 0.801529586315 -0.398393243551 0.037497 0.997429 -0.061067
-0.764094293118 0.797316312790 -0.403488337994 0.037497 0.997429 -0.061067
-0.751713931561 -1.882240414619 -0.349008142948 0.051933 0.977062 -0.206524
0.261982798576 -1.928714156151 -0.529108881950 -0.102747 0.967848 0.229594
0.617211222649 -1.897028565407 -0.479799568653 -0.096581 0.995112 0.020618
0.611855864525 -1.897668838501 -0.473654240370 -0.096581 0.995112 0.020618
0.726671218872 -1.883854866028 -0.421185910702 -0.083009 0.992695 -0.087557
0.765788197517 -1.878426790237 -0.397477447987 -0.083009 0.992695 -0.087557
0.664105653763 -1.878692626953 -0.366288274527 -0.059577 0.976332 -0.207911
0.728600502014 -1.872861385345 -0.357644587755 -0.059577 0.976332 -0.207911
0.816738724709 -1.870142340660 -0.370574921370 -0.059577 0.976332 -0.207911
0.532830357552 -1.893456101418 -0.397775292397 -0.021630 0.940277 -0.339721
0.081577777863 -1.945034503937 -0.510029375553 -0.024025 0.944548 -0.327494
0.828043282032 -1.840497970581 -0.267501175404 -0.003843 0.923713 -0.383066
0.556371390820 -1.881634473801 -0.363186925650 -0.003843 0.923713 -0.383066
0.616378307343 -1.863327264786 -0.318432629108 -0.041559 0.955847 -0.290910
0.604697346687 -1.861001133919 -0.312222868204 0.045456 0.866412 -0.497257
0.322712242603 -1.873168826103 -0.258261650801 -0.089375 0.978225 -0.187320
0.044961810112 -1.906188488007 -0.298206776381 -0.089375 0.978225 -0.187320
0.162906825542 -1.888482689857 -0.261999934912 -0.089375 0.978225 -0.187320
0.048216432333 -1.920730829239 -0.375721901655 -0.089375 0.978225 -0.187320
0.034299671650 -1.914229989052 -0.335123926401 -0.089375 0.978225 -0.187320
0.120146870613 -1.926347970963 -0.439385801554 -0.089375 0.978225 -0.187320
0.323993384838 -1.886260032654 -0.327254384756 -0.089375 0.978225 -0.187320
0.045921504498 -1.916578531265 -0.352937519550 -0.089375 0.978225 -0.187320
0.443179756403 -1.859830856323 -0.246073499322 -0.089375 0.978225 -0.187320
0.080571815372 -1.939904451370 -0.491313815117 -0.089375 0.978225 -0.187320
0.084485054016 -1.915331959724 -0.364827156067 -0.089375 0.978225 -0.187320
0.070508658886 -1.927866220474 -0.423630684614 -0.089375 0.978225 -0.187320
0.202592015266 -1.877593278885 -0.224055156112 -0.089375 0.978225 -0.187320
0.378895133734 -1.876742720604 -0.303738087416 -0.089375 0.978225 -0.187320
-0.177878037095 -1.893778324127 -0.296805769205 0.089375 0.978225 -0.187320
-0.338046520948 -1.868328809738 -0.240296617150 0.089375 0.978225 -0.187320
-0.588708281517 -1.849905967712 -0.263671278954 0.089375 0.978225 -0.187320
-0.030534613878 -1.891663432121 -0.215451791883 0.089375 0.978225 -0.187320
-0.335906296968 -1.888405442238 -0.344145685434 0.089375 0.978225 -0.187320
-0.637671172619 -1.844656348228 -0.259612709284 0.089375 0.978225 -0.187320
-0.155521959066 -1.880711913109 -0.217886120081 0.089375 0.978225 -0.187320
-0.014723349363 -1.950475931168 -0.515113949776 0.089375 0.978225 -0.187320
-0.585287451744 -1.844279170036 -0.232647433877 0.089375 0.978225 -0.187320
-0.099348798394 -1.897416830063 -0.278340458870 0.089375 0.978225 -0.187320
-0.643056392670 -1.843788266182 -0.257648259401 0.089375 0.978225 -0.187320
-0.481965541840 -1.851642131805 -0.221806481481 0.089375 0.978225 -0.187320
-0.334533900023 -1.900419950485 -0.406247884035 0.089375 0.978225 -0.187320
-0.181766644120 -1.918093204498 -0.425669848919 0.089375 0.978225 -0.187320
-0.287593513727 -1.908430814743 -0.424890816212 -0.045456 0.866412 -0.497257
-0.338059872389 -1.904167175293 -0.413314253092 0.041559 0.955847 -0.290910
-0.424371182919 -1.893462896347 -0.390056699514 0.003843 0.923713 -0.383066
-0.589114248753 -1.880756616592 -0.362002670765 0.024025 0.944548 -0.327494
-0.706380665302 -1.870886445045 -0.346798986197 0.021630 0.940277 -0.339721
-0.743883311749 -1.877137541771 -0.382263571024 0.059577 0.976332 -0.207911
-0.212124481797 -1.931657075882 -0.483892083168 0.059577 0.976332 -0.207911
-0.844634532928 -1.863530278206 -0.347560405731 0.059577 0.976332 -0.207911
-0.623418986797 -1.893514990807 -0.431483745575 0.083009 0.992695 -0.087557
-0.259599477053 -1.930508017540 -0.500866353512 0.083009 0.992695 -0.087557
-0.710127770901 -1.884855389595 -0.416706681252 0.083009 0.992695 -0.087557
-0.278544038534 -1.929110884666 -0.508204936981 0.096581 0.995112 0.020618
-0.770823419094 -1.882378578186 -0.471778988838 0.096581 0.995112 0.020618
-0.524455130100 -1.904535293579 -0.513171017170 0.102747 0.967848 0.229594
-0.625343084335 -1.885194420815 -0.532141268253 0.079898 0.684215 0.724890
0.610747873783 1.658352375031 -0.452089279890 0.001108 -0.989410 -0.145143
0.706145048141 1.655323028564 -0.431517332792 0.001108 -0.989410 -0.145143
0.641228079796 1.655992388725 -0.436062604189 0.001108 -0.989410 -0.145143
0.576415121555 1.651623606682 -0.416807830334 0.003551 -0.971852 -0.235565
0.393472492695 1.656165242195 -0.438868433237 0.003551 -0.971852 -0.235565
0.303021192551 1.648227214813 -0.411804825068 0.011052 -0.956645 -0.291046
0.551232933998 1.638419985771 -0.370743215084 0.011052 -0.956645 -0.291046
0.698161244392 1.635079979897 -0.354544520378 0.011052 -0.956645 -0.291046
0.532259702682 1.637242913246 -0.367889761925 0.033089 -0.911941 -0.408984
0.676128268242 1.629695653915 -0.339705407619 0.033089 -0.911941 -0.408984
0.467385202646 1.627255916595 -0.350805729628 0.033089 -0.911941 -0.408984
0.736983120441 1.603156566620 -0.276115804911 0.044702 -0.889983 -0.453797
0.224629551172 1.640262722969 -0.399734377861 0.056811 -0.868795 -0.491902
0.421166479588 1.605790019035 -0.324266672134 0.114129 -0.745544 -0.656612
0.884458303452 1.561159253120 -0.191952750087 0.114129 -0.745544 -0.656612
0.399685829878 1.601804375648 -0.324155300856 0.139718 -0.689576 -0.710608
0.788114130497 1.556982040405 -0.176053985953 -0.357613 -0.373094 0.856104
0.676972627640 1.582963466644 -0.210978254676 -0.357613 -0.373094 0.856104
0.220461368561 1.604520678520 -0.275788903236 0.001215 -0.958392 -0.285453
0.516932010651 1.591425657272 -0.232000291348 0.001215 -0.958392 -0.285453
0.337090194225 1.582993865013 -0.203805148602 0.001215 -0.958392 -0.285453
0.605631649494 1.575856685638 -0.179938837886 0.001215 -0.958392 -0.285453
0.538498222828 1.566907882690 -0.150014534593 0.001215 -0.958392 -0.285453
0.560971617699 1.597480058670 -0.252245634794 0.001215 -0.958392 -0.285453
0.297458827496 1.619090914726 -0.324510753155 0.001215 -0.958392 -0.285453
0.174904346466 1.635861396790 -0.380590051413 0.001215 -0.958392 -0.285453
0.206520378590 1.625130057335 -0.344705313444 0.001215 -0.958392 -0.285453
0.193791300058 1.582921028137 -0.203561291099 0.001215 -0.958392 -0.285453
0.116579860449 1.595113158226 -0.244330957532 0.001215 -0.958392 -0.285453
0.130059301853 1.622898101807 -0.337241768837 0.001215 -0.958392 -0.285453
0.506049990654 1.594422101974 -0.242020010948 0.001215 -0.958392 -0.285453
0.678622901440 1.564375638962 -0.141546919942 0.001215 -0.958392 -0.285453
-0.611217737198 1.588392972946 -0.221859902143 0.001215 -0.958392 -0.285453
-0.162668585777 1.576504588127 -0.182105690241 0.001215 -0.958392 -0.285453
-0.057579837739 1.649636149406 -0.426652163267 0.001215 -0.958392 -0.285453
