0.633480310440 1.041159510612 0.670311391354 -0.566455 -0.650499 -0.505944
0.612705230713 0.871048212051 0.717243254185 -0.465759 -0.033751 -0.884268
0.622397005558 0.554863572121 0.723294973373 -0.457199 0.001318 -0.889364
0.786656677723 0.558401525021 0.307638257742 -0.951320 -0.026321 -0.307080
0.750963807106 1.112744092941 0.345133394003 -0.626658 -0.695378 -0.351779
0.780847847462 -0.673733592033 0.270763009787 -0.982208 0.036378 -0.184237
0.765184640884 -0.713581979275 0.318678677082 -0.803485 -0.491638 0.335714
0.791976988316 0.017348786816 0.285039782524 -0.835348 -0.026148 0.549100
0.779966831207 -0.583596169949 0.276788622141 -0.564081 0.046190 -0.824426
0.686657309532 0.281164228916 0.583278834820 -0.614196 0.693235 -0.377080
0.470721662045 -2.120158672333 -0.139436542988 -0.035504 0.147743 -0.988388
0.558915257454 -2.109650850296 -0.191527307034 -0.039175 0.198248 -0.979369
0.550597429276 -2.115071535110 -0.220836237073 -0.240955 0.894341 0.376954
0.503356277943 -2.092348337173 -0.115610837936 0.993624 -0.052650 -0.099698
-0.533237516880 -2.102491378784 -0.117253057659 -0.040712 -0.166337 0.985228
-0.574562430382 -2.085382461548 -0.116084426641 -0.052840 -0.163217 0.985174
-0.692064344883 -2.051077604294 -0.117251761258 -0.074560 -0.201678 0.976610
-0.671193301678 -2.063168287277 -0.115706346929 0.367875 0.921754 0.122625
-0.502040982246 -2.123522758484 -0.166914016008 0.044120 0.199134 -0.978979
-0.691511034966 -2.052417278290 -0.163936540484 0.061098 0.183293 -0.981158
-0.492532104254 -2.090797185898 -0.204967737198 -0.993624 -0.052650 -0.099698
-0.501030206680 -2.082164525986 -0.157603710890 0.990987 0.086323 0.102437
-0.602866590023 -2.057009696960 -0.214183717966 -0.990987 -0.086323 -0.102437
0.221136495471 -2.156473159790 -0.035063907504 -0.061845 0.271360 -0.960489
0.288125693798 -2.137237787247 -0.033918622881 -0.061845 0.271360 -0.960489
0.328431010246 -2.148463726044 -0.042735625058 0.061562 -0.260066 0.963626
0.094908632338 -2.164996147156 -0.035039730370 0.020521 -0.245040 0.969296
-0.211428523064 -2.147384881973 -0.035166013986 -0.058461 -0.250015 0.966475
-0.343257367611 -2.150474071503 -0.042595453560 0.094718 0.869426 0.484899
0.079249069095 -2.181252717972 -0.062741070986 -0.015933 0.280670 -0.959672
0.135204732418 -2.179516553879 -0.063297376037 -0.022826 0.234266 -0.971904
-0.093406513333 -2.168374538422 -0.059664845467 0.022826 0.234266 -0.971904
-0.345490098000 -2.145759344101 -0.065936528146 0.052704 0.229199 -0.971952
0.237742394209 -2.181885242462 -0.130172982812 -0.039393 0.206512 -0.977651
0.123775050044 -2.184190750122 -0.129262566566 0.015339 -0.218279 0.975766
-0.286796689034 -2.172249794006 -0.133165001869 -0.041332 -0.187766 0.981344
0.073098793626 -2.191096067429 -0.155570134521 0.008295 -0.231079 0.972900
-0.300534099340 -2.179724693298 -0.159791588783 -0.037416 -0.223291 0.974033
-0.288743674755 -2.169153451920 -0.157278418541 -0.036462 -0.184663 0.982125
0.091008007526 -2.207512378693 -0.183705613017 -0.036805 0.948041 0.316014
0.236876308918 -2.183562040329 -0.182231694460 -0.032249 0.216185 -0.975820
0.284314632416 -2.177957773209 -0.182512238622 -0.032617 0.230735 -0.972470
-0.081513620913 -2.196960687637 -0.210966661572 -0.010740 -0.242241 0.970157
-0.327387005091 -2.167345523834 -0.209931448102 -0.030330 -0.243851 0.969338
-0.118570022285 -2.202473163605 -0.236548274755 0.010665 0.231073 -0.972878
-0.302088230848 -2.168796539307 -0.233503237367 0.027644 0.231965 -0.972331
-0.268776655197 -2.188802242279 -0.267130225897 -0.022042 -0.184454 0.982594
-0.116916254163 -2.192692995071 -0.261936694384 0.008045 0.185046 -0.982697
0.225924342871 -2.134620904922 -0.039585437626 0.997201 -0.050669 -0.054981
0.215661689639 -2.171957969666 -0.183606311679 0.001034 0.998136 -0.061026
-0.207375884056 -2.172723054886 -0.259743720293 -0.996059 -0.046912 -0.075277
-0.737095773220 0.853707730770 -0.530134737492 0.064718 0.668753 0.740662
-0.806534767151 0.860648274422 -0.500075817108 0.136767 0.985908 0.096331
-0.750957012177 1.052010416985 0.363214790821 0.501332 0.836569 -0.220952
-0.760444939137 1.107663750648 0.322537809610 0.945535 -0.074339 -0.316917
0.749529004097 1.097136735916 0.357627093792 -0.948322 -0.063221 -0.310947
0.758522987366 1.050047993660 0.338410884142 -0.501332 0.836569 -0.220952
0.079606436193 1.104902148247 0.368315070868 0.001166 -0.975939 0.218041
0.075533442199 1.121969938278 0.444370955229 0.001166 -0.975939 0.218041
-0.021725676954 1.107429981232 0.379579007626 0.001166 -0.975939 0.218041
0.092732287943 1.126609086990 0.465043067932 0.001166 -0.975939 0.218041
-0.129156351089 1.041536450386 0.439861595631 0.993261 0.001083 -0.115898
0.053763289005 1.013719081879 0.449263274670 0.001199 0.964929 -0.262509
-0.006725672632 1.006300806999 0.422014147043 0.001199 0.964929 -0.262509
0.000471897423 0.978609085083 0.320295751095 0.001199 0.964929 -0.262509
0.072563253343 1.003793597221 0.412804454565 0.001199 0.964929 -0.262509
0.057466112077 0.998663842678 0.393961846828 0.001199 0.964929 -0.262509
0.121764250100 1.003620743752 0.366061806679 -0.622082 0.739217 -0.258014
0.118506707251 1.022639870644 0.427531599998 -0.637471 0.726052 -0.257836
0.013996885158 1.079022169113 0.488907277584 0.000985 -0.008867 -0.999960
0.126542419195 1.088975548744 0.356651455164 -0.572533 -0.809240 0.131668
-0.022936299443 1.063689351082 0.266227245331 0.001373 -0.627537 0.778585
-0.114136621356 0.970935046673 0.285202264786 0.001381 0.724826 0.688930
-0.043927848339 0.983582973480 0.271929562092 0.001381 0.724826 0.688930
0.060992501676 1.021337151527 0.265143603086 0.000983 0.006883 0.999976
-0.010984838009 1.002018690109 0.265290796757 0.000983 0.006883 0.999976
0.141928404570 1.011816382408 0.288449078798 -0.994066 -0.001077 -0.108776
0.687088549137 1.104140162468 0.329262763262 0.001244 -0.944109 0.329630
0.677919924259 0.986578047276 0.018295228481 0.750057 -0.614826 0.243729
0.711505353451 1.038974881172 0.190671026707 -0.778085 -0.605177 0.168358
0.716756701469 0.914500296116 -0.213341072202 -0.691378 -0.691378 0.209744
0.678184270859 0.415429979563 -0.281595766544 0.999999 0.000978 0.000978
0.678184270859 0.487493067980 -0.277136474848 0.999999 0.000978 0.000978
0.678184270859 0.628097057343 -0.223332732916 0.999999 0.000978 0.000978
0.723331689835 0.513778448105 -0.197435930371 -0.706905 -0.023891 -0.706905
0.675978124142 0.934921979904 0.083224833012 0.716419 0.686630 -0.123623
0.697461783886 0.879556179047 -0.115867882967 0.001170 0.974705 -0.223492
0.703609347343 0.945845782757 0.156976088881 -0.775451 0.604821 -0.181294
0.738284051418 0.874969422817 -0.264907091856 -0.998831 -0.003080 -0.048248
0.725769102573 0.960443437099 -0.018087899312 -0.998831 -0.003080 -0.048248
0.732191085815 0.912163674831 -0.144383653998 -0.998831 -0.003080 -0.048248
0.678184270859 0.761390686035 -0.261135846376 0.999999 0.000978 0.000978
0.678184270859 0.841816127300 -0.278719842434 0.999999 0.000978 0.000978
0.681299328804 0.452313154936 -0.309083312750 0.724794 -0.035321 0.688060
0.678184270859 0.538085997105 -0.290180027485 -0.999999 0.000978 0.000978
0.660232305527 1.010240554810 0.180528119206 -0.999339 -0.007131 -0.035654
0.674364864826 0.896512508392 -0.185224086046 -0.999339 -0.007131 -0.035654
0.656321763992 1.009169340134 0.282004594803 0.999288 0.003050 0.037613
0.655065417290 1.062072038651 0.310940593481 0.999288 0.003050 0.037613
0.661379396915 0.993902564049 0.149485737085 0.999288 0.003050 0.037613
0.665470242500 1.015447378159 0.126568451524 0.682323 -0.682323 0.262432
0.651602089405 1.056125164032 0.231212452054 -0.757562 -0.625945 0.185182
0.669181227684 0.891257286072 -0.246824577451 -0.690320 -0.690320 0.216602
0.375813782215 0.915416836739 -0.213906228542 0.001244 -0.944109 0.329630
0.578179836273 1.009117603302 0.055776402354 0.001244 -0.944109 0.329630
0.542782545090 1.028935432434 0.112814217806 0.001244 -0.944109 0.329630
0.575905501842 1.051574468613 0.177972346544 0.001244 -0.944109 0.329630
0.338482767344 0.936859250069 -0.152192458510 0.001244 -0.944109 0.329630
0.520288646221 0.990560352802 0.002366065979 0.001244 -0.944109 0.329630
0.595060467720 1.056236147881 0.191389009356 0.001244 -0.944109 0.329630
0.531375527382 0.961354196072 -0.081693083048 0.001244 -0.944109 0.329630
0.477009028196 0.944763600826 -0.129442766309 0.001244 -0.944109 0.329630
0.456442654133 0.993866026402 0.011880002916 0.001244 -0.944109 0.329630
0.434998542070 0.961960971355 -0.079946540296 0.001244 -0.944109 0.329630
0.503428578377 1.028795957565 0.112412735820 0.001244 -0.944109 0.329630
0.619022309780 0.955944120884 -0.097263991833 0.001244 -0.944109 0.329630
0.405295342207 0.901840090752 -0.252982020378 0.001244 -0.944109 0.329630
0.326750636101 1.037038445473 0.136135712266 0.001244 -0.944109 0.329630
0.496995389462 1.054221987724 0.185592040420 0.001244 -0.944109 0.329630
0.259330064058 1.011668562889 0.063117891550 0.001244 -0.944109 0.329630
0.279237657785 1.021680951118 0.091935038567 0.001244 -0.944109 0.329630
0.290243387222 0.926352441311 -0.182432264090 0.001244 -0.944109 0.329630
0.389515876770 1.077720284462 0.253222942352 0.001244 -0.944109 0.329630
0.264987319708 1.052325844765 0.180134862661 0.001244 -0.944109 0.329630
0.261271983385 0.913615226746 -0.219091624022 0.001244 -0.944109 0.329630
0.342857033014 1.083822846413 0.270786911249 0.001244 -0.944109 0.329630
0.283571720123 1.096801161766 0.308140158653 0.001244 -0.944109 0.329630
0.336436033249 1.072413563728 0.237949669361 0.001244 -0.944109 0.329630
0.361953467131 0.995888113976 0.017699986696 0.001244 -0.944109 0.329630
0.503812134266 1.059086799622 0.199593424797 0.001244 -0.944109 0.329630
0.246997728944 1.041127324104 0.165782302618 0.784520 -0.584152 0.208075
0.404273688793 1.100991010666 0.358794480562 0.001374 -0.773712 -0.633537
0.386124968529 1.108748197556 0.349313646555 0.001374 -0.773712 -0.633537
0.641992866993 0.998464763165 0.316856980324 -0.759014 0.624078 -0.185537
0.656891703606 0.898737788200 -0.076882630587 -0.775451 0.604821 -0.181294
0.662275135517 0.726184010506 -0.218830272555 -0.712579 -0.015339 -0.701424
0.677282154560 0.757654368877 -0.234636172652 -0.707024 -0.015340 -0.707024
0.678184270859 0.615008354187 -0.272830992937 -0.999999 0.000978 0.000978
0.678184270859 0.539527297020 -0.253556281328 -0.999999 0.000978 0.000978
0.323141366243 0.408130198717 -0.323315411806 0.001381 0.708486 0.705724
0.647373616695 0.490446597338 -0.325132519007 0.001026 -0.052343 0.998629
0.503822207451 0.544705569744 -0.322275310755 0.001026 -0.052343 0.998629
0.645894706249 0.814729630947 -0.308056294918 0.001026 -0.052343 0.998629
0.508783042431 0.444143354893 -0.327570766211 0.001026 -0.052343 0.998629
0.575279235840 0.549004554749 -0.322048962116 0.001026 -0.052343 0.998629
0.586980640888 0.748795926571 -0.311528265476 0.001026 -0.052343 0.998629
0.321550756693 0.447092264891 -0.327415466309 0.001026 -0.052343 0.998629
0.462932884693 0.427271038294 -0.328459233046 0.001026 -0.052343 0.998629
0.516801595688 0.438946872950 -0.327844411135 0.001026 -0.052343 0.998629
0.437827348709 0.643720865250 -0.317061334848 0.001026 -0.052343 0.998629
0.334644079208 0.692844212055 -0.314474582672 0.001026 -0.052343 0.998629
0.276087194681 0.712155222893 -0.313457697630 0.001026 -0.052343 0.998629
0.318221092224 0.741185426712 -0.311929017305 0.001026 -0.052343 0.998629
0.404752016068 0.656840085983 -0.316370517015 0.001026 -0.052343 0.998629
0.311893343925 0.707426548004 -0.313706696033 0.001026 -0.052343 0.998629
0.274183392525 0.696947693825 -0.314258486032 0.001026 -0.052343 0.998629
0.316846519709 0.742427229881 -0.311863631010 0.001026 -0.052343 0.998629
0.287552118301 0.828132688999 -0.307350516319 0.001026 -0.052343 0.998629
0.454169094563 0.873332262039 -0.299961715937 0.001377 -0.654300 0.756234
0.445516675711 0.882227599621 -0.292279362679 0.001377 -0.654300 0.756234
0.233876362443 1.074451088905 0.315755546093 -0.999987 -0.000981 -0.004907
0.235533714294 0.937798023224 -0.083085209131 -0.999987 -0.000981 -0.004907
0.233928307891 1.020178437233 0.307308554649 -0.999987 -0.000981 -0.004907
0.226799666882 1.026780247688 0.138674676418 -0.784345 -0.587875 0.198005
0.220405161381 0.997613847256 0.031877264380 -0.720746 -0.655082 0.226699
0.201081246138 0.955615043640 -0.098210901022 0.001244 -0.944109 0.329630
0.179778695107 0.995826601982 0.024831730872 0.114498 -0.938883 0.324635
0.128538385034 1.049125075340 0.196609377861 0.114498 -0.938883 0.324635
0.194071501493 0.908881306648 -0.230794787407 0.114498 -0.938883 0.324635
0.141038551927 1.104369163513 0.351372718811 0.114498 -0.938883 0.324635
0.175872355700 0.952524662018 -0.098566927016 0.114498 -0.938883 0.324635
0.089932993054 1.059221506119 0.239405602217 0.114498 -0.938883 0.324635
0.148861736059 1.029444217682 0.132681608200 0.114498 -0.938883 0.324635
0.017595861107 0.991814136505 0.058242723346 0.063221 -0.948322 0.310947
0.010154684074 1.006715416908 0.104992389679 0.063221 -0.948322 0.310947
0.033307678998 0.961079597473 -0.038253560662 0.063221 -0.948322 0.310947
0.064192093909 0.899556756020 -0.231301635504 0.063221 -0.948322 0.310947
0.028001198545 0.992119312286 0.057102598250 0.063221 -0.948322 0.310947
0.057141721249 0.963542521000 -0.035505756736 0.063221 -0.948322 0.310947
0.031955845654 0.975759267807 0.006613396108 0.063221 -0.948322 0.310947
-0.080277033150 0.979770421982 0.009807527065 -0.065952 -0.947903 0.311657
-0.057971768081 0.970417439938 -0.013951674104 -0.065952 -0.947903 0.311657
-0.054498724639 0.957358121872 -0.052902460098 -0.065952 -0.947903 0.311657
-0.105730265379 0.947286844254 -0.094193860888 -0.065952 -0.947903 0.311657
-0.125788733363 0.938604652882 -0.124758139253 -0.065952 -0.947903 0.311657
-0.072257898748 0.973625659943 -0.007186964154 -0.065952 -0.947903 0.311657
-0.007514262572 1.064231872559 0.281598240137 -0.065952 -0.947903 0.311657
-0.029410084710 1.087342023849 0.343853116035 -0.123084 -0.937333 0.325970
-0.173522874713 1.043710589409 0.164028450847 -0.123084 -0.937333 0.325970
-0.122902877629 0.977329611778 -0.007998734713 -0.123084 -0.937333 0.325970
-0.078095898032 1.026921391487 0.151612102985 -0.123084 -0.937333 0.325970
-0.158795028925 0.931127309799 -0.154497921467 -0.123084 -0.937333 0.325970
-0.159042388201 1.060178995132 0.216881483793 -0.123084 -0.937333 0.325970
-0.037190724164 1.061525583267 0.266613036394 -0.123084 -0.937333 0.325970
-0.171230494976 1.034382224083 0.375611007214 0.001055 -0.083307 -0.996523
-0.070861630142 0.966361165047 0.205375075340 -0.108091 0.967731 -0.227627
-0.051063682884 0.964577674866 0.188417270780 -0.108091 0.967731 -0.227627
-0.025632949546 0.918447375298 -0.020757982507 -0.108091 0.967731 -0.227627
-0.074941195548 0.933974027634 0.068858273327 -0.108091 0.967731 -0.227627
-0.042638309300 0.993103146553 0.306378275156 -0.108091 0.967731 -0.227627
-0.083387345076 0.952482402325 0.151955068111 -0.108091 0.967731 -0.227627
0.031757492572 0.978378474712 0.240627855062 0.100048 0.968815 -0.226690
0.127418652177 0.959858655930 0.203964546323 0.100048 0.968815 -0.226690
0.121161215007 0.989329755306 0.327159970999 0.100048 0.968815 -0.226690
0.012493931688 0.926199972630 0.009030401707 0.100048 0.968815 -0.226690
0.104831598699 0.970979332924 0.241465568542 0.100048 0.968815 -0.226690
0.093283101916 0.963652610779 0.205016419291 0.100048 0.968815 -0.226690
-0.000846533105 0.981510281563 0.239529117942 0.100048 0.968815 -0.226690
0.031293042004 1.044481039047 0.374857276678 -0.001052 -0.081042 -0.996710
0.218432858586 0.987299323082 0.346800923347 -0.790330 0.596841 -0.138419
0.236371874809 0.638513565063 -0.288656473160 -0.999999 0.000978 0.000978
0.196310088038 0.737870573997 -0.312124192715 -0.007229 -0.052666 0.998586
0.178922906518 0.616168260574 -0.318652629852 -0.007229 -0.052666 0.998586
0.097630649805 0.699031114578 -0.314849287271 -0.007229 -0.052666 0.998586
0.013530030847 0.843245625496 -0.307834625244 -0.007229 -0.052666 0.998586
0.132489219308 0.507990717888 -0.324515700340 -0.001024 -0.050193 0.998739
0.111500263214 0.442113220692 -0.327821671963 -0.001024 -0.050193 0.998739
0.102750211954 0.621287286282 -0.318880677223 -0.001024 -0.050193 0.998739
-0.002762671560 0.783994436264 -0.310836404562 -0.001024 -0.050193 0.998739
-0.003476505401 0.660688400269 -0.292573094368 -0.999999 0.000978 0.000978
-0.003476505401 0.778005242348 -0.241464301944 -0.999999 0.000978 0.000978
-0.126434832811 0.542226672173 -0.322811216116 0.001024 -0.050193 0.998739
-0.052822228521 0.450858026743 -0.327433466911 0.001024 -0.050193 0.998739
-0.031400386244 0.501943945885 -0.324899613857 0.001024 -0.050193 0.998739
-0.065480723977 0.505964040756 -0.324671328068 0.001024 -0.050193 0.998739
-0.018700210378 0.845905363560 -0.307701528072 0.007229 -0.052666 0.998586
-0.102167144418 0.828496217728 -0.308014035225 0.007229 -0.052666 0.998586
-0.177470490336 0.834164917469 -0.307170391083 0.007229 -0.052666 0.998586
-0.115233287215 0.769890367985 -0.311005532742 0.007229 -0.052666 0.998586
-0.193888470531 0.856417596340 -0.305879741907 0.007229 -0.052666 0.998586
-0.218389153481 0.940978586674 -0.127487808466 0.721254 -0.655544 0.223730
-0.231250211596 0.962082803249 -0.020094543695 0.785522 -0.586462 0.197529
-0.212929591537 0.941609621048 0.154813230038 0.001170 0.974705 -0.223492
-0.130812913179 0.910000383854 -0.010797128081 -0.094157 0.970442 -0.222210
-0.090544812381 0.906997501850 -0.040880583227 -0.094157 0.970442 -0.222210
-0.120624251664 0.881889998913 -0.137694522738 -0.094157 0.970442 -0.222210
-0.080636844039 0.883352994919 -0.148182272911 -0.094157 0.970442 -0.222210
-0.060454163700 0.896953880787 -0.097377814353 -0.094157 0.970442 -0.222210
-0.127705946565 0.854368746281 -0.203595712781 -0.126229 0.628173 -0.767767
-0.134512409568 0.751197636127 -0.200888723135 -0.001009 -0.033281 -0.999445
-0.118546798825 0.723444163799 -0.200000509620 -0.001009 -0.033281 -0.999445
-0.040747914463 0.861044287682 -0.204501390457 -0.001009 -0.033281 -0.999445
-0.038640271872 0.735476613045 -0.200439363718 -0.001009 -0.033281 -0.999445
-0.070457108319 0.544701635838 -0.194240510464 -0.001009 -0.033281 -0.999445
-0.133442968130 0.618826329708 -0.196578487754 -0.001009 -0.033281 -0.999445
-0.183309823275 0.764133751392 -0.201261416078 -0.001009 -0.033281 -0.999445
-0.155021786690 0.643938243389 -0.197370216250 -0.001009 -0.033281 -0.999445
-0.189594149590 0.614359617233 -0.196356326342 -0.001009 -0.033281 -0.999445
-0.114627882838 0.402243196964 -0.252834737301 -0.104070 0.994569 0.001073
0.048330917954 0.408770263195 -0.288383841515 0.099398 0.995047 0.001069
0.108522728086 0.403988391161 -0.199898749590 0.001384 0.707106 -0.707106
0.236371874809 0.435433268547 -0.212826609612 -0.999999 0.000978 0.000978
0.236371874809 0.474516957998 -0.296138823032 -0.999999 0.000978 0.000978
0.236371874809 0.687012314796 -0.255797654390 -0.999999 0.000978 0.000978
0.236371874809 0.549839258194 -0.273283720016 0.999999 0.000978 0.000978
0.236371874809 0.446393042803 -0.260492354631 0.999999 0.000978 0.000978
0.247707366943 0.716727733612 -0.222052156925 0.744964 -0.012532 -0.666987
0.249031856656 0.972313106060 0.223345577717 0.778522 0.610518 -0.145504
0.403343409300 0.904798507690 -0.033766984940 0.001184 0.970072 -0.242814
0.620957612991 0.869997322559 -0.172705948353 0.001184 0.970072 -0.242814
0.286306977272 0.869674921036 -0.173993051052 0.001184 0.970072 -0.242814
0.349046528339 0.941456019878 0.112583331764 0.001184 0.970072 -0.242814
0.401912897825 0.900861263275 -0.049485787749 0.001184 0.970072 -0.242814
0.339093267918 0.952970683575 0.158554226160 0.001184 0.970072 -0.242814
0.316697508097 0.873320817947 -0.159437328577 0.001184 0.970072 -0.242814
0.532704591751 0.886336922646 -0.107472315431 0.001184 0.970072 -0.242814
0.289732456207 0.976321637630 0.251779824495 0.001184 0.970072 -0.242814
0.415200829506 0.872474253178 -0.162817180157 0.001184 0.970072 -0.242814
0.506288886070 0.864880383015 -0.193134561181 0.001184 0.970072 -0.242814
0.500530600548 0.903067350388 -0.040678270161 0.001184 0.970072 -0.242814
0.639311254025 0.889615118504 -0.094384461641 0.001184 0.970072 -0.242814
0.338173091412 0.983024060726 0.278538256884 0.001184 0.970072 -0.242814
0.541349112988 0.979353129864 0.263882458210 0.001184 0.970072 -0.242814
0.424849152565 0.974447548389 0.244297593832 0.001184 0.970072 -0.242814
0.628423273563 0.976786673069 0.253636240959 0.001184 0.970072 -0.242814
0.489473402500 1.002641558647 0.356858342886 0.001184 0.970072 -0.242814
0.650400578976 0.909157752991 -0.016363173723 0.001184 0.970072 -0.242814
0.381013274193 0.973012804985 0.238569557667 0.001184 0.970072 -0.242814
0.541532337666 1.002347946167 0.355686426163 0.001184 0.970072 -0.242814
0.471404016018 0.931339561939 0.072194844484 0.001184 0.970072 -0.242814
0.588603675365 0.934751391411 0.085816055536 0.001184 0.970072 -0.242814
0.413022369146 1.007072687149 0.365561872721 0.001371 0.615457 -0.788169
0.245836094022 0.971383333206 0.202297687531 0.789947 0.595820 -0.144849
0.236371874809 0.841411769390 -0.265759915113 0.999999 0.000978 0.000978
0.236371874809 0.789434611797 -0.288042396307 0.999999 0.000978 0.000978
0.397173255682 0.397145658731 -0.223963141441 0.001381 0.688930 -0.724826
0.602010726929 0.393605709076 -0.274160683155 0.000978 0.999999 0.000978
0.424293100834 0.411905199289 -0.209980368614 0.001381 0.688930 -0.724826
0.397677570581 0.576363563538 -0.211287379265 0.000997 -0.020933 -0.999780
0.373186647892 0.428025066853 -0.208302974701 0.000997 -0.020933 -0.999780
0.444403350353 0.544726133347 -0.210650861263 0.000997 -0.020933 -0.999780
0.255226582289 0.527307510376 -0.210300415754 0.000997 -0.020933 -0.999780
0.531614840031 0.545718669891 -0.210670828819 0.000997 -0.020933 -0.999780
0.353212177753 0.556559622288 -0.210888937116 0.000997 -0.020933 -0.999780
0.331581532955 0.629993855953 -0.212366357446 0.000997 -0.020933 -0.999780
0.494857311249 0.557019650936 -0.210898190737 0.000997 -0.020933 -0.999780
0.301660329103 0.516601026058 -0.210085019469 0.000997 -0.020933 -0.999780
0.443916708231 0.661247909069 -0.212995156646 0.000997 -0.020933 -0.999780
0.410487890244 0.736654698849 -0.214512243867 0.000997 -0.020933 -0.999780
0.628137290478 0.662264585495 -0.213015601039 0.000997 -0.020933 -0.999780
0.453119933605 0.664435029030 -0.213059261441 0.000997 -0.020933 -0.999780
0.433952629566 0.838820695877 -0.216567710042 0.000997 -0.020933 -0.999780
0.607917010784 0.549174785614 -0.210740372539 0.000997 -0.020933 -0.999780
0.580644845963 0.513988018036 -0.210032448173 0.000997 -0.020933 -0.999780
0.321682661772 0.832930147648 -0.216449201107 0.000997 -0.020933 -0.999780
0.603928506374 0.796560168266 -0.215717464685 0.000997 -0.020933 -0.999780
0.406915932894 0.850661337376 -0.208080232143 0.001374 0.633537 -0.773712
0.523423790932 0.860823273659 -0.199765846133 0.001374 0.633537 -0.773712
0.386558711529 0.393605709076 -0.298851728439 0.000978 0.999999 0.000978
0.295654177666 0.393605709076 -0.305759578943 0.000978 0.999999 0.000978
0.248047724366 0.845452547073 -0.298963069916 0.737104 -0.035370 0.674853
0.234741955996 0.974784195423 0.112981572747 0.999995 0.000981 0.002944
0.233840271831 1.057202935219 0.328510820866 0.999995 0.000981 0.002944
0.234071880579 1.058573246002 0.268947541714 0.999995 0.000981 0.002944
0.245753109455 1.068110108376 0.369164317846 0.793994 -0.113008 -0.597330
0.297859430313 1.052034258842 0.378285109997 0.001141 -0.186011 -0.982547
0.318172842264 1.049181580544 0.378826141357 0.001141 -0.186011 -0.982547
0.384023547173 1.025973916054 0.380354106426 0.001371 0.615457 -0.788169
0.420829176903 1.074476838112 0.374028742313 0.001141 -0.186011 -0.982547
0.231527611613 0.428409487009 -0.205308049917 -0.738444 -0.021018 -0.673988
0.225110113621 0.667032718658 -0.206001251936 -0.735768 -0.021022 -0.676907
0.157907649875 0.703461468220 -0.199313431978 0.001009 -0.033281 -0.999445
0.142952576280 0.636925041676 -0.197157457471 0.001009 -0.033281 -0.999445
0.120151393116 0.463590830564 -0.191520050168 0.001009 -0.033281 -0.999445
0.107303917408 0.543890595436 -0.194161862135 0.001009 -0.033281 -0.999445
0.087771691382 0.540506839752 -0.194076433778 0.001009 -0.033281 -0.999445
0.030927561224 0.509925305843 -0.193142086267 0.001009 -0.033281 -0.999445
0.077690407634 0.679482460022 -0.198601350188 0.001009 -0.033281 -0.999445
0.047184877098 0.751808702946 -0.200959771872 0.001009 -0.033281 -0.999445
0.169368579984 0.809520900249 -0.202755302191 0.001009 -0.033281 -0.999445
0.040447864681 0.604166269302 -0.196186095476 0.001009 -0.033281 -0.999445
-0.003476505401 0.612295508385 -0.197614058852 -0.999999 0.000978 0.000978
-0.003476505401 0.477860271931 -0.296264111996 -0.999999 0.000978 0.000978
-0.003476505401 0.526586949825 -0.245081454515 -0.999999 0.000978 0.000978
0.190048202872 0.852863848209 -0.194875508547 0.120102 0.627200 -0.769543
0.026696652174 0.882616519928 -0.171874940395 0.088959 0.971032 -0.221771
0.154943138361 0.889796316624 -0.089176647365 0.088959 0.971032 -0.221771
0.177830502391 0.935557007790 0.119282469153 0.088959 0.971032 -0.221771
0.125916570425 0.886675536633 -0.114407733083 0.088959 0.971032 -0.221771
0.174786955118 0.925609052181 0.074740163982 0.088959 0.971032 -0.221771
0.088706195354 0.890564680099 -0.112393736839 0.088959 0.971032 -0.221771
0.211701288819 0.929809689522 0.103341221809 0.001170 0.974705 -0.223492
0.201453417540 0.808175086975 -0.308401435614 0.001026 -0.052343 0.998629
0.158926978707 0.405290573835 -0.320506811142 -0.001384 0.707106 0.707106
0.078534714878 0.405736386776 -0.308739453554 0.099398 0.995047 0.001069
-0.074893526733 0.406436800957 -0.306326627731 -0.104070 0.994569 0.001073
-0.148874282837 0.413587123156 -0.328810751438 0.001384 0.707106 0.707106
-0.233539119363 0.645942151546 -0.284261584282 0.999999 0.000978 0.000978
-0.233539119363 0.753203630447 -0.227058321238 0.999999 0.000978 0.000978
-0.227212160826 0.537951350212 -0.207223549485 0.738444 -0.021018 -0.673988
-0.223352000117 0.735045731068 -0.209396973252 0.735768 -0.021022 -0.676907
-0.222402304411 0.912137329578 -0.020498812199 0.778522 0.610518 -0.145504
-0.231834203005 0.940763354301 -0.052559643984 0.999976 -0.000983 -0.006883
-0.231808081269 0.930944204330 -0.048114329576 0.999976 -0.000983 -0.006883
-0.229260608554 1.035109758377 0.299170106649 0.999976 -0.000983 -0.006883
-0.229196682572 1.031223416328 0.312879174948 -0.999976 0.000985 0.006896
-0.230318352580 0.995472788811 0.157382175326 -0.999976 0.000985 0.006896
-0.239949002862 0.942118227482 -0.101465195417 -0.720201 -0.654301 0.230653
-0.244761005044 0.994937479496 0.030427528545 -0.782822 -0.585187 0.211532
-0.261816293001 1.097789764404 0.310985326767 0.001244 -0.944109 0.329630
-0.461824715137 1.019867777824 0.086716324091 0.001244 -0.944109 0.329630
-0.403250128031 1.084488868713 0.272703766823 0.001244 -0.944109 0.329630
-0.387820363045 1.051253676414 0.177048906684 0.001244 -0.944109 0.329630
-0.334440112114 1.108569383621 0.342010647058 0.001244 -0.944109 0.329630
-0.509956061840 1.062335371971 0.208943337202 0.001244 -0.944109 0.329630
-0.523961544037 1.071378111839 0.234969347715 0.001244 -0.944109 0.329630
-0.302671194077 0.999971807003 0.029453307390 0.001244 -0.944109 0.329630
-0.515636563301 1.093324422836 0.298133552074 0.001244 -0.944109 0.329630
-0.369221091270 1.035281777382 0.131079867482 0.001244 -0.944109 0.329630
-0.424503177404 0.995738506317 0.017269313335 0.001244 -0.944109 0.329630
-0.300093412399 0.951788783073 -0.109223335981 0.001244 -0.944109 0.329630
-0.453016549349 1.030441999435 0.117150485516 0.001244 -0.944109 0.329630
-0.580089509487 1.065581917763 0.218287408352 0.001244 -0.944109 0.329630
-0.635229051113 0.899178624153 -0.260641843081 0.001244 -0.944109 0.329630
-0.638307988644 0.962999284267 -0.076958291233 0.001244 -0.944109 0.329630
-0.312641888857 0.920070707798 -0.200511991978 0.001244 -0.944109 0.329630
-0.637655794621 0.904013156891 -0.246727526188 0.001244 -0.944109 0.329630
-0.635185718536 0.977172970772 -0.036164529622 0.001244 -0.944109 0.329630
-0.429340183735 0.896512687206 -0.268314629793 0.001244 -0.944109 0.329630
-0.585074603558 0.961710572243 -0.080667316914 0.001244 -0.944109 0.329630
-0.282753616571 0.894199311733 -0.274973034859 0.001244 -0.944109 0.329630
-0.510162115097 0.971259832382 -0.053183168173 0.001244 -0.944109 0.329630
-0.532632946968 1.007257342339 0.050422072411 0.001244 -0.944109 0.329630
-0.529607474804 0.979695260525 -0.028905183077 0.001244 -0.944109 0.329630
-0.571054875851 1.047798514366 0.167104333639 0.001244 -0.944109 0.329630
-0.656879127026 0.897857487202 -0.252920269966 0.690320 -0.690320 0.216602
-0.658806264400 0.987843692303 0.046507269144 0.757562 -0.625945 0.185182
-0.554655551910 1.095313310623 0.365733653307 0.001374 -0.773712 -0.633537
-0.484761714935 1.092479586601 0.369197189808 0.001374 -0.773712 -0.633537
-0.244644567370 1.071107029915 0.373592108488 -0.793994 -0.113008 -0.597330
-0.237281247973 0.983406007290 0.229440093040 -0.788879 0.597997 -0.141670
-0.233539119363 0.657118439674 -0.291606366634 -0.999999 0.000978 0.000978
-0.233704373240 0.859587430954 -0.285656750202 -0.755572 -0.032362 0.654266
-0.413243889809 0.874696969986 -0.298783153296 0.001377 -0.654300 0.756234
-0.669305920601 0.784565925598 -0.294249355793 0.703826 -0.035404 0.709490
-0.674383163452 0.735636711121 -0.260773479939 -0.999999 0.000978 0.000978
-0.665625572205 0.937889456749 -0.058793388307 -0.999288 0.003050 0.037613
-0.658734917641 0.969820439816 0.120852887630 -0.999288 0.003050 0.037613
-0.668415963650 0.998516261578 0.064819566905 -0.682323 -0.682323 0.262432
-0.686302423477 1.023589611053 0.097428262234 0.001244 -0.944109 0.329630
-0.704744637012 0.920457482338 -0.199398666620 0.001244 -0.944109 0.329630
-0.710161983967 0.931873619556 -0.165011614561 0.691378 -0.691378 0.209744
-0.694964349270 1.094333648682 0.330194652081 0.778085 -0.605177 0.168358
-0.688259243965 0.885384976864 -0.101250529289 -0.716419 0.686630 -0.123623
-0.674383163452 0.616524875164 -0.229883804917 -0.999999 0.000978 0.000978
-0.674383163452 0.772306323051 -0.227890595794 -0.999999 0.000978 0.000978
-0.674383163452 0.488562077284 -0.295528084040 0.999999 0.000978 0.000978
-0.674383163452 0.495645761490 -0.275814712048 0.999999 0.000978 0.000978
-0.671074450016 0.774929881096 -0.232588872313 0.707024 -0.015340 -0.707024
-0.655856788158 0.401233732700 -0.221932217479 0.587327 0.556861 -0.587327
-0.589512109756 0.393605709076 -0.244771838188 0.000978 0.999999 0.000978
-0.317560374737 0.393605709076 -0.271379232407 0.000978 0.999999 0.000978
-0.482020556927 0.393605709076 -0.304811924696 0.000978 0.999999 0.000978
-0.250772088766 0.395036786795 -0.260020852089 -0.740750 0.671779 0.001379
-0.316147714853 0.401798188686 -0.316983401775 0.001381 0.708486 0.705724
-0.361625432968 0.426745742559 -0.328486919403 0.001026 -0.052343 0.998629
-0.379153609276 0.437500536442 -0.327920585871 0.001026 -0.052343 0.998629
-0.331196248531 0.422448724508 -0.328713178635 0.001026 -0.052343 0.998629
-0.625668466091 0.611076354980 -0.318780362606 0.001026 -0.052343 0.998629
-0.592758417130 0.612710535526 -0.318694293499 0.001026 -0.052343 0.998629
-0.468573421240 0.461435317993 -0.326660215855 0.001026 -0.052343 0.998629
-0.302038192749 0.451965153217 -0.327158898115 0.001026 -0.052343 0.998629
-0.442323684692 0.561172723770 -0.321408212185 0.001026 -0.052343 0.998629
-0.504931390285 0.556152462959 -0.321672558784 0.001026 -0.052343 0.998629
-0.278165906668 0.688967347145 -0.314678728580 0.001026 -0.052343 0.998629
-0.473437488079 0.719299197197 -0.313081502914 0.001026 -0.052343 0.998629
-0.400162458420 0.861315727234 -0.305603146553 0.001026 -0.052343 0.998629
-0.546523690224 0.790350317955 -0.309340059757 0.001026 -0.052343 0.998629
-0.271572709084 0.492610752583 -0.325018554926 0.001026 -0.052343 0.998629
-0.354868829250 0.774401426315 -0.310179919004 0.001026 -0.052343 0.998629
-0.552327752113 0.776778697968 -0.310054719448 0.001026 -0.052343 0.998629
-0.442455708981 0.758445203304 -0.311020135880 0.001026 -0.052343 0.998629
-0.265032172203 0.447330951691 -0.327402919531 0.001026 -0.052343 0.998629
-0.671529829502 0.418341636658 -0.310492426157 0.723448 -0.035394 0.689470
-0.583121776581 0.406533926725 -0.215068966150 0.001381 0.688930 -0.724826
-0.296807765961 0.665246486664 -0.213075593114 0.000997 -0.020933 -0.999780
-0.429228007793 0.568608939648 -0.211131364107 0.000997 -0.020933 -0.999780
-0.540395736694 0.488996535540 -0.209529653192 0.000997 -0.020933 -0.999780
-0.400042772293 0.573133349419 -0.211222380400 0.000997 -0.020933 -0.999780
-0.525756657124 0.498661786318 -0.209724098444 0.000997 -0.020933 -0.999780
-0.434076249599 0.435701310635 -0.208457410336 0.000997 -0.020933 -0.999780
-0.355848789215 0.592422604561 -0.211610466242 0.000997 -0.020933 -0.999780
-0.265898406506 0.776363015175 -0.215311124921 0.000997 -0.020933 -0.999780
-0.599842548370 0.662282347679 -0.213015958667 0.000997 -0.020933 -0.999780
-0.619242012501 0.609655141830 -0.211957156658 0.000997 -0.020933 -0.999780
-0.610447287560 0.650638580322 -0.212781697512 0.000997 -0.020933 -0.999780
-0.594616353512 0.697713971138 -0.213728800416 0.000997 -0.020933 -0.999780
-0.534660935402 0.573524117470 -0.211230248213 0.000997 -0.020933 -0.999780
-0.540112316608 0.605612814426 -0.211875826120 0.000997 -0.020933 -0.999780
-0.485093563795 0.639743387699 -0.212562501431 0.000997 -0.020933 -0.999780
-0.465135753155 0.652038455009 -0.212809860706 0.000997 -0.020933 -0.999780
-0.546951711178 0.697403430939 -0.213722556829 0.000997 -0.020933 -0.999780
-0.656215250492 0.918518602848 -0.024260215461 0.775451 0.604821 -0.181294
-0.642064571381 1.015994906425 0.359773725271 0.759014 0.624078 -0.185537
-0.543005824089 1.014599084854 0.371452093124 0.001371 0.615457 -0.788169
-0.377274245024 1.016327977180 0.372805088758 0.001371 0.615457 -0.788169
-0.388741731644 0.995649278164 0.328942775726 0.001184 0.970072 -0.242814
-0.627619266510 0.888713240623 -0.097985208035 0.001184 0.970072 -0.242814
-0.632353901863 0.935457348824 0.088634431362 0.001184 0.970072 -0.242814
-0.523338198662 0.935756266117 0.089827775955 0.001184 0.970072 -0.242814
-0.613065719604 0.984085381031 0.282775461674 0.001184 0.970072 -0.242814
-0.367710471153 0.973672688007 0.241204097867 0.001184 0.970072 -0.242814
-0.400805443525 0.992241442204 0.315337449312 0.001184 0.970072 -0.242814
-0.629498720169 0.965418457985 0.208250254393 0.001184 0.970072 -0.242814
-0.489983290434 0.925262451172 0.047932744026 0.001184 0.970072 -0.242814
-0.532852947712 0.976421952248 0.252180218697 0.001184 0.970072 -0.242814
-0.414152324200 0.977845668793 0.257864177227 0.001184 0.970072 -0.242814
-0.335770845413 0.892549693584 -0.082668617368 0.001184 0.970072 -0.242814
-0.504399776459 0.901150882244 -0.048329621553 0.001184 0.970072 -0.242814
-0.331548750401 0.945314943790 0.127989619970 0.001184 0.970072 -0.242814
-0.516930460930 0.869886398315 -0.173148989677 0.001184 0.970072 -0.242814
-0.500566244125 0.870138704777 -0.172141462564 0.001184 0.970072 -0.242814
-0.322371602058 0.877449572086 -0.142953872681 0.001184 0.970072 -0.242814
-0.384683907032 0.932917058468 0.078492641449 0.001184 0.970072 -0.242814
-0.399672985077 0.894414305687 -0.075224354863 0.001184 0.970072 -0.242814
-0.529540956020 0.890334546566 -0.091512292624 0.001184 0.970072 -0.242814
-0.272674977779 0.915239036083 0.007915519178 0.001184 0.970072 -0.242814
-0.352894723415 0.914820730686 0.006245478988 0.001184 0.970072 -0.242814
-0.245659902692 0.975779414177 0.243485599756 -0.777097 0.612394 -0.145238
-0.233539119363 0.478573471308 -0.256201624870 -0.999999 0.000978 0.000978
-0.233539119363 0.644659280777 -0.257239907980 -0.999999 0.000978 0.000978
-0.211381673813 0.393605709076 -0.252289474010 0.000978 0.999999 0.000978
-0.224771633744 0.615345776081 -0.307256549597 0.756892 -0.035237 0.652590
-0.200342923403 0.476700782776 -0.191846534610 0.001009 -0.033281 -0.999445
-0.213097155094 0.836209356785 -0.203599944711 0.001009 -0.033281 -0.999445
-0.477086693048 0.859178364277 -0.201111704111 0.001374 0.633537 -0.773712
-0.586086511612 1.033526539803 0.381795227528 0.001141 -0.186011 -0.982547
-0.387875467539 1.071032643318 0.374681949615 0.001141 -0.186011 -0.982547
-0.656933903694 1.017678499222 0.165381312370 0.999339 -0.007131 -0.035654
-0.649954915047 1.071334719658 0.346467614174 0.999339 -0.007131 -0.035654
-0.671347141266 0.892006993294 -0.189481064677 0.905352 -0.419421 0.066510
-0.674383163452 0.815595149994 -0.262329012156 0.999999 0.000978 0.000978
-0.690588414669 0.475020647049 -0.321728378534 -0.724794 -0.035321 0.688060
-0.690232753754 0.595056295395 -0.315142512321 -0.703752 -0.038232 0.709416
-0.725750684738 0.782027721405 -0.299000263214 0.703826 -0.035404 0.709490
-0.735488772392 0.788716733456 -0.278440445662 0.999999 0.000978 0.000978
-0.735488772392 0.689561903477 -0.220405057073 0.999999 0.000978 0.000978
-0.735488772392 0.595948517323 -0.274637669325 0.999999 0.000978 0.000978
-0.718459725380 0.649940133095 -0.200824216008 0.704089 -0.023891 -0.709710
-0.726562321186 0.911717474461 -0.072816044092 0.775451 0.604821 -0.181294
-0.690729558468 0.979183435440 0.308097600937 0.775451 0.604821 -0.181294
-0.679380893707 1.001726627350 0.368161201477 0.001367 0.600218 -0.799835
-0.700159132481 0.826644122601 -0.203287228942 0.001009 -0.033281 -0.999445
-0.696997761726 0.614849388599 -0.318581670523 0.001026 -0.052343 0.998629
-0.715723514557 0.499711781740 -0.324009835720 0.723448 -0.035394 0.689470
-0.726103127003 0.921647846699 -0.098784059286 0.998831 -0.003080 -0.048248
-0.707075357437 1.022222399712 0.278863012791 0.998831 -0.003080 -0.048248
-0.713645398617 0.965123832226 0.151642203331 0.879546 -0.472119 0.059187
0.667429149151 0.695336759090 -0.304338485003 -0.703826 -0.035404 0.709490
0.672753214836 0.437492370605 -0.312197357416 -0.723448 -0.035394 0.689470
0.693587481976 0.871309578419 -0.297420442104 0.547885 -0.547885 0.632175
0.682243824005 0.848168551922 -0.290122032166 0.703752 -0.038232 0.709416
0.739289820194 0.682544827461 -0.292035400867 -0.999999 0.000978 0.000978
0.739289820194 0.696109235287 -0.284771800041 -0.999999 0.000978 0.000978
0.739289820194 0.492535322905 -0.248725771904 -0.999999 0.000978 0.000978
0.739289820194 0.535047411919 -0.281737267971 -0.999999 0.000978 0.000978
0.349099993706 1.099813580513 0.340951621532 0.001147 -0.981019 0.193909
0.442771852016 1.094531536102 0.314263463020 0.001147 -0.981019 0.193909
0.482709228992 1.095422506332 0.318765580654 0.001147 -0.981019 0.193909
0.334176182747 1.102950692177 0.375062763691 0.548901 -0.827011 0.121490
0.314442276955 1.082641124725 0.328899502754 0.562368 -0.817857 0.121871
0.436146914959 1.036690115929 0.521117866039 0.001375 0.636526 -0.771254
0.516545176506 1.015141725540 0.455680727959 0.001176 0.972780 -0.231726
0.533037424088 0.998703420162 0.386394232512 0.001176 0.972780 -0.231726
0.569398343563 1.027092576027 0.448143452406 -0.632427 0.741736 -0.223302
0.513569712639 1.068153262138 0.534843504429 0.001007 -0.031203 -0.999513
0.358047068119 1.125441670418 0.525055766106 0.001310 -0.894688 -0.446689
0.483658760786 1.107534885406 0.379965543747 0.001147 -0.981019 0.193909
0.425523161888 1.120529651642 0.445624083281 0.001147 -0.981019 0.193909
0.453200876713 1.125255227089 0.469501495361 0.001147 -0.981019 0.193909
0.433421313763 1.068014860153 0.270525574684 0.001381 -0.691755 0.722131
0.306007683277 1.042851924896 0.305019497871 0.995694 -0.003195 -0.092647
0.387916862965 0.992941915989 0.362109720707 0.001176 0.972780 -0.231726
0.347593307495 1.005022764206 0.413029819727 0.001176 0.972780 -0.231726
0.584750294685 1.031370639801 0.392170608044 -0.995256 -0.001069 -0.097281
0.588020741940 1.053580284119 0.288033217192 -0.626049 0.023703 0.779424
0.539359629154 1.058055996895 0.269290417433 0.001007 0.031203 0.999513
0.425919830799 1.065386533737 0.269064843655 0.001007 0.031203 0.999513
0.362524509430 0.989296197891 0.281139343977 0.001367 0.799835 0.600218
-0.436121493578 1.095963358879 0.321498215199 0.001147 -0.981019 0.193909
-0.497175812721 1.096363425255 0.323519468307 0.001147 -0.981019 0.193909
-0.494691342115 1.093010425568 0.306577771902 0.001147 -0.981019 0.193909
-0.458572387695 1.117249846458 0.429052144289 0.001147 -0.981019 0.193909
-0.490458011627 1.114767313004 0.416509032249 0.001147 -0.981019 0.193909
-0.535438299179 1.129149079323 0.489175736904 0.001147 -0.981019 0.193909
-0.578133285046 1.084958314896 0.448303192854 0.995252 -0.003207 -0.097280
-0.402518063784 1.028297424316 0.511131465435 0.001176 0.972780 -0.231726
-0.465081095695 1.025987148285 0.501393616199 0.001176 0.972780 -0.231726
-0.362757772207 1.023407697678 0.490521311760 0.001176 0.972780 -0.231726
-0.375525176525 1.021996259689 0.484572589397 0.001176 0.972780 -0.231726
-0.449990987778 0.979246497154 0.304384022951 0.001176 0.972780 -0.231726
-0.343436360359 1.014392018318 0.450699567795 -0.616632 0.754008 -0.226358
-0.511163532734 1.033694863319 0.518643558025 0.001375 0.636526 -0.771254
-0.377754330635 1.078117370605 0.534527182579 0.001007 -0.031203 -0.999513
-0.332740217447 1.105830073357 0.396570444107 -0.548901 -0.827011 0.121490
-0.445040017366 0.982645988464 0.290006309748 0.001367 0.799835 0.600218
-0.386549979448 0.989945888519 0.280273139477 0.001367 0.799835 0.600218
-0.477838277817 1.055659294128 0.269364148378 0.001007 0.031203 0.999513
-0.503504633904 0.997240006924 0.271161556244 0.001007 0.031203 0.999513
-0.312922924757 1.051585555077 0.390528738499 -0.995694 -0.003195 -0.092647
-0.319047480822 1.085889339447 0.456266134977 -0.995717 -0.001063 -0.092452
-0.350731223822 1.118197083473 0.527822613716 -0.518815 -0.014901 -0.854757
-0.352483749390 1.078459143639 0.534248292446 -0.681343 -0.130279 -0.720277
-0.583962321281 1.009730458260 0.350941747427 0.600167 0.765408 -0.232272
-0.653331458569 0.173754125834 -0.307789623737 0.000985 -0.008867 0.999960
-0.638283789158 0.287235081196 -0.048298120499 0.001129 -0.985368 0.170436
-0.648137032986 0.285400271416 -0.038261309266 0.704281 -0.704281 0.089316
-0.642564237118 0.334772199392 0.329894661903 0.782578 -0.618883 0.067488
-0.624322652817 0.349586993456 0.312155216932 0.001129 -0.985368 0.170436
-0.616811990738 0.290233880281 0.011759268120 -0.760344 -0.634370 0.139471
-0.605080246925 0.296707153320 0.101149767637 -0.699473 -0.699473 0.146542
-0.640771865845 -0.342675745487 -0.307923853397 0.001381 0.708486 0.705724
-0.628975391388 0.114976420999 -0.181569814682 -0.893362 0.284862 -0.347502
-0.640735089779 -0.186013221741 -0.178287178278 0.001009 -0.033281 -0.999445
-0.670182824135 -0.078970767558 -0.196255043149 0.706905 -0.023891 -0.706905
-0.675996720791 -0.182967916131 -0.200724199414 0.999999 0.000978 0.000978
-0.675996720791 -0.190337002277 -0.248608648777 0.999999 0.000978 0.000978
-0.675996720791 -0.204542204738 -0.209437057376 0.999999 0.000978 0.000978
-0.675996720791 -0.227474808693 -0.273291945457 0.999999 0.000978 0.000978
-0.675996720791 -0.039071261883 -0.243577867746 0.999999 0.000978 0.000978
-0.673261523247 0.224197536707 -0.227650702000 0.998185 -0.036970 -0.047533
-0.655766069889 0.214404746890 0.152426198125 0.998185 -0.036970 -0.047533
-0.675532877445 0.175039201975 -0.237408995628 0.998185 -0.036970 -0.047533
-0.671269893646 0.133262306452 -0.163606256247 0.775451 0.604821 -0.181294
-0.643556535244 0.214500188828 0.228403717279 0.775451 0.604821 -0.181294
-0.624692022800 0.198308080435 0.208747625351 0.001170 0.974705 -0.223492
-0.619727969170 0.206045717001 0.242499768734 0.001170 0.974705 -0.223492
-0.617222070694 0.172925829887 0.069403558969 -0.716419 0.686630 -0.123623
-0.608734726906 0.190360814333 0.115520760417 -0.763375 0.636392 -0.110741
-0.594068109989 0.250453799963 0.271630704403 -0.998948 0.028008 0.036307
-0.612822473049 0.167834788561 -0.184194430709 -0.998948 0.028008 0.036307
-0.613082230091 0.159659028053 -0.184989690781 -0.998948 0.028008 0.036307
-0.598051428795 0.235762938857 0.172572314739 -0.998948 0.028008 0.036307
-0.591677784920 0.256095021963 0.333728641272 -0.999291 0.003044 0.037537
-0.602414369583 0.242428794503 0.046613957733 -0.999291 0.003044 0.037537
-0.595306277275 0.294460147619 0.233212441206 -0.999291 0.003044 0.037537
-0.605210304260 0.246515065432 -0.026365727186 0.999339 -0.007131 -0.035654
-0.608795285225 0.242747694254 -0.123610854149 0.999339 -0.007131 -0.035654
-0.579940021038 0.312685936689 0.382875204086 0.761551 -0.120245 -0.636853
-0.401176333427 0.332626223564 0.388599663973 0.001141 -0.186011 -0.982547
-0.447896689177 0.291928589344 0.396318227053 0.001141 -0.186011 -0.982547
-0.425807416439 0.270991891623 0.394408285618 0.001371 0.615457 -0.788169
-0.556874513626 0.174820214510 0.070183575153 0.001184 0.970072 -0.242814
-0.500727951527 0.183417707682 0.104507923126 0.001184 0.970072 -0.242814
-0.452650755644 0.195597127080 0.153132557869 0.001184 0.970072 -0.242814
-0.526977121830 0.152947723866 -0.017139434814 0.001184 0.970072 -0.242814
-0.358599543571 0.239565461874 0.328670263290 0.001184 0.970072 -0.242814
-0.539393663406 0.250592112541 0.372692644596 0.001184 0.970072 -0.242814
-0.284503400326 0.241661369801 0.337037891150 0.001184 0.970072 -0.242814
-0.422826021910 0.183106034994 0.103263616562 0.001184 0.970072 -0.242814
-0.521399199963 0.213398620486 0.224202647805 0.001184 0.970072 -0.242814
-0.268107950687 0.242292761803 0.339558660984 0.001184 0.970072 -0.242814
-0.275469213724 0.183529108763 0.104952648282 0.001184 0.970072 -0.242814
-0.249879881740 0.158174484968 0.003727700561 0.001184 0.970072 -0.242814
-0.313118249178 0.162542805076 0.021167635918 0.001184 0.970072 -0.242814
-0.477218091488 0.131530955434 -0.102643072605 0.001184 0.970072 -0.242814
-0.253743201494 0.128005862236 -0.116716533899 0.001184 0.970072 -0.242814
-0.256160885096 0.160820662975 0.014292221516 0.001184 0.970072 -0.242814
-0.321107029915 0.196207314730 0.155568689108 0.001184 0.970072 -0.242814
-0.274909526110 0.166360378265 0.036408722401 0.001184 0.970072 -0.242814
-0.252218753099 0.134758293629 -0.089758351445 0.001184 0.970072 -0.242814
-0.287108927965 0.188791871071 0.125963538885 0.001184 0.970072 -0.242814
-0.276152163744 0.167285442352 0.040101982653 0.001184 0.970072 -0.242814
-0.227150291204 0.210362240672 0.187371969223 -0.776880 0.602883 -0.181628
-0.210945218801 0.203771680593 0.098688356578 -0.757562 0.625945 -0.185182
-0.205636054277 0.196716845036 -0.018504559994 -0.999063 -0.023763 -0.036161
-0.197455793619 0.193215519190 -0.247219786048 -0.999063 -0.023763 -0.036161
-0.208880081773 0.234004855156 0.048649474978 -0.999063 -0.023763 -0.036161
-0.211024791002 0.255103588104 0.096171103418 -0.999339 -0.007131 -0.035654
-0.216858774424 0.309477806091 0.245427310467 -0.999339 -0.007131 -0.035654
-0.213282048702 0.257663607597 0.152893528342 0.999291 0.003044 0.037537
-0.206303820014 0.247845590115 -0.033642381430 0.999291 0.003044 0.037537
-0.216323107481 0.252940118313 0.234914451838 0.999291 0.003044 0.037537
-0.172437444329 0.196470499039 0.183500885963 -0.775451 0.604821 -0.181294
-0.169552937150 0.207960411906 0.209985151887 -0.757562 0.625945 -0.185182
-0.141509547830 0.199401408434 -0.142633676529 -0.998185 -0.036970 -0.047533
-0.155689269304 0.242461651564 0.125380501151 -0.998185 -0.036970 -0.047533
-0.150269240141 0.222178027034 0.025937296450 -0.998185 -0.036970 -0.047533
-0.144950509071 0.212623491883 -0.079771652818 -0.998185 -0.036970 -0.047533
-0.152611911297 0.281136780977 0.056716103107 -0.998831 -0.003080 -0.048248
-0.162436977029 0.307776868343 0.256766229868 -0.998831 -0.003080 -0.048248
-0.164916262031 0.272407501936 0.310660362244 -0.998831 -0.003080 -0.048248
-0.155269429088 0.290189385414 0.083641543984 -0.704484 -0.704484 0.086055
