0.633422195911 -0.462295174599 0.343657970428 0.905756 -0.058044 0.419806
0.619751513004 -0.410042047501 0.378824263811 0.888775 -0.067519 0.453344
0.604340195656 -0.327403485775 0.419351786375 0.853944 -0.080721 0.514066
0.558467864990 -0.002092925832 0.515764653683 0.804531 -0.026401 0.593324
0.550519227982 -0.188565626740 0.506376087666 0.673903 -0.095433 0.732631
0.540558457375 0.030952692032 0.536701381207 0.651506 -0.049896 0.757001
0.533227324486 0.006720863283 0.541394293308 0.642326 -0.049848 0.764809
0.537824094296 0.560232281685 0.547461509705 0.744935 0.015316 0.666961
0.543326020241 0.482482135296 0.543014168739 0.815934 0.023550 0.577665
0.540360033512 0.486493319273 0.531702816486 0.001007 -0.031203 -0.999513
0.531659901142 1.067685842514 0.507692635059 0.732015 0.126724 0.669399
0.541594743729 0.756592929363 0.532073378563 0.774816 0.040928 0.630861
0.550696671009 0.728992402554 0.515917599201 -0.001081 -0.111381 -0.993777
0.573018968105 1.049925684929 0.453774064779 0.907745 0.019705 0.419060
0.571422994137 1.126421451569 0.443697512150 0.845719 0.111317 0.521888
0.597447276115 1.381311774254 0.287135660648 0.802657 0.329010 0.497488
0.584004104137 1.185289740562 0.406741917133 0.857117 0.138245 0.496225
0.637437820435 1.257379412651 0.237060472369 0.001322 -0.881656 -0.471891
0.672211706638 1.289233326912 0.119792573154 -0.001028 -0.998513 -0.054502
0.828823924065 1.040326476097 -0.313867777586 0.006929 -0.655442 0.755214
0.810502290726 0.952495992184 -0.411155581474 0.001361 -0.817758 0.575560
0.837149798870 0.990332305431 -0.410850733519 0.996803 -0.053148 -0.059656
0.843031346798 1.139230966568 -0.287094742060 0.999976 -0.006896 -0.000985
0.790765225887 1.369884967804 -0.036664757878 0.869290 0.082856 0.487308
0.815690755844 1.410961151123 -0.107080608606 0.949085 0.071214 0.306866
0.814906060696 1.062231302261 -0.351734459400 0.001381 0.661530 -0.749918
0.818871021271 1.014578461647 -0.400651901960 -0.001379 0.748548 -0.663079
0.802122712135 0.618599534035 -0.617381215096 0.878738 0.006647 0.477257
0.787245988846 0.454021573067 -0.617984294891 0.004936 -0.006910 0.999964
0.784666121006 0.012467697263 -0.620862007141 0.002956 -0.004926 0.999984
0.785524010658 -0.404141664505 -0.623167574406 0.004926 -0.004926 0.999976
0.801737487316 0.790491223335 -0.620903909206 0.976518 0.012926 -0.215046
0.789932608604 0.900200903416 -0.656705915928 0.962522 0.035924 -0.268813
0.779270708561 0.920316636562 -0.687380492687 0.949051 0.036746 -0.312972
0.794418811798 0.553941488266 -0.661192238331 0.967613 0.005980 -0.252369
0.802020490170 0.352077454329 -0.636496901512 0.966129 0.003600 -0.258034
0.800544202328 -0.589199006557 -0.628316879272 0.961563 -0.003629 -0.274560
0.795423090458 -0.175535082817 -0.652918338776 0.963008 -0.003625 -0.269449
0.800644099712 0.127722308040 -0.639984250069 0.965354 -0.006011 -0.260874
0.798630058765 0.237011373043 -0.648876249790 0.965365 -0.003607 -0.260877
0.794273853302 0.312428236008 -0.665642857552 0.935020 -0.003786 -0.354576
0.782058119774 0.573697686195 -0.696673691273 0.938428 0.001256 -0.345472
0.770471334457 0.647165536880 -0.714550435543 0.801148 0.001369 -0.598464
0.788468956947 -0.040041983128 -0.677001237869 0.935843 -0.006315 -0.352362
0.783614933491 -0.158729895949 -0.688502669334 0.938109 -0.006296 -0.346282
0.780412435532 -0.336436122656 -0.694840669632 0.940335 -0.003766 -0.340228
0.784566581249 -0.462713211775 -0.681908488274 0.940335 -0.003766 -0.340228
0.776119470596 -0.608689486980 -0.704472064972 0.941995 -0.001248 -0.335625
0.751937270164 -0.131948456168 -0.727841258049 0.205948 0.005818 -0.978546
0.742757201195 0.924317955971 -0.721991419792 0.167527 0.012536 -0.985788
0.790677666664 0.928643584251 -0.622601151466 0.000989 0.999917 -0.012857
0.836155295372 1.425248742104 -0.207790866494 0.987944 0.076176 0.134773
0.822911262512 1.489526510239 -0.171046704054 0.969364 0.144700 0.198483
0.795536041260 1.600547790527 -0.163411080837 0.909238 0.288438 0.300151
0.778325736523 1.676171064377 -0.211139440536 0.888748 0.402368 0.219608
0.666893005371 1.594923853874 -0.039449647069 0.394717 0.592901 0.701902
0.759920418262 1.568485021591 -0.071972653270 0.456808 0.460083 0.761347
0.604683578014 1.556671023369 0.095272541046 0.631326 0.693317 0.347474
0.651573538780 1.286230206490 0.222397044301 0.940420 0.122781 0.317071
0.637271404266 1.276744604111 0.265441179276 0.930687 0.127098 0.343028
0.729443013668 1.380888581276 -0.000442227349 0.465163 0.115224 0.877694
0.814894497395 1.433835387230 -0.111571662128 0.950550 0.112374 0.289528
0.819619417191 1.435022711754 -0.127781167626 0.952781 0.120254 0.278831
0.668325781822 1.469452857971 0.055734347552 0.886973 0.349686 0.301661
0.760707020760 1.386824607849 -0.016796488315 0.439501 0.084573 0.894252
0.737419068813 1.289617538452 0.003130503930 0.511245 0.039963 0.858505
0.530606746674 1.129033327103 0.491484075785 0.355830 0.355830 0.864159
0.478776276112 0.757702529430 0.567775785923 0.137631 0.056672 0.988861
0.493944793940 0.572984993458 0.573112368584 0.140798 0.005543 0.990023
0.517418146133 0.144877701998 0.558440685272 0.246562 -0.053277 0.967662
-0.686917364597 -0.647230148315 0.193303629756 -0.943866 -0.018953 0.329785
-0.677858948708 -0.669890403748 0.208860963583 -0.883907 -0.117760 0.452594
-0.536131381989 0.017238568515 0.539622783661 -0.651506 -0.049896 0.757001
-0.535641312599 0.132856234908 0.546223580837 -0.640541 -0.032379 0.767241
-0.533722341061 0.173224836588 0.549572765827 -0.634437 -0.032355 0.772297
-0.646095335484 1.613641262054 -0.040054172277 -0.482965 0.543127 0.686846
-0.836894512177 1.218034505844 -0.274087786674 0.003408 0.173784 -0.984778
-0.823832154274 1.128152966499 -0.306241065264 0.001313 0.452981 -0.891519
-0.794741213322 0.929530739784 -0.608199656010 0.001059 0.996315 -0.085761
-0.774357914925 0.927710354328 -0.698473513126 0.002967 0.999936 -0.010880
-0.759427309036 0.927752375603 -0.694095611572 0.000987 0.999941 -0.010858
-0.730527043343 -0.300107449293 -0.733351707458 -0.214077 0.005849 -0.976799
-0.736004173756 -0.619291663170 -0.733832001686 -0.221769 0.005867 -0.975082
-0.761528730392 -0.584294497967 -0.723636507988 -0.507781 0.001340 -0.861485
-0.772305607796 -0.511864840984 -0.711422085762 -0.828486 -0.001356 -0.560008
-0.776614785194 -0.455515712500 -0.703923702240 -0.941995 -0.001248 -0.335625
-0.791723430157 -0.567488670349 -0.659356951714 -0.961563 -0.003629 -0.274560
-0.796690225601 -0.597997009754 -0.624072730541 0.000981 -0.004907 0.999987
-0.786409854889 -0.517985880375 -0.623728513718 -0.004926 -0.004926 0.999976
-0.776560366154 -0.255721181631 -0.622311055660 -0.006924 -0.004945 0.999964
-0.788454651833 -0.078608579934 -0.621390700340 -0.006924 -0.004945 0.999964
-0.787430644035 0.865290045738 -0.669010162354 -0.949051 0.036746 -0.312972
-0.784101784229 0.823384165764 -0.684291422367 -0.951678 0.039179 -0.304588
-0.767970681190 0.600978434086 -0.716175377369 -0.444585 0.003934 -0.895728
-0.776100158691 -0.410167247057 -0.705802798271 -0.940335 -0.003766 -0.340228
-0.790765881538 -0.187358245254 -0.668703079224 -0.938109 -0.006296 -0.346282
-0.802485644817 0.021038254723 -0.631228625774 -0.965354 -0.006011 -0.260874
-0.791542470455 -0.059629894793 -0.668512582779 -0.935843 -0.006315 -0.352362
-0.780572235584 -0.025013994426 -0.698547720909 -0.938121 -0.003778 -0.346286
-0.773174047470 0.202739477158 -0.712542116642 -0.808912 0.001364 -0.587928
-0.786888420582 0.183108776808 -0.684226572514 -0.936173 -0.001260 -0.351537
-0.791944861412 0.216607347131 -0.671047270298 -0.935020 -0.003786 -0.354576
-0.797950148582 0.466722041368 -0.649547278881 -0.967613 0.005980 -0.252369
-0.790906727314 0.662449181080 -0.670351266861 -0.952305 0.006176 -0.305084
-0.796313703060 0.674388408661 -0.650344491005 -0.971709 0.005932 -0.236105
-0.781492769718 0.372991710901 -0.699220597744 -0.935342 0.001259 -0.353743
-0.790446460247 0.387721866369 -0.675184369087 -0.938121 0.003778 -0.346286
-0.816359460354 0.963364064693 -0.395753443241 -0.001361 -0.817758 0.575560
-0.811985194683 1.006496667862 -0.344034075737 -0.001381 -0.747332 0.664449
-0.836174309254 1.061522603035 -0.298556208611 -0.006778 -0.535459 0.844534
-0.842934489250 1.126509189606 -0.297656238079 -0.999976 -0.006883 -0.000983
-0.842059314251 1.342367291451 -0.255295425653 -0.999780 0.020933 0.000997
-0.842762947083 1.300094008446 -0.264890193939 -0.999884 0.014924 -0.002985
-0.842919588089 1.286424636841 -0.234727144241 -0.999976 0.006883 -0.000983
-0.843119382858 1.190010666847 -0.231767684221 -0.996878 -0.001053 0.078950
-0.843158364296 1.228140950203 -0.233215987682 -0.999999 0.000979 -0.000979
-0.836668968201 1.242365598679 -0.167778313160 -0.991551 0.009949 0.129333
-0.818588435650 1.250668883324 -0.088134199381 -0.963291 0.028296 0.266966
-0.829971790314 1.401207804680 -0.155398607254 -0.974462 0.059910 0.216411
-0.808766722679 1.583500862122 -0.196250706911 -0.938526 0.262787 0.223856
-0.798360884190 1.626742243767 -0.206823617220 -0.932576 0.285540 0.220836
-0.791669845581 1.586079835892 -0.137725248933 -0.909238 0.288438 0.300151
-0.802375972271 1.581501841545 -0.169358253479 -0.947688 0.231110 0.220170
-0.818586409092 1.460717320442 -0.135241553187 -0.952781 0.120254 0.278831
-0.818213820457 1.432200551033 -0.121812373400 -0.950550 0.112374 0.289528
-0.802601635456 1.482324361801 -0.094725303352 -0.910950 0.187338 0.367526
-0.797207534313 1.369563102722 -0.050392605364 -0.907236 0.077763 0.413372
-0.729195058346 1.564532876015 -0.051811691374 -0.424929 0.470515 0.773338
-0.769876241684 1.546200752258 -0.064701318741 -0.464035 0.450917 0.762460
-0.768601655960 1.385336995125 -0.020893938839 -0.505085 0.101589 0.857070
-0.767797410488 1.356730699539 -0.017523963004 -0.482774 0.088673 0.871244
-0.762587726116 1.303748607635 -0.011537220329 -0.457957 0.056048 0.887206
-0.739231407642 1.311745882034 0.000723378966 -0.508239 0.059875 0.859132
-0.725173711777 1.293497562408 0.011327929795 -0.662705 0.064689 0.746082
-0.699287831783 1.398085951805 0.027091270313 -0.911917 0.184096 0.366765
-0.696698784828 1.290993213654 0.074046105146 -0.948167 0.098905 0.301989
-0.665097475052 1.325736999512 0.166435211897 -0.948451 0.118390 0.293980
-0.522430002689 0.708214879036 0.518294095993 0.001081 -0.111381 -0.993777
-0.544597566128 0.660783946514 0.523083448410 0.001040 -0.067624 -0.997710
-0.547910571098 0.186330363154 0.524886131287 -0.003079 0.050296 -0.998730
-0.541796386242 -0.043892130256 0.499829828739 0.001131 0.170816 -0.985302
-0.569256603718 -0.141723439097 0.492137253284 -0.817863 -0.043488 0.573767
-0.550289988518 0.005992542952 0.525651037693 -0.714983 -0.041222 0.697926
-0.538475275040 0.103152364492 0.542544484138 -0.699779 -0.026752 0.713859
-0.559713125229 0.931557297707 0.486803978682 -0.909243 0.017057 0.415916
-0.606933057308 1.149342536926 0.369357675314 -0.911815 0.055058 0.406893
-0.554685354233 1.019644975662 0.488442748785 -0.822539 0.057846 0.565760
-0.552304327488 0.970884799957 0.497527450323 -0.808065 0.076070 0.584161
-0.617208480835 1.256011724472 0.319296389818 -0.877453 0.170819 0.448216
-0.614522933960 1.312741518021 0.300935447216 -0.890436 0.175763 0.419798
-0.629160881042 1.308782339096 0.271114706993 -0.908970 0.193856 0.369045
-0.651989340782 1.355335116386 0.190738737583 -0.935486 0.149733 0.320071
-0.662907958031 1.406182885170 0.126577198505 -0.924375 0.223616 0.309074
-0.579912543297 1.267085075378 0.378624856472 -0.775797 0.304265 0.552776
-0.633754312992 1.533381938934 0.066774509847 -0.847091 0.435160 0.305077
-0.627653658390 1.490961313248 0.140191257000 -0.823064 0.439285 0.359992
-0.633710861206 1.459436655045 0.162512049079 -0.829100 0.415340 0.374280
-0.609737038612 1.471202969551 0.200488343835 -0.810584 0.410888 0.417283
-0.626488983631 1.575965404510 0.015704829246 -0.667842 0.658045 0.347800
-0.622116625309 1.564418911934 0.043546468019 -0.700860 0.612227 0.366023
-0.769337713718 1.689692020416 -0.204236984253 -0.617006 0.676556 0.401964
-0.761468589306 1.707275390625 -0.224641844630 -0.322177 0.807824 0.493582
-0.514441490173 0.001765251160 0.548977553844 -0.288646 -0.081546 0.953957
-0.529998481274 -0.306186795235 0.473463475704 0.035367 -0.999374 -0.001010
-0.530303418636 -0.003174209036 0.543178558350 -0.326943 -0.086038 0.941119
0.346347182989 1.302655935287 0.449377864599 0.174643 0.517957 0.837389
0.411706686020 1.418764829636 0.345152884722 0.215846 0.628904 0.746921
0.420634925365 1.506055712700 0.252377957106 0.261452 0.720974 0.641746
0.433190524578 1.547779083252 0.197758913040 0.268068 0.750273 0.604343
0.455195039511 1.565837860107 0.165281355381 0.300166 0.739981 0.601937
0.374283671379 1.549548029900 0.220988467336 0.215193 0.766336 0.605328
0.275426149368 1.483106851578 0.323132902384 0.192724 0.686099 0.701517
0.246368497610 1.584243178368 0.219298958778 0.155017 0.775087 0.612544
0.118951432407 1.572432518005 0.256527930498 0.095397 0.738223 0.667777
0.062760889530 1.551702141762 0.285181045532 0.035376 0.734398 0.677797
0.130626037717 1.643818974495 0.169149756432 0.107448 0.772745 0.625556
0.150523602962 1.656190752983 0.149121016264 0.112733 0.803771 0.584161
0.185825705528 1.644851684570 0.158108875155 0.097402 0.798111 0.594585
0.184661820531 1.648030638695 0.154026344419 0.131935 0.801987 0.582589
0.020789694041 1.613409280777 0.218525305390 0.026536 0.780730 0.624305
-0.170990079641 1.652109026909 0.151069432497 -0.109978 0.799176 0.590950
-0.363395720720 1.633659839630 0.117932468653 -0.222137 0.762721 0.607381
-0.411050945520 1.594418764114 0.149076774716 -0.267030 0.760008 0.592522
-0.435914009809 1.558206319809 0.183571442962 -0.263983 0.750850 0.605423
-0.083226889372 1.591309309006 0.240230977535 -0.064718 0.740662 0.668753
-0.119441531599 1.565729379654 0.264226704836 -0.086117 0.740025 0.667044
-0.317305296659 1.470537781715 0.324438869953 -0.186380 0.688528 0.700851
-0.195969566703 1.516008853912 0.306191861629 -0.120705 0.692939 0.710821
-0.480677485466 1.400345325470 0.335165590048 -0.300924 0.664607 0.683917
-0.423392057419 1.360072016716 0.390078961849 -0.231430 0.566927 0.790591
-0.227269366384 1.370315074921 0.423757195473 -0.106403 0.569913 0.814787
-0.202007353306 1.427928328514 0.384498357773 -0.113567 0.629783 0.768424
-0.038949023932 1.455764532089 0.375630497932 -0.026580 0.636512 0.770809
-0.169707998633 1.353531360626 0.442825525999 -0.103274 0.568735 0.816011
-0.082631587982 1.296395301819 0.484616965055 -0.057209 0.514884 0.855349
0.007239958271 1.424477458000 0.402617931366 0.026580 0.636512 0.770809
0.117730863392 1.473622441292 0.356409907341 0.070626 0.632755 0.771125
0.121210306883 1.491697907448 0.339306324720 0.076880 0.697724 0.712229
0.072097964585 1.364848971367 0.442843168974 0.031956 0.573822 0.818356
0.119386851788 1.319720268250 0.467880249023 0.063010 0.513885 0.855542
0.122054576874 1.371328353882 0.434620290995 0.066786 0.572659 0.817069
0.248240545392 1.418919205666 0.385072439909 0.113613 0.632986 0.765781
0.274815499783 1.460640788078 0.345395952463 0.185989 0.693230 0.696305
0.166108772159 1.338456392288 0.452962011099 0.098807 0.514082 0.852031
0.090751610696 1.252820014954 0.507743597031 0.056048 0.457957 0.887206
0.188426062465 1.238797068596 0.508054196835 0.082695 0.475148 0.876011
-0.054821990430 1.213579535484 0.529549002647 -0.014596 0.449818 0.893001
-0.245200648904 1.215987920761 0.514489293098 -0.118759 0.470745 0.874240
-0.315713316202 1.219209551811 0.503168940544 -0.118621 0.467340 0.876084
-0.457139521837 1.211269259453 0.478057801723 -0.214952 0.425457 0.879080
-0.449175268412 1.242164254189 0.463618308306 -0.231695 0.517093 0.823973
-0.460355639458 1.297725319862 0.424430549145 -0.259121 0.573206 0.777362
-0.493757605553 1.303204894066 0.409030854702 -0.277527 0.575669 0.769145
-0.477971524000 1.371241331100 0.361110329628 -0.289893 0.616624 0.731941
-0.501174032688 1.405519366264 0.320521861315 -0.322453 0.656249 0.682174
0.014124872163 1.688699007034 0.119183532894 0.026301 0.818102 0.574471
0.048389174044 1.698224425316 0.104350611567 0.020734 0.816907 0.576396
0.388484656811 1.637326121330 0.103198200464 0.256331 0.765849 0.589720
0.431047916412 1.607940554619 0.122546203434 0.281464 0.761701 0.583600
0.485942929983 1.590517997742 0.117015846074 0.313687 0.751240 0.580723
0.547243773937 1.419749498367 0.283209770918 0.403050 0.665116 0.628626
0.525266289711 1.410055279732 0.304678648710 0.322477 0.659538 0.678984
0.411587476730 1.195862054825 0.496648371220 0.219497 0.434515 0.873509
0.362471044064 1.188446044922 0.510637462139 0.165330 0.457949 0.873469
0.216904908419 1.225423336029 0.512529611588 0.082412 0.465140 0.881392
0.111522868276 1.226474523544 0.520353198051 0.050410 0.459135 0.886935
0.547467470169 1.389153838158 0.312566936016 0.369465 0.638764 0.674890
0.577798366547 1.521719574928 0.147716745734 0.397431 0.717354 0.572234
-0.531977534294 1.571990847588 0.114424385130 -0.355916 0.742711 0.567190
-0.572184026241 1.524630665779 0.149009287357 -0.320065 0.751108 0.577404
-0.568428933620 1.514681339264 0.163184165955 -0.350476 0.712362 0.608035
-0.525220572948 1.331290841103 0.373268336058 -0.390707 0.585236 0.710526
0.023117424920 1.217177271843 0.567767858505 0.018196 0.692854 0.720848
-0.489406883717 1.160766243935 0.498904615641 -0.405092 0.900364 0.158888
-0.422990530729 1.141502022743 0.529513478279 -0.239775 0.123128 0.962989
-0.342816114426 1.104852795601 0.549356997013 -0.113155 0.261427 0.958567
-0.251888841391 1.137774467468 0.560039460659 -0.129085 0.049121 0.990416
-0.357522547245 1.072551369667 0.554424226284 -0.096785 0.180094 0.978876
-0.168278917670 1.112291693687 0.568581461906 -0.060193 0.022176 0.997940
-0.009225634858 1.113198995590 0.574879765511 -0.023810 0.038303 0.998982
-0.139331415296 1.048650741577 0.571585536003 -0.052992 0.011430 0.998530
-0.040084205568 1.054149627686 0.575116872787 -0.018977 0.004994 0.999807
0.246244117618 1.097705602646 0.561918675900 0.097201 0.025119 0.994948
0.413008928299 1.142238020897 0.530946850777 0.251130 0.207217 0.945513
0.077896662056 1.190064668655 0.569563746452 0.047006 0.077615 0.995875
0.058506552130 1.169547319412 0.571617424488 0.015958 0.077663 0.996852
0.421140223742 1.780395388603 -0.146892517805 0.165775 0.895185 0.413717
0.271318674088 1.824023008347 -0.232900604606 0.094164 0.985741 0.139458
0.269266992807 1.808905243874 -0.164287343621 0.100366 0.955429 0.277635
0.425285905600 1.762718558311 -0.112707145512 0.205586 0.817774 0.537569
0.560951411724 1.659302115440 -0.035456523299 0.283711 0.671610 0.684433
0.334838390350 1.771878838539 -0.100679710507 0.123808 0.843351 0.522907
0.167275518179 1.798187851906 -0.238682195544 -0.003282 0.992323 0.123630
0.087964691222 1.803645849228 -0.287317812443 -0.005418 0.993736 0.111619
0.007611002773 1.791865825653 -0.192458644509 -0.003276 0.992621 0.121211
0.077808566391 1.804591894150 -0.296156704426 0.001085 0.993231 0.116148
-0.003043321427 1.806473135948 -0.313235491514 -0.001087 0.992690 0.120688
-0.048593413085 1.808647155762 -0.331235110760 0.005439 0.993188 0.116398
-0.158711686730 1.799751281738 -0.251638978720 0.005470 0.992313 0.123629
-0.007668791804 1.787908673286 -0.160094127059 -0.001096 0.991746 0.128215
-0.173295244575 1.790325641632 -0.177168250084 -0.001108 0.989410 0.145143
-0.070908457041 1.787859439850 -0.156076386571 -0.000981 0.999987 -0.004907
-0.205063641071 1.811179161072 -0.344064503908 0.150197 0.984089 0.094924
-0.022532515228 1.793854355812 -0.145357787609 0.001372 0.610705 -0.791857
-0.358431369066 1.821966409683 -0.308103889227 -0.120008 0.990923 0.060575
-0.412636816502 1.810272932053 -0.269191354513 -0.164191 0.981497 0.098515
-0.309303402901 1.825845360756 -0.280092418194 -0.119495 0.989602 0.080050
-0.391297608614 1.810222625732 -0.242896318436 -0.162341 0.975304 0.149756
-0.435315519571 1.799632191658 -0.226279735565 -0.190903 0.957186 0.217603
-0.382581830025 1.806895732880 -0.216398194432 -0.168980 0.962792 0.210897
-0.368167161942 1.803234696388 -0.188092008233 -0.131783 0.968538 0.211108
-0.241395771503 1.726700186729 0.023915203288 -0.179050 0.951794 0.249055
-0.307651966810 1.764507532120 -0.081647269428 -0.131479 0.813990 0.565804
-0.379516780376 1.727592945099 -0.049550373107 -0.174785 0.782734 0.597309
-0.382918357849 1.707811713219 -0.016041237861 -0.237703 0.917678 0.318378
-0.433919996023 1.688235044479 -0.004671681672 -0.281550 0.903612 0.322824
-0.586579084396 1.762747049332 -0.214754626155 -0.251863 0.932879 0.257491
-0.560160756111 1.705194711685 -0.083285517991 -0.247369 0.726350 0.641268
-0.594992101192 1.635704517365 -0.028898652643 -0.333135 0.641895 0.690646
-0.479297190905 1.604265570641 0.104700520635 0.106595 0.050493 0.993020
-0.150290399790 1.715124726295 0.091983005404 0.011075 -0.019129 0.999756
0.375268161297 1.670322179794 0.092931911349 0.239775 0.841502 0.484131
0.253667116165 1.784178614616 -0.102260261774 0.094820 0.867535 0.488254
0.230872839689 1.787021160126 -0.103197924793 0.071238 0.870218 0.487490
0.173163771629 1.787493586540 -0.094561681151 0.059187 0.879546 0.472119
0.072443038225 1.804778575897 -0.117552638054 0.033635 0.889300 0.456086
0.176306933165 1.771490335464 -0.068548657000 0.078081 0.844691 0.529529
0.257045745850 1.765752553940 -0.073098756373 0.099694 0.830783 0.547595
0.238544940948 1.753505110741 -0.051209829748 0.112099 0.828370 0.548850
-0.102294780314 1.740549683571 0.037394452840 -0.066253 0.966296 0.248762
0.355424791574 1.714375376701 -0.014071119018 0.238324 0.923326 0.301116
-0.001074552652 1.767973065376 -0.048753369600 -0.014845 0.862359 0.506079
0.323776513338 1.723072409630 -0.018853757530 0.195685 0.936789 0.290058
0.314565002918 1.711950182915 0.024578277022 0.211501 0.934248 0.287138
0.155249029398 1.742231488228 0.009991528466 0.103000 0.967687 0.230159
0.017348267138 1.747130632401 0.027836058289 0.022785 0.972579 0.231452
-0.139153838158 1.755693912506 -0.036553580314 -0.077971 0.904192 0.419950
-0.152825281024 1.758502483368 -0.044796004891 -0.071782 0.851533 0.519365
-0.111329682171 1.800037741661 -0.111196383834 -0.031018 0.886038 0.462574
-0.184459745884 1.760926008224 -0.053336072713 -0.099028 0.842457 0.529585
-0.227298423648 1.734047532082 0.004561007954 -0.126618 0.959426 0.251931
0.271494150162 1.681625604630 0.093548595905 -0.023295 -0.013167 0.999642
0.037136126310 1.824935913086 -0.132860198617 0.001340 0.516071 -0.856545
-0.053765442222 1.809126257896 -0.104291260242 -0.146456 0.674907 0.723223
-0.043464604765 -1.786663055420 -0.195114210248 -0.029076 -0.829348 0.557975
-0.020685028285 -1.624529480934 -0.066896840930 -0.014153 -0.379547 0.925064
-0.039087966084 -1.547016024590 -0.043040268123 -0.008582 -0.288125 0.957554
-0.085385121405 -1.509446263313 -0.032549336553 -0.008368 -0.245058 0.969472
-0.016499744728 -1.283322095871 0.020990345627 -0.008377 -0.250123 0.968178
-0.049554843456 -1.277622938156 0.022135872394 -0.010758 -0.245052 0.969450
-0.040660329163 -1.259238123894 0.028163442388 -0.011318 -0.335757 0.941881
-0.425123155117 -1.170520067215 0.038008589298 -0.151670 -0.505075 0.849645
-0.273179262877 -1.226131200790 0.031075861305 -0.069869 -0.341437 0.937304
-0.368060022593 -1.243843317032 0.016057129949 -0.096089 -0.254955 0.962167
-0.438140302896 -1.269762158394 0.000003850553 -0.155569 -0.248645 0.956020
-0.383971899748 -1.342344284058 -0.009368335828 -0.099428 -0.220251 0.970363
-0.336445003748 -1.319438457489 0.000573774334 -0.093853 -0.213985 0.972318
-0.256372928619 -1.371925830841 -0.004939009435 -0.056883 -0.206958 0.976695
-0.307794183493 -1.290321826935 0.009455080144 -0.054341 -0.206497 0.976937
-0.139318093657 -1.392711877823 -0.004659049679 -0.024745 -0.201491 0.979178
-0.131848827004 -1.343257546425 0.005758770742 -0.024745 -0.201491 0.979178
-0.361947268248 -1.435812354088 -0.029633827507 -0.083997 -0.231932 0.969099
-0.411630809307 -1.422877073288 -0.032041244209 -0.122591 -0.236149 0.963953
-0.458970665932 -1.422913551331 -0.038431577384 -0.146410 -0.216376 0.965270
-0.453193396330 -1.362277507782 -0.024053659290 -0.146206 -0.210899 0.966512
-0.471966564655 -1.376703143120 -0.027760012075 0.169459 -0.161815 0.972162
-0.484868168831 -1.629896044731 -0.119708701968 0.032200 -0.614591 0.788189
-0.310411006212 -1.547588348389 -0.055846158415 -0.098056 -0.286323 0.953102
-0.180009379983 -1.540482044220 -0.044535961002 -0.033768 -0.288905 0.956762
-0.126093924046 -1.549588680267 -0.045391060412 -0.033687 -0.288215 0.956973
-0.218769326806 -1.607155799866 -0.067923665047 -0.076792 -0.383958 0.920152
-0.333107769489 -1.604430198669 -0.078365921974 -0.111618 -0.384461 0.916368
-0.163441807032 -1.701498270035 -0.115008912981 -0.073597 -0.627741 0.774935
-0.314799547195 -1.676389813423 -0.119157291949 -0.162088 -0.619570 0.768024
-0.406222045422 -1.642894148827 -0.114136591554 -0.201071 -0.590934 0.781260
-0.480683833361 -1.680498600006 -0.169799610972 -0.269045 -0.721167 0.638384
-0.475243777037 -1.728968739510 -0.226741373539 -0.271288 -0.798183 0.537872
-0.118565022945 -1.758737325668 -0.164966240525 -0.085757 -0.774720 0.626462
-0.270892262459 -1.792250871658 -0.242571324110 -0.132927 -0.842844 0.521483
-0.307882994413 -1.779890060425 -0.235503852367 -0.184509 -0.835539 0.517524
0.155593529344 -1.808682680130 -0.242253333330 0.089542 -0.857044 0.507404
0.124435551465 -1.773697972298 -0.184716686606 0.082534 -0.774661 0.626968
0.005468156189 -1.708934426308 -0.111536897719 0.023713 -0.629102 0.776961
0.005320579279 -1.662452816963 -0.082126475871 0.020355 -0.511593 0.858987
0.080584071577 -1.583769679070 -0.054488524795 0.008582 -0.288125 0.957554
0.022891014814 -1.497372508049 -0.028966760263 0.008368 -0.245058 0.969472
0.073603570461 -1.453117370605 -0.018147790805 0.005974 -0.247307 0.968919
0.083565846086 -1.282724380493 0.020508851856 0.010758 -0.245052 0.969450
0.092587552965 -1.235927104950 0.035776421428 0.011327 -0.333523 0.942674
0.183639302850 -1.305709719658 0.012235837057 0.027954 -0.246728 0.968681
0.199627190828 -1.330489158630 0.006669306662 0.024745 -0.201491 0.979178
0.125656217337 -1.356749176979 0.003128064331 0.024745 -0.201491 0.979178
0.101941555738 -1.499046087265 -0.030101513490 0.027954 -0.246728 0.968681
0.117707461119 -1.525788784027 -0.037951018661 0.033687 -0.288215 0.956973
0.263224661350 -1.728190302849 -0.155377358198 0.127113 -0.704355 0.698374
0.360878825188 -1.748655438423 -0.207505762577 0.180556 -0.793537 0.581118
0.485016554594 -1.734537482262 -0.241240143776 0.041842 -0.005103 -0.999111
0.384878814220 -1.185134768486 0.036375217140 0.144251 -0.482295 0.864051
0.292273491621 -1.211513876915 0.034940753132 0.072832 -0.350916 0.933570
0.316126376390 -1.252899527550 0.018451299518 0.058357 -0.247086 0.967235
0.303307205439 -1.348240375519 -0.002597638406 0.054470 -0.206986 0.976826
0.261078506708 -1.571572303772 -0.058723866940 0.059945 -0.289521 0.955293
0.242431730032 -1.609705448151 -0.070904478431 0.076680 -0.380711 0.921509
0.191428542137 -1.655142903328 -0.086886733770 0.101642 -0.513935 0.851786
0.258306592703 -1.687796711922 -0.117474459112 0.119776 -0.622539 0.773368
0.348672002554 -1.446738481522 -0.030610304326 0.087710 -0.247877 0.964813
0.365922600031 -1.357455730438 -0.010981503874 0.099294 -0.214927 0.971569
0.351871103048 -1.219535827637 0.026424126700 0.122560 -0.362171 0.924019
0.472819536924 -1.180364847183 0.023811396211 0.186268 -0.388419 0.902461
0.432010233402 -1.276175975800 -0.000558760890 0.159640 -0.233522 0.959157
0.414868712425 -1.624413609505 -0.103650957346 0.177282 -0.505031 0.844698
0.562020897865 -1.218088865280 0.011505093426 -0.244716 -0.060868 0.967682
0.542458057404 -1.283915400505 0.001889472129 -0.304588 -0.039179 0.951678
0.609429597855 -1.213769078255 0.017852272838 0.014018 -0.095970 0.995286
0.637652635574 -1.220987439156 0.013597943820 0.237175 -0.128308 0.962956
-0.077622652054 -1.816004872322 -0.243353575468 -0.028649 -0.863573 0.503410
-0.421939462423 -1.682015776634 -0.151307255030 -0.213526 -0.668634 0.712274
0.127033904195 1.884651780128 -0.422207027674 0.035156 0.971022 0.236391
0.101997800171 1.879751682281 -0.398298740387 0.035156 0.971022 0.236391
0.260047674179 1.867294073105 -0.383017450571 0.090123 0.965970 0.242445
0.765342652798 1.721321225166 -0.262007415295 0.548391 0.767104 0.332894
0.779531419277 1.689160466194 -0.237754374743 0.864265 0.472622 0.172264
0.837871611118 1.450927734375 -0.293368011713 0.998581 0.050916 -0.015587
0.796347558498 1.648449778557 -0.563911795616 0.005533 -0.990372 -0.138320
0.663144230843 1.666750669479 -0.701869368553 0.161272 0.143769 -0.976382
0.257724136114 1.804351210594 -0.671097159386 0.022971 -0.000999 -0.999736
0.233340665698 1.753842949867 -0.671541154385 0.016879 -0.000993 -0.999857
0.178067445755 1.793322801590 -0.672474205494 0.016879 -0.000993 -0.999857
-0.039532583207 1.794318437576 -0.673638463020 -0.002944 -0.000981 -0.999995
-0.073647014797 1.814211606979 -0.673545777798 -0.002938 -0.000979 -0.999995
-0.105882816017 1.776980400085 -0.673277616501 -0.010858 -0.000987 -0.999941
-0.205565154552 1.765012741089 -0.672015964985 -0.016879 -0.000993 -0.999857
-0.266585469246 1.727471351624 -0.670870244503 -0.023017 -0.001001 -0.999735
-0.423928111792 1.759478330612 -0.688764989376 0.799835 -0.001367 -0.600218
-0.768832147121 1.687113046646 -0.642295479774 -0.844717 0.048707 -0.532993
-0.755512118340 1.655059337616 -0.628212094307 0.015556 -0.998690 -0.048742
-0.826818406582 1.592566490173 -0.366833895445 -0.996065 0.055762 -0.068883
-0.799904644489 1.577067852020 -0.395537346601 0.004125 -0.782336 -0.622844
-0.829430818558 1.562871217728 -0.350223630667 -0.997457 0.048212 -0.052498
-0.825088679790 1.581050157547 -0.298786073923 -0.968153 0.227129 0.105317
-0.815781235695 1.638900160789 -0.346840947866 -0.957663 0.281067 0.062318
-0.777653157711 1.723667502403 -0.555690109730 -0.868635 0.474196 -0.143564
-0.796783030033 1.704101443291 -0.412217766047 -0.922507 0.385351 0.022057
-0.803788304329 1.678247570992 -0.357225269079 -0.937304 0.341437 0.069869
-0.814616501331 1.609772801399 -0.263273924589 -0.958543 0.239305 0.154689
-0.773835778236 1.750350236893 -0.463032960892 -0.863338 0.500708 -0.062763
-0.366128116846 1.846801996231 -0.576912164688 -0.114048 0.973795 -0.196764
-0.009194061160 1.867031931877 -0.579970419407 -0.012764 0.980501 -0.196100
0.049175839871 1.867107748985 -0.577096700668 0.012764 0.980501 -0.196100
0.165117338300 1.874431490898 -0.513715803623 0.037792 0.988305 -0.147730
0.830445408821 1.558905243874 -0.311543852091 0.967959 0.216669 0.126924
0.773025453091 1.726891517639 -0.306332945824 0.831087 0.534800 0.152588
0.765039861202 1.761283755302 -0.393189519644 0.826244 0.553249 0.106003
0.773909032345 1.748109459877 -0.394669055939 0.842409 0.532720 0.080974
0.805689692497 1.679889440536 -0.404971092939 0.924025 0.379863 0.043375
0.816300094128 1.648851752281 -0.451332718134 0.993491 0.061882 -0.095636
0.787159919739 1.714468240738 -0.522539258003 0.877696 0.470445 -0.091280
0.750882387161 1.758268475533 -0.576844334602 0.797443 0.551837 -0.244052
0.737038791180 1.771979212761 -0.583666682243 0.737156 0.630276 -0.243623
0.689812004566 1.777220726013 -0.627813458443 0.340865 0.699671 -0.627910
0.402556777000 1.819833755493 -0.653141379356 0.082382 0.614252 -0.784798
-0.068451963365 1.825488328934 -0.672366559505 -0.009563 0.558767 -0.829270
-0.185334578156 1.836181044579 -0.660590529442 -0.054905 0.564539 -0.823579
0.055595673621 1.852850079536 -0.644480049610 0.012956 0.976409 -0.215540
0.113985449076 1.853334546089 -0.635192394257 0.037193 0.975427 -0.217161
0.439889788628 1.827551245689 -0.622729539871 0.134152 0.962511 -0.235744
0.598310172558 1.826545476913 -0.446475774050 0.248202 0.966617 -0.063610
0.653921663761 1.811208486557 -0.471625030041 0.239111 0.969932 -0.045370
0.726818144321 1.789971590042 -0.488378316164 0.269586 0.960637 -0.067080
0.601137995720 1.812266111374 -0.571722745895 0.196952 0.960965 -0.194308
0.542838752270 1.824049234390 -0.565187156200 0.160821 0.973793 -0.160821
0.575013101101 1.822117090225 -0.541010081768 0.174442 0.975119 -0.136793
0.594172656536 1.823826193810 -0.493371009827 0.238139 0.964141 -0.117139
0.527761518955 1.840540170670 -0.455617636442 0.196474 0.977490 -0.076881
0.555244386196 1.836642384529 -0.425517857075 0.190560 0.944574 0.267332
0.425853520632 1.846668481827 -0.536639750004 0.139093 0.976155 -0.166661
0.393243193626 1.846631884575 -0.561038315296 0.114523 0.978991 -0.168707
0.408824890852 1.847592353821 -0.544620335102 0.117001 0.979115 -0.166265
0.233973950148 1.869131922722 -0.520379781723 0.064381 0.986790 -0.148662
0.700624823570 1.737000346184 -0.659942626953 0.282512 0.547663 -0.787561
-0.475251019001 1.805680274963 -0.654828011990 -0.098017 0.636382 -0.765121
-0.535092115402 1.745509147644 -0.687862515450 -0.092175 0.500579 -0.860770
-0.643975138664 1.767205715179 -0.654752969742 -0.217675 0.578922 -0.785791
0.772375166416 1.721861720085 -0.585882127285 0.818902 0.515490 -0.252327
0.167281374335 1.879858374596 -0.476165920496 0.036201 0.994985 -0.093246
-0.088818944991 1.883117198944 -0.471422404051 -0.036209 0.995186 -0.091070
0.041732884943 1.887068986893 -0.423997253180 0.010708 0.972083 0.234394
0.720808863640 1.742204785347 -0.295543104410 -0.899391 0.137387 0.414995
-0.254303455353 1.861279845238 -0.558976531029 -0.090773 0.981559 -0.168233
-0.261947572231 1.872025609016 -0.487605184317 -0.089733 0.984673 -0.149555
-0.310286849737 1.867977619171 -0.485083997250 -0.089522 0.984746 -0.149204
-0.329219043255 1.856889128685 -0.544564664364 -0.090773 0.981559 -0.168233
-0.352966785431 1.866709351540 -0.454909384251 -0.118199 0.988893 -0.090112
-0.172398433089 1.880964875221 -0.414165675640 -0.060685 0.969723 0.236548
-0.301568627357 1.858262658119 -0.363725721836 -0.095390 0.965343 0.242926
-0.556221365929 1.832365632057 -0.488292038441 -0.186132 0.975632 -0.116176
-0.590854108334 1.822268724442 -0.514569699764 -0.220729 0.968400 -0.116106
-0.584703743458 1.818875193596 -0.550090372562 -0.221000 0.965420 -0.138286
-0.531177878380 1.841369509697 -0.437430977821 -0.196673 0.978536 -0.061536
-0.546304166317 1.829463243484 -0.394658714533 -0.191266 0.942569 0.273827
-0.700489819050 1.782516956329 -0.365202963352 -0.272253 0.912848 0.304283
-0.786628246307 1.699260354042 -0.292144775391 -0.830766 0.506415 0.231023
-0.652710437775 1.777866482735 -0.348290026188 -0.085762 0.485047 0.870273
-0.336064070463 1.849854111671 -0.356423020363 -0.066895 0.570744 0.818399
-0.274023145437 1.835514068604 -0.342009752989 -0.049132 0.568523 0.821199
-0.125146597624 1.828958630562 -0.359082877636 0.001046 -0.074296 0.997236
0.158701464534 1.837781667709 -0.357898890972 -0.001065 -0.094759 0.995500
0.180884569883 1.863794326782 -0.357327222824 0.028090 0.445431 0.894875
0.104684770107 1.829535365105 -0.358819067478 -0.011631 -0.075074 0.997110
0.363577097654 1.823848366737 -0.340501695871 0.066895 0.570744 0.818399
0.470656931400 1.826931715012 -0.354310184717 0.093957 0.565188 0.819594
0.506930768490 1.802785754204 -0.343058586121 0.114661 0.529761 0.840361
-0.034821897745 1.887073397636 -0.435971379280 -0.011791 0.995771 -0.091109
-0.048761233687 1.885105371475 -0.455609381199 -0.011816 0.995753 -0.091304
0.434802502394 -0.284235239029 0.501854717731 0.136024 -0.300330 0.944087
0.443400114775 -0.184730768204 0.527589380741 0.126367 -0.213164 0.968810
0.430318117142 -0.098538421094 0.545754969120 0.121262 -0.150659 0.981120
0.432667315006 -0.073464356363 0.549358904362 0.124225 -0.153744 0.980271
0.428042083979 0.026317048818 0.562214553356 0.122317 -0.105691 0.986847
0.446473568678 0.103879563510 0.566814899445 0.121051 -0.068019 0.990313
0.408656030893 0.141168162227 0.574146151543 0.126415 -0.073065 0.989283
0.394390791655 0.343698590994 0.584983646870 0.129376 -0.030375 0.991130
0.416898727417 0.419451147318 0.583678722382 0.129610 -0.014401 0.991461
0.372687757015 0.459048390388 0.590046226978 0.129895 -0.014433 0.991423
0.415953785181 0.604094624519 0.583142518997 0.131587 0.030366 0.990839
0.411883085966 0.635825574398 0.582708597183 0.133805 0.028110 0.990609
0.455862581730 0.789282083511 0.569277763367 0.135639 0.083742 0.987213
0.448633849621 0.980765759945 0.548873722553 0.139657 0.172369 0.975082
0.396039724350 1.031446456909 0.553945124149 0.239698 0.125679 0.962678
0.295075058937 1.016992330551 0.562437057495 0.141836 0.169450 0.975279
0.208444893360 0.987240910530 0.575026214123 0.082321 0.156291 0.984275
0.173573523760 0.995500802994 0.576236546040 0.045320 0.156876 0.986578
0.071841023862 1.016196370125 0.577524781227 0.014654 0.149923 0.988589
-0.143474489450 1.020494818687 0.573942840099 -0.052534 0.155268 0.986475
-0.247642993927 1.016515493393 0.566964983940 -0.084890 0.156627 0.984003
-0.257326513529 1.004888772964 0.568104743958 -0.077855 0.164094 0.983368
-0.390603452921 1.008441925049 0.557460069656 -0.190897 0.074170 0.978804
-0.296204030514 0.993413984776 0.566271662712 -0.111644 0.163172 0.980260
-0.269546687603 0.906069099903 0.580958425999 -0.077587 0.116959 0.990101
-0.384293675423 0.887274265289 0.570423364639 -0.136963 0.122418 0.982983
-0.410038918257 0.838857471943 0.571422636509 -0.138275 0.083910 0.986833
-0.386247575283 0.818611562252 0.576377332211 -0.135350 0.081210 0.987464
-0.212565720081 0.883012950420 0.587962567806 -0.074789 0.113910 0.990672
-0.157685920596 0.960353851318 0.582534611225 -0.046186 0.113775 0.992432
0.046524763107 0.947542786598 0.587747514248 0.016399 0.110417 0.993750
-0.101822309196 0.823265075684 0.598854959011 -0.042635 0.079803 0.995898
-0.251747041941 0.741621494293 0.595699191093 -0.073562 0.053799 0.995838
-0.333939313889 0.695168972015 0.590249776840 -0.104597 0.052861 0.993109
-0.304392516613 0.779652535915 0.588806807995 -0.104597 0.052861 0.993109
-0.401670992374 0.738520741463 0.579724788666 -0.132197 0.054028 0.989750
-0.444957554340 0.750507652760 0.573145508766 -0.134761 0.054135 0.989398
-0.343829184771 0.593516170979 0.592484891415 -0.104581 0.029723 0.994072
-0.207769840956 0.718767583370 0.600219130516 -0.075746 0.053791 0.995675
0.056586083025 0.814347624779 0.600530683994 0.013858 0.079949 0.996703
0.109502926469 0.904036760330 0.591059625149 0.045992 0.111053 0.992750
0.332957953215 1.003713250160 0.564804375172 -0.013062 0.017081 0.999769
0.222146451473 0.840629100800 0.590927124023 0.075250 0.079742 0.993971
0.075101658702 0.760614931583 0.604092121124 0.015648 0.055290 0.998348
0.016284987330 0.619307160378 0.611458182335 0.015343 0.033754 0.999312
-0.045550722629 0.650216042995 0.609977841377 -0.015343 0.033754 0.999312
-0.100064784288 0.590867221355 0.610797584057 -0.047340 0.032612 0.998346
-0.202429533005 0.635384142399 0.604023456573 -0.076494 0.031244 0.996580
-0.232871383429 0.527406275272 0.603783488274 -0.077017 0.007385 0.997002
-0.273844212294 0.557688653469 0.600399434566 -0.104963 0.007575 0.994447
-0.346670985222 0.532186985016 0.592900812626 -0.104738 0.007558 0.994471
-0.418202698231 0.504745423794 0.584162294865 -0.131221 0.007719 0.991323
-0.420196413994 0.396618932486 0.582938492298 -0.129610 -0.014401 0.991461
-0.381431728601 0.167937010527 0.579545199871 -0.123761 -0.046552 0.991220
-0.448640763760 0.148334130645 0.569678843021 -0.125878 -0.068136 0.989703
-0.384006172419 0.124434761703 0.576117455959 -0.121289 -0.072773 0.989946
-0.467650234699 -0.143775448203 0.533551573753 -0.126680 -0.213692 0.968653
-0.419082939625 -0.324348717928 0.490459948778 -0.166415 -0.986039 -0.005660
-0.382448703051 -0.315455794334 0.498926788568 -0.102459 -0.315362 0.943424
-0.340425759554 -0.242701530457 0.526945292950 -0.105119 -0.224169 0.968865
-0.358913183212 -0.191530287266 0.536685168743 -0.107744 -0.219290 0.969692
-0.351542025805 -0.056740894914 0.561828315258 -0.108045 -0.154177 0.982118
-0.352247595787 -0.002624593675 0.568198204041 -0.106959 -0.106959 0.988494
-0.281331777573 0.070295557380 0.583271622658 -0.103862 -0.074187 0.991821
-0.298789262772 0.172354221344 0.588778257370 -0.104155 -0.048158 0.993394
-0.301049888134 0.318951845169 0.594810843468 -0.104803 -0.031993 0.993978
-0.325809806585 0.360643565655 0.593494594097 -0.104803 -0.031993 0.993978
-0.327678531408 0.403886526823 0.594209551811 -0.105638 -0.014158 0.994304
-0.312802582979 0.445638179779 0.596393108368 -0.105638 -0.014158 0.994304
-0.189541563392 0.482381820679 0.607564508915 -0.077178 0.009515 0.996972
-0.085152469575 0.528295516968 0.612193167210 -0.017048 0.011031 0.999794
-0.005990014412 0.567958056927 0.613050639629 -0.015043 0.011031 0.999826
0.011137619615 0.494102001190 0.613781034946 0.015043 0.011031 0.999826
0.148976996541 0.718667328358 0.603630006313 0.043930 0.054645 0.997539
0.257002860308 0.822815239429 0.589786529541 0.073002 0.081987 0.993956
0.279810488224 0.842181563377 0.586335837841 0.107030 0.081711 0.990892
0.358825922012 0.888242065907 0.573653817177 0.105258 0.117084 0.987528
0.391697287560 0.995008707047 0.557233572006 0.252372 0.003588 0.967624
0.359630614519 0.988498926163 0.562943458557 0.090687 -0.031686 0.995375
0.310672640800 0.790099978447 0.587345838547 0.104754 0.081731 0.991134
0.272128552198 0.772222101688 0.592541813850 0.075746 0.053791 0.995675
0.239016085863 0.672181248665 0.600166559219 0.074352 0.031249 0.996742
0.143116876483 0.609254002571 0.608221054077 0.047343 0.030510 0.998413
0.110708311200 0.538895189762 0.611063361168 0.046388 0.009278 0.998880
0.080702662468 0.489001780748 0.612671554089 0.017048 0.011031 0.999794
0.009475488216 0.445811748505 0.613545596600 0.017081 -0.013062 0.999769
-0.066966995597 0.415028423071 0.612160325050 -0.017116 -0.013089 0.999768
-0.203857973218 0.256002783775 0.600957095623 -0.079961 -0.047101 0.995685
-0.238196372986 0.072290606797 0.587033808231 -0.081805 -0.072840 0.993983
-0.213184088469 -0.018414609134 0.579642236233 -0.082065 -0.109805 0.990560
-0.265893697739 -0.099069558084 0.563899517059 -0.082678 -0.159365 0.983751
-0.212338030338 -0.089878544211 0.569886922836 -0.080267 -0.161731 0.983565
-0.287541151047 -0.223534464836 0.536981582642 -0.083686 -0.226077 0.970508
-0.164893418550 -0.287170082331 0.527724862099 -0.050311 -0.328955 0.943004
-0.102292314172 0.022858263925 0.590879142284 -0.053059 -0.111763 0.992317
-0.096485719085 0.055709414184 0.594783306122 -0.051497 -0.073410 0.995971
-0.156888991594 0.262822657824 0.604250669479 -0.050253 -0.048115 0.997577
-0.089093431830 0.314502835274 0.609320044518 -0.017389 -0.031709 0.999346
-0.009676672518 0.354482740164 0.611916363239 -0.017390 -0.029665 0.999409
0.094415009022 0.474947720766 0.612404704094 0.048743 -0.013482 0.998720
0.334700196981 0.616268634796 0.592785358429 0.104581 0.029723 0.994072
0.202078104019 0.484191149473 0.606575846672 0.077179 0.007401 0.996990
0.194740787148 0.465454697609 0.607016682625 0.077665 -0.013831 0.996884
0.172396376729 0.420857518911 0.607845246792 0.048743 -0.013482 0.998720
0.091035746038 0.335535138845 0.609936356544 0.017389 -0.031709 0.999346
-0.061558648944 0.257173866034 0.607783317566 -0.017631 -0.046671 0.998755
-0.076076209545 0.244468197227 0.606940805912 -0.017631 -0.046671 0.998755
-0.011247543618 0.057757318020 0.596573531628 -0.018053 -0.073273 0.997149
-0.000104000675 -0.037442453206 0.586199998856 -0.018661 -0.113062 0.993413
-0.021438352764 -0.123842179775 0.572282969952 -0.017138 -0.165672 0.986032
-0.042857341468 -0.242188230157 0.545728623867 -0.015566 -0.238278 0.971072
-0.026948027313 -0.350672006607 0.509384810925 -0.013865 -0.336544 0.941566
0.336699247360 -0.187250807881 0.539942741394 0.108153 -0.225213 0.968288
0.318072766066 -0.062342628837 0.564552128315 0.108262 -0.156920 0.981660
0.350907236338 -0.007604956161 0.567764937878 0.104366 -0.109056 0.988542
0.345591276884 0.289523839951 0.589175701141 0.104803 -0.031993 0.993978
0.310636401176 0.327549457550 0.594061613083 0.104803 -0.031993 0.993978
0.350098252296 0.428816080093 0.592203080654 0.105638 -0.014158 0.994304
0.287662386894 0.480925768614 0.599507629871 0.104738 0.007558 0.994471
0.253863960505 0.422415316105 0.601760983467 0.077665 -0.013831 0.996884
0.138300418854 0.267996072769 0.605429232121 0.050151 -0.045883 0.997687
0.222082719207 0.289954483509 0.600868821144 0.078975 -0.031374 0.996383
0.248550444841 0.141115486622 0.591300070286 0.079578 -0.072853 0.994163
0.184519290924 0.120539307594 0.594960808754 0.051497 -0.073410 0.995971
0.126523762941 0.031268585473 0.590543925762 0.053059 -0.111763 0.992317
0.092656090856 0.037986308336 0.593033373356 0.018661 -0.113062 0.993413
0.012404970825 -0.136341974139 0.570335745811 0.017138 -0.165672 0.986032
0.025356948376 -0.157571986318 0.566525340080 0.017138 -0.165672 0.986032
0.264797300100 0.077336862683 0.585241138935 0.081987 -0.073002 0.993956
0.258343398571 -0.051047861576 0.572276175022 0.082065 -0.109805 0.990560
0.191155642271 -0.090176716447 0.571568489075 0.082842 -0.162081 0.983294
0.169835790992 -0.179501086473 0.556387364864 0.052865 -0.237276 0.970003
0.025963407010 -0.285638064146 0.532742083073 0.016464 -0.338135 0.940953
0.099754959345 -0.329710453749 0.515772104263 0.013865 -0.336544 0.941566
0.240679636598 -0.304227560759 0.516351699829 0.082995 -0.325394 0.941929
-0.461805164814 -0.826250016689 -0.721032083035 0.000993 -0.016879 -0.999857
0.207034021616 -0.997285485268 -0.718241691589 0.000993 -0.016879 -0.999857
-0.461301982403 -1.041837930679 -0.717514872551 0.000993 -0.016879 -0.999857
-0.013405650854 -1.045784473419 -0.717450439930 0.000993 -0.016879 -0.999857
0.001162767410 -0.911166310310 -0.719646692276 0.000993 -0.016879 -0.999857
-0.258845865726 -1.360351443291 -0.712318420410 0.000993 -0.016879 -0.999857
-0.036239236593 -1.102544784546 -0.716524422169 0.000993 -0.016879 -0.999857
-0.471901178360 -0.814328491688 -0.721226572990 0.000993 -0.016879 -0.999857
-0.444827109575 -0.811399340630 -0.721274375916 0.000993 -0.016879 -0.999857
-0.108804017305 -1.063255786896 -0.717165410519 0.000993 -0.016879 -0.999857
-0.147567540407 -0.853990793228 -0.720579504967 0.000993 -0.016879 -0.999857
0.296413809061 -0.883702754974 -0.720094799995 0.000993 -0.016879 -0.999857
-0.137817695737 -1.274764299393 -0.713714718819 0.000993 -0.016879 -0.999857
-0.086739838123 -1.083958983421 -0.716827690601 0.000993 -0.016879 -0.999857
-0.407310903072 -0.910052657127 -0.719664871693 0.000993 -0.016879 -0.999857
0.043917596340 -0.912707746029 -0.719621598721 0.000993 -0.016879 -0.999857
-0.113288395107 -1.239917397499 -0.714283227921 0.000993 -0.016879 -0.999857
-0.254751175642 -1.375280618668 -0.712074816227 0.000993 -0.016879 -0.999857
-0.392046123743 -0.854400396347 -0.720572829247 0.000993 -0.016879 -0.999857
-0.302533358335 -0.883000016212 -0.720106244087 0.000993 -0.016879 -0.999857
0.242901429534 -0.868223428726 -0.720347344875 0.000993 -0.016879 -0.999857
0.028869576752 -1.089385271072 -0.716739118099 0.000993 -0.016879 -0.999857
-0.229310393333 -0.882510602474 -0.720114231110 0.000993 -0.016879 -0.999857
0.009506627917 -1.051198959351 -0.717362105846 0.000993 -0.016879 -0.999857
0.001797661185 -1.040995359421 -0.717528581619 0.000993 -0.016879 -0.999857
-0.176367282867 -0.879367768764 -0.720165491104 0.000993 -0.016879 -0.999857
-0.120962560177 -0.951867818832 -0.718982696533 0.000993 -0.016879 -0.999857
-0.021480262280 -1.066392421722 -0.717114269733 0.000993 -0.016879 -0.999857
-0.350042194128 -1.293285369873 -0.713412582874 0.000993 -0.016879 -0.999857
-0.360894799232 -0.895737826824 -0.719898402691 0.000993 -0.016879 -0.999857
-0.106240689754 -0.945133626461 -0.719092547894 0.000993 -0.016879 -0.999857
-0.468666374683 -1.495286703110 -0.710116982460 0.000993 -0.016879 -0.999857
-0.375871837139 -1.103825807571 -0.716503560543 0.000993 -0.016879 -0.999857
0.212431102991 -0.931564152241 -0.719313919544 0.000993 -0.016879 -0.999857
-0.156198203564 -0.962121427059 -0.718815386295 0.000993 -0.016879 -0.999857
