-0.798882603645 1.332893729210 -0.525881588459 -0.999987 0.004907 0.000981
-0.761312305927 1.207988977432 -0.571803390980 -0.003450 -0.980927 -0.194345
-0.786264538765 1.271535634995 -0.391745060682 -0.001333 -0.491969 0.870612
-0.727863371372 1.318098783493 -0.393678396940 0.999987 -0.004907 -0.000981
-0.792704701424 1.389354467392 -0.406927824020 -0.999987 0.004907 -0.000981
-0.736499428749 1.299988389015 -0.471812605858 0.004080 0.825500 -0.564387
-0.785782396793 1.250465631485 -0.600787758827 0.001275 0.376001 -0.926619
-0.793410956860 1.223441958427 -0.609217584133 -0.999987 0.004907 -0.000981
-0.793321907520 1.244379878044 -0.514781594276 -0.999987 0.004907 0.000981
-0.773598253727 1.405721187592 -0.376710087061 0.004936 0.999976 0.004936
-0.667093038559 1.402349233627 -0.555484235287 0.871733 -0.068126 -0.485223
-0.301208466291 1.391799330711 -0.427434504032 0.114579 -0.918015 -0.379630
-0.130168288946 1.415335178375 -0.414684474468 0.001372 0.607653 -0.794201
-0.734473466873 1.440783619881 -0.519901216030 0.003843 0.923713 0.383066
-0.739628314972 1.379198551178 -0.508443653584 -0.001372 -0.607653 0.794201
-0.721011877060 1.373556852341 -0.515344738960 -0.004115 -0.794195 0.607649
-0.623731195927 1.406050086021 -0.510245442390 -0.298369 0.127108 0.945949
-0.226119175553 1.415385246277 -0.391318440437 -0.184815 0.780500 0.597212
-0.043902941048 0.335319906473 -0.393084734678 -0.963183 0.003616 0.268823
-0.044033907354 0.663066506386 -0.398559123278 -0.963183 0.003616 0.268823
-0.046684399247 -0.601634442806 -0.388755381107 -0.963183 0.003616 0.268823
-0.038530282676 -0.264220118523 -0.380122125149 -0.693130 0.004150 0.720800
-0.045998021960 -0.868041455746 -0.384829550982 -0.693130 0.004150 0.720800
-0.035733826458 0.443348228931 -0.380329251289 -0.693130 0.004150 0.720800
-0.032739181072 -0.177932947874 -0.375563353300 -0.248977 0.001191 0.968509
-0.025162052363 0.471067458391 -0.374323368073 -0.248977 0.001191 0.968509
-0.014656943269 -0.024221844971 -0.373225361109 0.248977 -0.001191 0.968509
-0.005098277237 0.250501573086 -0.375385999680 0.248977 -0.001191 0.968509
-0.003306104336 -0.313861548901 -0.378278672695 0.693130 -0.004150 0.720800
-0.006205731072 -0.776496887207 -0.377384454012 0.693130 -0.004150 0.720800
0.002965735737 -0.642496824265 -0.385651767254 0.693130 -0.004150 0.720800
0.006937867031 0.859147250652 -0.383325755596 0.693130 -0.004150 0.720800
0.006726982072 0.115964651108 -0.387204766273 0.963183 -0.003616 0.268823
0.002998176962 -0.878318428993 -0.389011174440 0.963183 -0.003616 0.268823
0.002574057318 -0.855135738850 -0.387135773897 0.963183 -0.003616 0.268823
0.010988038965 0.375125944614 -0.400298058987 0.963183 -0.003616 -0.268823
0.004430877976 -0.837260365486 -0.405307173729 0.963183 -0.003616 -0.268823
-0.004357092083 -0.762231886387 -0.419727861881 0.693130 -0.004150 -0.720800
-0.002064173575 0.121079340577 -0.421138048172 0.693130 -0.004150 -0.720800
-0.006896546111 -0.018878100440 -0.423612743616 0.248977 -0.001191 -0.968509
-0.006549122743 -0.434142529964 -0.423067957163 0.248977 -0.001191 -0.968509
-0.016114681959 -0.388954937458 -0.425581246614 0.248977 -0.001191 -0.968509
-0.026681683958 -0.664388298988 -0.425361096859 -0.248977 0.001191 -0.968509
-0.018612852320 0.275453358889 -0.426408916712 -0.248977 0.001191 -0.968509
-0.027904216200 -0.026106819510 -0.424346417189 -0.248977 0.001191 -0.968509
-0.043747413903 -0.915761768818 -0.416359812021 -0.693130 0.004150 -0.720800
-0.046547066420 -0.823093295097 -0.413289606571 -0.693130 0.004150 -0.720800
-0.040159523487 0.847709119320 -0.411350458860 -0.963183 0.003616 -0.268823
-0.047707613558 -0.674074172974 -0.407511025667 -0.963183 0.003616 -0.268823
-0.012838834897 0.901467919350 -0.412519365549 0.248977 -0.001191 -0.968509
0.004174824804 1.072929024696 -0.419035643339 0.693130 -0.004150 -0.720800
-0.009927954525 0.973520636559 -0.425481557846 0.248977 -0.001191 -0.968509
-0.028958953917 1.094195842743 -0.376480221748 -0.693130 0.004150 0.720800
-0.044423356652 1.300213336945 -0.411365836859 0.006883 0.999976 0.000983
0.000679281540 1.301218152046 -0.363707184792 -0.002990 0.999816 -0.018940
0.004460876808 1.214642167091 -0.358815699816 -0.065416 0.001038 0.997858
-0.003382093273 1.190211772919 -0.359325021505 -0.065416 0.001038 0.997858
-0.049976747483 1.270161271095 -0.364634901285 -0.302950 0.001227 0.953006
0.059617705643 1.230787634850 -0.433353900909 0.135260 -0.001100 -0.990809
0.078254818916 1.116673111916 -0.389837682247 -0.004907 -0.999987 -0.000981
0.007274177391 1.116975307465 -0.423075616360 -0.004907 -0.999987 -0.000981
-0.071418188512 1.172615528107 -0.446926593781 -0.487672 0.001329 -0.873026
-0.092585802078 1.175995111465 -0.427790969610 -0.781265 0.004134 -0.624185
-0.101975254714 1.123484849930 -0.403378933668 -0.972648 0.003537 -0.232257
-0.024757679552 1.117111563683 -0.388879507780 -0.004907 -0.999987 0.000981
0.075488589704 1.188338279724 -0.375906705856 0.004907 0.999987 -0.000981
0.080037772655 1.188318967819 -0.401007592678 0.004907 0.999987 -0.000981
0.027792837471 1.138074040413 -0.454147279263 0.069839 -0.001042 -0.997558
0.059528358281 1.140107989311 -0.447576791048 0.226229 -0.001172 -0.974073
-0.071336925030 1.179382085800 -0.351430237293 -0.487672 0.001329 0.873026
-0.004599404987 1.157562017441 -0.341989159584 0.069839 -0.001042 0.997558
-0.123451605439 1.395728111267 -0.380467772484 -0.999987 0.004907 0.000981
-0.084492340684 1.325868844986 -0.433231592178 -0.005503 -0.128773 -0.991659
-0.031076300889 1.305402517319 -0.360479742289 -0.061562 -0.260066 0.963626
0.048270527273 1.335970401764 -0.350874453783 0.122437 -0.364561 0.923095
0.054640978575 1.307080626488 -0.360309511423 0.059123 -0.265424 0.962317
0.026589227840 1.341551542282 -0.460044026375 0.087863 -0.001059 -0.996132
0.122461110353 1.337366223335 -0.425323367119 0.999575 -0.029133 -0.001005
0.012290036306 1.455944418907 -0.445806264877 0.113613 0.632986 -0.765781
0.144759684801 1.381358861923 -0.410731643438 0.999987 -0.004907 0.000981
0.071183145046 1.415581822395 -0.341429293156 0.128932 0.283120 0.950379
0.037805028260 1.433415651321 -0.342352896929 0.111090 0.319886 0.940921
-0.114124700427 1.426340460777 -0.402876645327 0.003469 0.979310 -0.202337
-0.043839935213 1.091076374054 -0.438611835241 -0.539322 0.001352 -0.842099
-0.011340931058 1.083557248116 -0.448489606380 0.097074 -0.001067 -0.995277
0.071997262537 1.139492392540 -0.374544084072 0.592312 -0.001368 0.805708
0.027222128585 1.078954577446 -0.353948056698 0.312519 -0.001235 0.949911
0.019792899489 1.067828655243 -0.382052600384 0.821204 -0.004086 0.570621
-0.007511535659 1.302260279655 -0.403562426567 0.002979 -0.999885 0.014894
0.100204356015 1.301267266273 -0.413157910109 -0.004907 -0.999987 0.000981
0.801078557968 1.320334076881 -0.509573280811 -0.003458 -0.980840 0.194785
0.816064894199 1.429799318314 -0.614315330982 0.999987 -0.004907 0.000981
0.816135823727 1.446454882622 -0.513127446175 0.999987 -0.004907 0.000981
0.792872309685 1.419453620911 -0.636902630329 0.466595 -0.175157 0.866954
0.763749659061 1.336699485779 -0.613116621971 -0.999987 0.000981 -0.004907
0.793778419495 1.258563876152 -0.596502900124 -0.004071 -0.831835 -0.555009
0.783562600613 1.360983848572 -0.460723996162 0.999736 0.009043 -0.021100
0.784214317799 1.459663391113 -0.608977973461 0.999667 -0.017218 0.019244
0.764326035976 1.470243334770 -0.609866380692 -0.999964 0.006910 -0.004936
0.764814198017 1.539495348930 -0.542920112610 -0.999960 0.008884 -0.000987
0.764335930347 1.443592548370 -0.417957246304 -0.999976 0.004936 0.004936
0.799083530903 1.454391837120 -0.398302018642 0.999864 -0.006978 -0.014953
0.798653066158 1.407664179802 -0.405346781015 0.999864 -0.006978 -0.014953
0.798368215561 1.395072221756 -0.420912474394 0.999889 -0.000991 -0.014865
0.763558864594 1.371179223061 -0.520768880844 -0.999995 0.000979 0.002938
0.798066198826 1.271090984344 -0.517108678818 0.999936 0.010880 -0.002967
0.798188507557 1.282122373581 -0.603465199471 0.999936 0.006937 0.008919
0.798441708088 1.326398134232 -0.655108213425 0.999913 0.002973 0.012883
0.798288166523 1.351197838783 -0.650116920471 0.999913 0.002973 0.012883
0.798971176147 1.518528938293 -0.549982964993 0.999816 -0.018940 0.002990
0.799482345581 1.539364099503 -0.594546973705 0.999815 -0.017014 0.009007
0.787577509880 1.455984711647 -0.454203069210 0.464990 -0.491467 -0.736373
0.787521362305 1.327154755592 -0.495539516211 -0.004071 -0.831835 0.555009
0.772449553013 1.200711011887 -0.568005979061 -0.003450 -0.980927 -0.194345
0.759141921997 1.298828840256 -0.372648060322 -0.001333 -0.491969 0.870612
0.777767837048 1.279156684875 -0.564850807190 0.003545 0.972520 0.232790
0.756615161896 1.230466246605 -0.606253921986 0.001275 0.376001 -0.926619
0.768228709698 1.228523731232 -0.607024192810 0.001275 0.376001 -0.926619
0.809456169605 1.272121191025 -0.425974845886 0.999987 -0.004907 -0.000981
0.744248330593 1.257301926613 -0.592921495438 -0.999987 0.004907 0.000981
0.744089603424 1.220019578934 -0.581407964230 -0.999987 0.004907 0.000981
0.779298424721 1.399142861366 -0.382269829512 0.004936 0.999976 0.004936
0.187933266163 1.374880433083 -0.394868314266 -0.003301 -0.991385 0.130938
0.769195735455 1.430060863495 -0.559837937355 0.004124 0.793179 -0.608975
0.760747909546 1.421842813492 -0.567808806896 0.001372 0.607653 -0.794201
0.225479021668 1.412986278534 -0.406408727169 0.188204 0.906539 -0.377844
0.706011772156 1.370764493942 -0.546658813953 -0.300835 -0.881342 -0.364328
0.726113021374 1.389656543732 -0.500470340252 -0.300035 -0.363360 0.882014
0.547884345055 1.409357309341 -0.504521012306 -0.238917 0.591827 -0.769844
0.345929205418 1.399064660072 -0.417368769646 0.298369 -0.127108 0.945949
0.436509490013 1.387997746468 -0.455395311117 0.114579 -0.918015 0.379630
0.389920860529 1.387621283531 -0.444368302822 0.037367 -0.990781 0.130217
0.338635265827 1.389280080795 -0.434288918972 -0.123496 -0.917197 -0.378812
-0.495533943176 1.483524322510 -0.553245425224 0.000978 0.000978 0.999999
-0.345168679953 1.515505075455 -0.553245425224 0.000978 0.000978 0.999999
-0.328986346722 1.495939135551 -0.553245425224 0.000978 0.000978 0.999999
-0.392626821995 1.523896098137 -0.570495247841 0.000978 0.000978 -0.999999
-0.716186881065 1.455809235573 -0.553245425224 0.000978 0.000978 0.999999
-0.700934171677 1.467323541641 -0.570495247841 0.000978 0.000978 -0.999999
-0.618818223476 1.479578971863 -0.570495247841 0.000978 0.000978 -0.999999
-0.446906954050 1.521511912346 -0.554198384285 -0.141108 0.989979 0.005555
-0.297116994858 1.347424864769 -0.570495247841 0.000978 0.000978 -0.999999
-0.310435324907 1.406196236610 -0.570495247841 0.000978 0.000978 -0.999999
-0.218317568302 1.405190467834 -0.564545631409 0.089922 -0.024918 -0.995637
-0.234595641494 1.281633973122 -0.546505570412 -0.140492 0.001106 0.990081
-0.486135303974 1.269166588783 -0.570495247841 0.000978 0.000978 -0.999999
-0.510953068733 1.239608883858 -0.561293005943 0.493103 -0.869945 -0.006682
-0.545616269112 1.303510546684 -0.567645847797 -0.636234 -0.771485 -0.004140
-0.662301063538 1.357806205750 -0.560977101326 0.070423 0.997490 0.007358
-0.713075757027 1.332235574722 -0.552760183811 0.000978 0.000978 0.999999
-0.702823102474 1.297762155533 -0.570118427277 -0.012908 0.002979 -0.999912
-0.183861166239 1.268100619316 -0.556527137756 0.140492 -0.001106 -0.990081
-0.119988746941 1.253598093987 -0.515105247498 -0.771485 -0.004140 0.636234
-0.028345271945 1.245424747467 -0.449220955372 -0.135260 0.001100 0.990809
-0.105547048151 1.272963047028 -0.514685451984 0.781483 -0.012448 -0.623803
-0.050691559911 1.293604612350 -0.459535598755 0.002961 0.999972 0.006910
0.146887108684 1.295073390007 -0.532926380634 -0.054838 0.998469 0.007243
0.559096693993 1.498516201973 -0.553245425224 0.000978 0.000978 0.999999
0.756721138954 1.458388090134 -0.553245425224 0.000978 0.000978 0.999999
0.378027290106 1.490507602692 -0.559398293495 -0.081553 -0.996641 -0.007414
0.263356536627 1.319395780563 -0.549292385578 0.109010 -0.001079 0.994040
0.133859023452 1.286985874176 -0.528308391571 -0.771694 0.009698 -0.635920
0.046519849449 1.267882466316 -0.466661751270 -0.135260 0.001100 -0.990809
0.059881508350 1.291770339012 -0.451243460178 0.135260 0.001100 0.990809
0.224731132388 1.282834172249 -0.559939146042 -0.140185 0.001104 -0.990125
0.562250375748 1.477294206619 -0.570495247841 0.000978 0.000978 -0.999999
0.682879507542 1.327478647232 -0.570495247841 0.000978 0.000978 -0.999999
0.546975195408 1.255314111710 -0.562818348408 0.939829 0.341642 0.001251
0.607213616371 1.202692627907 -0.553245425224 0.000978 0.000978 0.999999
0.329523146152 1.289501070976 -0.555955171585 0.146102 -0.989254 -0.005576
0.341293752193 1.378363966942 -0.556589782238 -0.104738 -0.994471 -0.007558
0.500110030174 1.317702412605 -0.570495247841 0.000978 0.000978 -0.999999
0.635414361954 1.349244594574 -0.553372621536 -0.063610 0.997948 0.007300
0.692254662514 1.327265977859 -0.553108513355 -0.014865 -0.000991 0.999889
0.688515901566 1.318935990334 -0.570414960384 0.014865 0.000991 -0.999889
0.754762768745 1.288507342339 -0.552760183811 0.000978 0.000978 0.999999
0.720475554466 1.232030272484 -0.558586597443 0.946931 -0.321435 -0.001241
0.712189793587 1.246635675430 -0.552769243717 -0.014924 -0.004975 0.999876
0.692075610161 1.210252285004 -0.570423603058 0.014865 -0.000991 -0.999889
0.542390286922 1.224296689034 -0.429371088743 -0.946330 -0.263552 -0.187081
0.584517002106 1.215989828110 -0.563320875168 -0.673931 -0.714028 -0.189688
0.525479793549 1.195620894432 -0.278741955757 -0.673931 -0.714028 -0.189688
0.612420082092 1.202813863754 -0.539625108242 -0.234203 -0.961670 -0.142615
0.622907876968 1.203120350838 -0.519916892052 0.256477 -0.964604 -0.061304
0.582149326801 1.176479339600 -0.271352112293 0.256477 -0.964604 -0.061304
0.660888373852 1.232893347740 -0.490067660809 0.953354 -0.271819 0.131268
0.650093317032 1.265168547630 -0.556329965591 0.152980 -0.001117 -0.988229
0.622689366341 1.261890292168 -0.560578465462 0.152980 -0.001117 -0.988229
0.521510243416 1.240879058838 -0.335828691721 -0.953354 0.271819 -0.131268
0.586669325829 1.229482293129 -0.215289652348 -0.152980 0.001117 0.988229
0.609315335751 1.201956748962 -0.211758688092 -0.152980 0.001117 0.988229
0.615972340107 1.252083778381 -0.228138878942 0.946330 0.263552 0.187081
0.646580100060 1.289401173592 -0.467544525862 0.673931 0.714028 0.189688
0.573807895184 1.297017693520 -0.400156646967 -0.256477 0.964604 0.061304
0.529279470444 1.270701050758 -0.251130521297 -0.690812 0.722019 -0.038300
0.577231824398 1.214257240295 -0.522682487965 0.699229 0.708062 0.098628
0.620341420174 1.336476922035 -0.475280404091 -0.211839 -0.765404 0.607685
0.582287669182 1.187368869781 -0.467541992664 -0.234610 -0.040115 0.971262
0.677988231182 1.278224945068 -0.438718080521 -0.947642 -0.254977 -0.192255
0.525687873363 1.207205057144 -0.431956529617 -0.452103 -0.279285 0.847114
0.576853096485 1.179645895958 -0.417573601007 -0.307611 -0.368225 0.877374
0.525572836399 1.285200715065 -0.428532809019 -0.545329 0.124271 0.828959
0.608072102070 1.171504020691 -0.425561815500 0.288076 -0.095156 -0.952868
0.663960814476 1.202467560768 -0.408483833075 0.390772 -0.038156 -0.919696
0.685336112976 1.262212514877 -0.392018973827 0.470248 0.269814 -0.840278
0.653574705124 1.294771909714 -0.382800638676 -0.646920 -0.713678 0.268623
0.684325575829 1.281632065773 -0.379134893417 0.882132 0.201756 0.425603
0.491265565157 1.252244234085 -0.289449334145 -0.606772 0.138648 0.782691
0.584935963154 1.337902784348 -0.487550854683 0.222242 -0.610777 -0.759974
-0.522626459599 1.266006112099 -0.423582047224 0.955415 0.264881 -0.130464
-0.512447953224 1.209844589233 -0.327158838511 0.667572 -0.719991 -0.189634
-0.563344061375 1.184740543365 -0.332300782204 0.224973 -0.963614 -0.144347
-0.578862667084 1.292923450470 -0.313567012548 -0.224973 0.963614 0.144347
-0.636533737183 1.222636222839 -0.552559018135 -0.696587 -0.716449 0.038305
-0.602368533611 1.209662675858 -0.242229908705 -0.955415 -0.264881 0.130464
-0.537910640240 1.247331857681 -0.535932362080 -0.369134 0.059538 -0.927467
-0.640098392963 1.193496942520 -0.503995716572 0.058601 -0.641751 0.764670
-0.563291549683 1.348569869995 -0.473000407219 0.120726 0.147554 0.981658
-0.506251275539 1.287826776505 -0.483364790678 0.960519 0.262892 0.091051
-0.515561163425 1.273296952248 -0.438800275326 -0.914416 -0.241244 -0.325029
-0.632922053337 1.304870724678 -0.384529232979 0.273733 -0.231620 -0.933500
-0.492802828550 1.242164731026 -0.395118564367 0.497305 -0.170717 -0.850614
-0.520268499851 1.304270744324 -0.379126310349 0.018445 -0.098735 0.994943
-0.574189484119 1.307316899300 -0.282166987658 0.215590 -0.938860 -0.268444
-0.483872830868 1.237623810768 -0.286085397005 -0.297813 -0.121529 0.946857
-0.519383370876 1.294151067734 -0.291185855865 -0.691252 -0.678598 -0.248345
-0.511505842209 1.208443760872 -0.431862503290 0.448859 -0.285357 0.846816
-0.526354193687 0.573005318642 -0.476371377707 -0.989771 -0.142660 0.001106
-0.388721674681 0.506768524647 -0.375141888857 -0.033281 -0.999445 0.001009
-0.485325783491 0.509951889515 -0.447309166193 -0.033281 -0.999445 0.001009
-0.308877676725 0.504137456417 -0.444920331240 -0.033281 -0.999445 0.001009
-0.425306379795 0.507974088192 -0.488894671202 -0.033281 -0.999445 0.001009
-0.447722375393 0.513904511929 -0.525147914886 -0.028638 -0.860492 -0.508658
-0.350271493196 0.590547144413 -0.543887138367 0.000978 0.000978 -0.999999
-0.358051300049 0.638446092606 -0.543887138367 0.000978 0.000978 -0.999999
-0.364691406488 0.644285678864 -0.543887138367 0.000978 0.000978 -0.999999
-0.256154716015 0.558057010174 -0.543887138367 0.000978 0.000978 -0.999999
-0.375022143126 0.802809238434 -0.543887138367 0.000978 0.000978 -0.999999
-0.303515255451 0.695268392563 -0.543887138367 0.000978 0.000978 -0.999999
-0.370185017586 0.795079767704 -0.543887138367 0.000978 0.000978 -0.999999
-0.361784011126 0.883706688881 -0.543887138367 0.000978 0.000978 -0.999999
-0.339414775372 0.933928489685 -0.543887138367 0.000978 0.000978 -0.999999
-0.230336740613 0.776137053967 -0.543887138367 0.000978 0.000978 -0.999999
-0.271697580814 0.988381147385 -0.543887138367 0.000978 0.000978 -0.999999
-0.270539253950 1.099234819412 -0.543887138367 0.000978 0.000978 -0.999999
-0.275496572256 0.974922001362 -0.543887138367 0.000978 0.000978 -0.999999
-0.202452898026 0.601167678833 -0.543887138367 0.000978 0.000978 -0.999999
-0.173403903842 0.712317883968 -0.543887138367 0.000978 0.000978 -0.999999
-0.185950055718 0.616379618645 -0.543887138367 0.000978 0.000978 -0.999999
-0.136805549264 0.934436142445 -0.516915977001 0.803309 0.082206 -0.589862
-0.147438451648 0.997598350048 -0.521849274635 0.811301 0.094001 -0.577022
-0.330070674419 1.137443423271 -0.521066009998 -0.023064 0.866925 -0.497905
-0.370681911707 1.107370853424 -0.426012426615 -0.730182 0.683251 0.001380
-0.402416765690 1.070786714554 -0.383266389370 -0.917945 0.396706 0.001284
-0.478423595428 0.894523620605 -0.393353193998 -0.917945 0.396706 0.001284
-0.481437146664 0.887534916401 -0.383936703205 -0.917945 0.396706 0.001284
-0.482611030340 0.823144912720 -0.460567057133 -0.999987 0.004907 0.000981
-0.465039134026 0.780828475952 -0.486433357000 -0.743362 -0.668888 0.001379
-0.463893711567 0.688328504562 -0.485067933798 -0.876523 0.481358 0.001326
-0.466136425734 0.684246003628 -0.411198139191 -0.876523 0.481358 0.001326
-0.488235920668 0.644020915031 -0.471339970827 -0.873026 0.487672 0.001329
-0.517294168472 0.592171847820 -0.388395547867 -0.873026 0.487672 0.001329
-0.436405092478 0.733459889889 -0.371715813875 0.000978 0.000978 0.999999
-0.285761564970 0.565199971199 -0.371715813875 0.000978 0.000978 0.999999
-0.373793691397 0.664898693562 -0.371715813875 0.000978 0.000978 0.999999
-0.288689732552 0.772377908230 -0.371715813875 0.000978 0.000978 0.999999
-0.361335188150 1.027180552483 -0.371715813875 0.000978 0.000978 0.999999
-0.322010368109 0.934220314026 -0.371715813875 0.000978 0.000978 0.999999
-0.281911849976 0.786577522755 -0.371715813875 0.000978 0.000978 0.999999
-0.372471123934 0.915733456612 -0.371715813875 0.000978 0.000978 0.999999
-0.321698397398 0.912004590034 -0.371715813875 0.000978 0.000978 0.999999
-0.298524320126 1.126317739487 -0.371715813875 0.000978 0.000978 0.999999
-0.274663716555 1.106435656548 -0.371715813875 0.000978 0.000978 0.999999
-0.223575785756 0.875202536583 -0.371715813875 0.000978 0.000978 0.999999
-0.193224698305 0.815869331360 -0.371715813875 0.000978 0.000978 0.999999
-0.222776770592 1.099482655525 -0.371715813875 0.000978 0.000978 0.999999
-0.185059815645 0.839260518551 -0.371715813875 0.000978 0.000978 0.999999
-0.177567556500 0.589684963226 -0.371715813875 0.000978 0.000978 0.999999
-0.123607777059 0.804633915424 -0.371715813875 0.000978 0.000978 0.999999
-0.123418092728 0.665193855762 -0.426709711552 0.912475 -0.409130 0.001291
-0.117820337415 0.677709698677 -0.438638210297 0.912475 -0.409130 0.001291
-0.125842183828 0.659773945808 -0.504680693150 0.912475 -0.409130 0.001291
-0.199455559254 0.509048998356 -0.524756908417 0.758163 -0.337859 -0.557710
-0.160486891866 0.616166770458 -0.535376012325 0.715672 -0.303959 -0.628826
-0.117846846581 0.724879562855 -0.485964804888 0.997710 0.067624 0.001040
-0.115460015833 0.690152227879 -0.377682000399 0.997710 0.067624 0.001040
-0.124182723463 0.816360890865 -0.460376620293 0.994811 0.101730 0.001071
-0.130428701639 0.876813709736 -0.432149350643 0.994811 0.101730 0.001071
-0.145149439573 1.011680841446 -0.400073558092 0.993261 0.115898 0.001083
-0.164119660854 1.101245284081 -0.427006691694 0.936483 0.350710 0.001257
-0.263469696045 1.141770958900 -0.420856744051 -0.025017 0.999686 0.001001
-0.235365897417 1.142457723618 -0.514914572239 -0.025017 0.999686 0.001001
-0.413430899382 0.923098921776 -0.371715813875 0.000978 0.000978 0.999999
-0.426863849163 1.000514745712 -0.371715813875 0.000978 0.000978 0.999999
-0.454938799143 0.787225723267 -0.543769419193 -0.708893 -0.607388 -0.358539
-0.472404330969 0.798488557339 -0.530555605888 -0.677491 -0.611233 -0.409145
-0.454384148121 0.932635307312 -0.530528247356 -0.806308 0.329203 -0.491419
-0.377960085869 1.055090188980 -0.543887138367 0.000978 0.000978 -0.999999
-0.420822441578 0.971425056458 -0.543887138367 0.000978 0.000978 -0.999999
-0.302045911551 1.643545508385 -0.391126900911 0.442117 0.652331 -0.615627
-0.082313187420 1.611238837242 -0.383731335402 -0.194963 0.766034 -0.612520
0.009736384265 1.681185483932 -0.366604149342 -0.542717 0.569768 -0.617108
0.057835936546 1.687851428986 -0.407602012157 -0.631411 0.463928 -0.621362
0.048488173634 1.694765567780 -0.392911016941 -0.631411 0.463928 -0.621362
0.112477131188 1.802421450615 -0.418782770634 -0.777485 0.073565 -0.624584
0.094165578485 1.893348813057 -0.404338806868 -0.753914 -0.205894 -0.623876
0.055514194071 1.950555086136 -0.387628704309 -0.634398 -0.460315 -0.621007
-0.099263034761 2.047257900238 -0.373543232679 -0.201711 -0.765269 -0.611291
-0.180647745728 2.073615074158 -0.401568472385 0.064275 -0.789869 -0.609899
-0.274564772844 2.029052972794 -0.382349818945 0.438468 -0.655201 -0.615189
-0.379917562008 1.935495376587 -0.398527592421 0.701978 -0.343660 -0.623799
-0.371099531651 1.819097280502 -0.363883703947 0.175731 0.014931 -0.984325
-0.305364072323 1.981453180313 -0.363880306482 0.124629 -0.129469 -0.983720
-0.089188903570 2.036157369614 -0.364712476730 -0.046019 -0.178177 -0.982922
0.019158633426 1.924096822739 -0.360126614571 -0.161003 -0.077520 -0.983905
0.013255680911 1.821279287338 -0.354670763016 -0.175725 0.017228 -0.984289
0.000503478514 1.813355684280 -0.352521508932 -0.175725 0.017228 -0.984289
0.014897239394 1.747220635414 -0.358728796244 -0.161003 0.077520 -0.983905
-0.096428789198 1.631361007690 -0.363423019648 -0.045913 0.177764 -0.983001
-0.211703911424 1.653627514839 -0.359482109547 0.045913 0.177764 -0.983001
-0.308006972075 1.730752706528 -0.358240842819 0.145699 0.104759 -0.983767
-0.139265686274 1.761895656586 -0.362859696150 -0.073226 0.289051 -0.954509
-0.108017519116 1.812179565430 -0.355673730373 -0.261198 0.127318 -0.956852
-0.081621676683 1.854475736618 -0.363515228033 -0.278164 -0.075630 -0.957551
-0.210526883602 1.854507565498 -0.359522491693 0.258750 -0.127405 -0.957505
-0.263003289700 1.869139671326 -0.353832334280 -0.266034 0.075101 -0.961034
-0.249382212758 1.867166042328 -0.357678979635 -0.251383 0.123738 -0.959946
-0.230097427964 1.919518947601 -0.352940499783 -0.195092 0.203055 -0.959535
-0.038352284580 1.803508281708 -0.353194564581 0.266034 -0.075101 -0.961034
-0.075801715255 1.778298497200 -0.359951645136 0.225824 -0.165076 -0.960080
-0.071459740400 1.763779282570 -0.356383472681 0.194986 -0.205598 -0.959015
-0.127155542374 1.723631381989 -0.354233324528 0.070184 -0.276908 -0.958330
-0.443661868572 1.646412372589 -0.433393180370 0.010944 0.006965 -0.999916
-0.399577170610 1.659362316132 -0.432787626982 0.010944 0.008954 -0.999900
-0.268001228571 1.563065171242 -0.432771116495 0.004975 0.012934 -0.999904
-0.125219106674 1.483593225479 -0.433586746454 0.000991 0.014865 -0.999889
-0.118478164077 1.532829523087 -0.432903081179 -0.002979 0.012908 -0.999912
-0.073223739862 1.537605404854 -0.432962000370 -0.002979 0.012908 -0.999912
-0.041810344905 1.520271778107 -0.433310329914 -0.004975 0.012934 -0.999904
0.077945262194 1.657694935799 -0.432655751705 -0.010944 0.008954 -0.999900
0.167597636580 1.679806470871 -0.433524042368 -0.010944 0.006965 -0.999916
0.161467701197 1.752964615822 -0.433089613914 -0.012908 0.004965 -0.999904
0.215820163488 1.790720582008 -0.433728337288 -0.012883 0.000991 -0.999917
0.186075091362 1.856400012970 -0.433305829763 -0.012883 -0.000991 -0.999917
0.196483016014 1.929003477097 -0.433629453182 -0.012908 -0.004965 -0.999904
0.116201184690 1.943017959595 -0.432653516531 -0.012908 -0.004965 -0.999904
0.135965466499 2.066272258759 -0.433825612068 -0.010944 -0.008954 -0.999900
0.080255836248 2.069052934647 -0.433288455009 -0.010944 -0.008954 -0.999900
-0.106079667807 2.165999412537 -0.433439642191 -0.002979 -0.012908 -0.999912
-0.159858778119 2.146104335785 -0.433128923178 -0.000991 -0.014865 -0.999889
-0.292639762163 2.105820178986 -0.432991147041 0.004975 -0.012934 -0.999904
-0.395473957062 2.105335474014 -0.433739572763 0.006965 -0.010944 -0.999916
-0.482969343662 1.979610323906 -0.433597117662 0.010944 -0.006965 -0.999916
-0.477471530437 1.837342977524 -0.433059662580 0.012883 -0.000991 -0.999917
-0.491101711988 1.788015365601 -0.433299064636 0.012883 0.000991 -0.999917
-0.554667532444 1.863259196281 -0.416642576456 -0.714955 0.080087 -0.694569
-0.554968953133 1.892263293266 -0.338026404381 -0.993536 0.113516 0.001081
-0.560593843460 1.842773437500 -0.357377260923 -0.993536 0.113516 0.001081
-0.559805512428 1.814645051956 -0.344889134169 -0.994569 -0.104070 0.001073
-0.552199304104 1.748436450958 -0.284413576126 -0.949175 -0.314746 0.001234
-0.515361368656 1.653428912163 -0.347262740135 -0.860313 -0.509765 0.001338
-0.451509416103 1.566198348999 -0.228545010090 -0.732842 -0.680398 0.001380
-0.392741411924 1.516025304794 -0.238196372986 -0.575560 -0.817758 0.001361
-0.361593127251 1.494074940681 -0.405329585075 -0.575560 -0.817758 0.001361
-0.198428213596 1.457534313202 -0.429935097694 -0.149771 -0.715574 -0.682292
0.173030227423 1.620541095734 -0.426610738039 0.617001 -0.373491 -0.692686
0.077068418264 2.133595466614 -0.428953856230 0.419655 0.595479 -0.685050
-0.245333313942 2.203127384186 -0.421467304230 -0.142932 0.717668 -0.681559
-0.526329040527 1.978039264679 -0.417168766260 -0.681091 0.234371 -0.693675
-0.535246312618 1.964576125145 -0.348635673523 -0.946173 0.323658 0.001240
-0.551687836647 1.916611671448 -0.275663316250 -0.946173 0.323658 0.001240
-0.076817020774 2.210937023163 -0.223377257586 0.143254 0.686111 0.713253
-0.001818671823 2.178300619125 -0.213198035955 0.279208 0.642977 0.713178
0.014011912048 2.182307720184 -0.222967937589 0.279208 0.642977 0.713178
0.193166106939 2.009310722351 -0.214571222663 0.594804 0.353623 0.721913
0.238647401333 1.884125471115 -0.217157095671 0.684766 0.070938 0.725302
0.230829417706 1.708473205566 -0.225874245167 0.652274 -0.223681 0.724227
0.214940473437 1.707629680634 -0.211827903986 0.652274 -0.223681 0.724227
0.147404059768 1.583600282669 -0.217204794288 0.503835 -0.477230 0.720002
0.078541353345 1.532797932625 -0.209192588925 0.396681 -0.574446 0.716000
-0.185658484697 1.452386617661 -0.215495839715 -0.004151 -0.701544 0.712614
-0.213619738817 1.457902431488 -0.213619157672 -0.143254 -0.686111 0.713253
-0.345221519470 1.489764451981 -0.223410159349 -0.279208 -0.642977 0.713178
-0.498543769121 1.646094322205 -0.216251611710 -0.594804 -0.353623 0.721913
-0.548703849316 1.864728212357 -0.217649504542 -0.684371 0.077010 0.725056
-0.544409513474 1.902891755104 -0.217690244317 -0.684371 0.077010 0.725056
-0.291986644268 1.463274121284 -0.380489885807 -0.396706 -0.917945 0.001284
-0.266676098108 1.455611586571 -0.258844196796 -0.204554 -0.978855 0.001156
-0.236194849014 1.449248790741 -0.340798228979 -0.204554 -0.978855 0.001156
-0.151126027107 1.441079735756 -0.276960134506 -0.004907 -0.999987 0.000981
-0.148596197367 1.441068887711 -0.346911370754 -0.004907 -0.999987 0.000981
-0.072395533323 1.448975920677 -0.270238876343 0.196558 -0.980491 0.001149
-0.011682542041 1.465021133423 -0.272495687008 0.390517 -0.920595 0.001280
0.045430019498 1.489175677299 -0.260583192110 0.390517 -0.920595 0.001280
0.080489397049 1.512516975403 -0.228049188852 0.569351 -0.822094 0.001359
0.056311782449 1.495785236359 -0.411365807056 0.569351 -0.822094 0.001359
0.121746644378 1.542417645454 -0.370313823223 0.727510 -0.686096 0.001380
0.148366764188 1.570593833923 -0.262465178967 0.727510 -0.686096 0.001380
0.175627931952 1.599583268166 -0.381973385811 0.854638 -0.519223 0.001342
0.179036736488 1.605204105377 -0.241042762995 0.854638 -0.519223 0.001342
0.236622750759 1.723333954811 -0.358393311501 0.946173 -0.323658 0.001240
0.245385766029 1.750924229622 -0.374270588160 0.993536 -0.113516 0.001081
0.253851145506 1.825405955315 -0.318006336689 0.993536 -0.113516 0.001081
0.249876007438 1.871552944183 -0.271638125181 0.994569 0.104070 0.001073
0.193672448397 2.032826900482 -0.388212293386 0.860313 0.509765 0.001338
0.196945518255 2.027325153351 -0.283829152584 0.860313 0.509765 0.001338
0.128137499094 2.113242626190 -0.250887960196 0.732842 0.680398 0.001380
0.075049959123 2.153477430344 -0.233339786530 0.575560 0.817758 0.001361
0.071384534240 2.156060457230 -0.344043970108 0.575560 0.817758 0.001361
0.039888195693 2.175034761429 -0.334268957376 0.396706 0.917945 0.001284
0.010683925822 2.187680006027 -0.354831993580 0.396706 0.917945 0.001284
-0.086975172162 2.216300964355 -0.260785579681 0.204554 0.978855 0.001156
-0.065332502127 2.211782932281 -0.374345541000 0.204554 0.978855 0.001156
-0.119391143322 2.221024274826 -0.246122375131 0.004907 0.999987 0.000981
-0.179323673248 2.221279621124 -0.381290465593 0.004907 0.999987 0.000981
-0.236705422401 2.212948083878 -0.303853660822 -0.196558 0.980491 0.001149
-0.258296072483 2.208632469177 -0.404719769955 -0.196558 0.980491 0.001149
-0.346624493599 2.175716161728 -0.236664906144 -0.390517 0.920595 0.001280
-0.348199635744 2.175050020218 -0.275844305754 -0.390517 0.920595 0.001280
-0.359342664480 2.169509887695 -0.330046296120 -0.569351 0.822094 0.001359
-0.394613891840 2.145100831985 -0.350731164217 -0.569351 0.822094 0.001359
-0.437808603048 2.110691308975 -0.326963007450 -0.727510 0.686096 0.001380
-0.437013357878 2.111533164978 -0.247932687402 -0.727510 0.686096 0.001380
-0.485871940851 2.058015108109 -0.246780246496 -0.854638 0.519223 0.001342
-0.523733079433 1.995584726334 -0.366044998169 -0.854638 0.519223 0.001342
-0.476376235485 1.598684906960 -0.417037695646 -0.530969 -0.494119 -0.688417
0.256296664476 -1.241281270981 -0.516863584518 0.000985 -0.008867 -0.999960
0.163197904825 -1.297734022141 -0.496828347445 -0.918922 -0.082554 -0.385704
0.095530733466 -1.274716734886 -0.374742001295 -0.191699 -0.001148 -0.981453
-0.000483021809 -1.218101620674 -0.356735497713 -0.185461 -0.010367 -0.982597
0.026024688035 -1.147350192070 -0.363063573837 -0.184463 -0.019722 -0.982642
0.050318188965 -1.013499617577 -0.368789732456 -0.229498 0.001177 -0.973308
0.062315203249 -0.902593672276 -0.372827708721 -0.228828 -0.010671 -0.973408
0.052673220634 -0.751772820950 -0.371377855539 -0.250123 -0.008377 -0.968178
0.048019137233 -0.720812320709 -0.370239853859 -0.273924 0.001207 -0.961751
0.017058601603 -0.637043058872 -0.362061381340 -0.272587 -0.015891 -0.962000
0.007638043724 -0.624537229538 -0.359157830477 -0.330406 0.001247 -0.943838
0.052965298295 -0.307651937008 -0.374687075615 -0.332624 0.001246 -0.943059
0.059120811522 -0.322918772697 -0.376865506172 -0.332624 0.001246 -0.943059
0.018617186695 -0.034857556224 -0.362199455500 -0.335625 0.001248 -0.941995
0.019517527893 0.029840463772 -0.362424880266 -0.335625 0.001248 -0.941995
0.046267539263 0.167155086994 -0.371810078621 -0.336415 0.001251 -0.941713
-0.017898201942 0.273388534784 -0.364450722933 0.351537 -0.001260 -0.936173
-0.058632258326 0.382963508368 -0.395422399044 0.958853 -0.003655 -0.283879
-0.058811359107 0.282114654779 -0.394581317902 0.958853 -0.003655 -0.283879
-0.055922843516 0.238121002913 -0.383708059788 0.958429 -0.008568 -0.285203
-0.082148097456 0.210606679320 -0.470956474543 0.958429 -0.008568 -0.285203
-0.064968980849 0.164548814297 -0.412193059921 0.958645 -0.006106 -0.284540
-0.092408336699 0.190483778715 -0.504980504513 0.958645 -0.006106 -0.284540
-0.090297192335 0.100953444839 -0.492294818163 0.952859 -0.021175 -0.302673
-0.110802687705 0.191977694631 -0.534435212612 0.761815 -0.015320 -0.647613
-0.260819226503 0.219386696815 -0.558194816113 0.002944 0.000981 -0.999995
-0.169928878546 0.115691676736 -0.558115363121 0.002944 0.000981 -0.999995
-0.478740811348 0.192852079868 -0.558853805065 0.002944 0.000981 -0.999995
-0.192654311657 0.106162488461 -0.558195531368 0.002944 0.000981 -0.999995
-0.143893569708 0.149453386664 -0.557984530926 0.002944 0.000981 -0.999995
-0.424745470285 0.177821800113 -0.558727324009 0.002944 0.000981 -0.999995
-0.584677636623 0.210953220725 -0.559121370316 0.002944 0.000981 -0.999995
-0.197733148932 0.240217879415 -0.558273315430 0.000987 -0.008884 -0.999960
-0.545922517776 0.278739899397 -0.559008061886 0.002973 0.010901 -0.999936
-0.287602782249 0.274423569441 -0.558344602585 0.002973 0.010901 -0.999936
-0.515164375305 0.295054286718 -0.558738172054 0.002973 0.010901 -0.999936
-0.512352585793 0.319602102041 -0.558451950550 0.002973 0.010901 -0.999936
-0.812126100063 0.352974534035 -0.559399366379 0.006910 -0.002961 -0.999972
-0.887173533440 0.363813996315 -0.560001671314 0.006910 -0.002961 -0.999972
-0.677301347256 0.370942562819 -0.558406829834 0.006910 -0.002961 -0.999972
-0.745497822762 0.455979377031 -0.559057116508 0.008867 -0.000985 -0.999960
-0.791778087616 0.571061849594 -0.559113979340 0.008937 0.006951 -0.999936
-0.752520382404 0.559206366539 -0.558832526207 0.008937 0.006951 -0.999936
-0.656669020653 0.578293085098 -0.558536827564 -0.000979 -0.002938 -0.999995
-0.633691430092 0.628182470798 -0.558728337288 -0.000979 -0.002938 -0.999995
-0.727924942970 0.612116098404 -0.558665513992 -0.000979 -0.002938 -0.999995
-0.587096095085 0.793401062489 -0.559347927570 -0.000979 -0.002938 -0.999995
-0.575067639351 0.805290341377 -0.559391617775 -0.000979 -0.002938 -0.999995
-0.805595874786 0.806511938572 -0.559467077255 0.000981 -0.004907 -0.999987
-0.826227188110 0.795220673084 -0.559420585632 0.000981 -0.004907 -0.999987
-0.764273583889 0.871812999249 -0.558440566063 0.001110 0.147635 -0.989041
-0.867229759693 0.891407310963 -0.555546581745 0.001112 0.150135 -0.988665
-0.694797217846 0.920330762863 -0.541154205799 0.004032 0.858906 -0.512118
-0.635289072990 0.936809539795 -0.526279866695 -0.018089 0.624762 -0.780605
-0.889454305172 0.942028582096 -0.475272774696 -0.034733 0.976131 -0.214389
-0.763223111629 0.942897319794 -0.492368757725 -0.029034 0.983659 -0.177686
-0.836567223072 0.945561289787 -0.465259552002 -0.028925 0.984604 -0.172392
-0.636085391045 0.951699495316 -0.464166224003 -0.026363 0.986875 -0.159321
-0.822351872921 0.954818427563 -0.414148330688 -0.026663 0.984199 -0.175046
-0.775090694427 0.960349202156 -0.391468614340 -0.029251 0.981661 -0.188376
-0.710365295410 0.969273328781 -0.357341349125 -0.034905 0.973716 -0.225074
-0.775429606438 0.974074482918 -0.326433897018 -0.035442 0.920189 -0.389866
-0.683120131493 0.990299642086 -0.295749902725 -0.032556 0.925905 -0.376352
-0.608307719231 1.018602609634 -0.243288472295 -0.025862 0.864328 -0.502263
-0.840408682823 1.041861295700 -0.197438552976 -0.026444 0.805857 -0.591519
-0.779584050179 1.074840188026 -0.166082531214 -0.038125 0.634007 -0.772387
-0.626947700977 1.071015119553 -0.176298916340 -0.026738 0.682525 -0.730373
-0.674609959126 1.102102756500 -0.146779924631 -0.028771 0.524721 -0.850788
-0.819840192795 1.128098726273 -0.125827044249 -0.034147 0.501282 -0.864610
-0.882372617722 1.145013809204 -0.115180097520 -0.035724 0.403545 -0.914262
-0.689218401909 1.178768515587 -0.108430579305 -0.040710 0.382151 -0.923203
-0.734219908714 1.220006346703 -0.093020156026 -0.042667 0.232838 -0.971579
-0.680487453938 1.264628052711 -0.083950854838 -0.038000 0.251291 -0.967165
-0.852803468704 1.361073493958 -0.064256146550 -0.038637 0.096041 -0.994627
-0.628336608410 1.301232576370 -0.078824944794 -0.030249 0.126597 -0.991493
-0.883782207966 1.421770453453 -0.061503823847 -0.031203 -0.001007 -0.999513
-0.769322156906 1.458192944527 -0.065151587129 -0.031329 -0.003032 -0.999505
-0.612011909485 1.450596928596 -0.070144541562 -0.031329 -0.003032 -0.999505
-0.775569736958 1.472692608833 -0.066363342106 -0.033141 -0.147421 -0.988518
-0.702987134457 1.516519784927 -0.076100908220 -0.041022 -0.176981 -0.983359
-0.764651298523 1.541320323944 -0.078263163567 -0.040137 -0.232311 -0.971813
-0.665482938290 1.565725326538 -0.088594801724 -0.045746 -0.255930 -0.965612
-0.857078015804 1.629668235779 -0.100089691579 -0.049117 -0.388953 -0.919947
-0.612843513489 1.613239884377 -0.105229265988 -0.031783 -0.326727 -0.944584
-0.761368334293 1.677323460579 -0.125294983387 -0.034867 -0.573207 -0.818668
-0.741018354893 1.704720616341 -0.145892977715 -0.040752 -0.591603 -0.805199
-0.819681346416 1.714846491814 -0.150405749679 -0.041222 -0.714983 -0.697926
-0.721600830555 1.743124485016 -0.184435561299 -0.032436 -0.689609 -0.723455
-0.775688529015 1.766999483109 -0.208996415138 -0.037208 -0.850263 -0.525041
-0.684895813465 1.791653752327 -0.258713841438 -0.050929 -0.874060 -0.483142
-0.769751787186 1.834621191025 -0.269540518522 -0.005503 0.128773 -0.991659
-0.725365817547 1.916584849358 -0.259049832821 -0.005503 0.128773 -0.991659
-0.680831670761 1.842598080635 -0.268952935934 -0.005503 0.128773 -0.991659
-0.828456997871 1.906547904015 -0.225124090910 -0.929435 0.368984 -0.001268
-0.812563478947 1.946658134460 -0.166306897998 -0.929435 0.368984 -0.001268
-0.811228811741 1.950469374657 -0.087625771761 -0.927487 0.373801 -0.006379
-0.853725254536 1.843613266945 -0.186831906438 -0.927487 0.373801 -0.006379
-0.846319794655 1.862273335457 -0.166994750500 -0.927487 0.373801 -0.006379
-0.815391898155 2.010933637619 -0.037936180830 -0.019053 0.007020 -0.999794
-0.833718359470 2.053538560867 -0.037404954433 -0.018978 0.002996 -0.999815
-0.793642580509 2.118301153183 -0.037911105901 -0.006910 0.004936 -0.999964
-0.716059148312 2.232205390930 -0.037546630949 -0.004965 0.012908 -0.999904
-0.599937796593 2.274544477463 -0.050640679896 -0.930982 -0.364409 -0.021890
-0.619297623634 2.207753896713 -0.203259870410 -0.655660 0.755045 -0.004141
-0.605604171753 2.213527441025 -0.210127562284 -0.001133 0.175594 -0.984462
-0.513105392456 2.143090724945 -0.222828343511 -0.003408 0.173784 -0.984778
-0.534907519817 2.147922992706 -0.221908479929 -0.003408 0.173784 -0.984778
-0.578557610512 2.272585630417 -0.199430286884 -0.008031 0.182412 -0.983189
-0.447089046240 2.107233524323 -0.229162320495 0.001133 0.173397 -0.984851
-0.466395884752 2.282216787338 -0.198194310069 0.001133 0.173397 -0.984851
-0.217032581568 2.032792329788 -0.242067307234 0.001133 0.173397 -0.984851
-0.357638776302 2.182132720947 -0.215788185596 0.001133 0.173397 -0.984851
-0.418039083481 2.179877996445 -0.216260910034 0.001133 0.173397 -0.984851
-0.102013111115 2.066824913025 -0.235900089145 0.001133 0.173397 -0.984851
-0.118606835604 2.075115203857 -0.234451934695 0.001133 0.173397 -0.984851
-0.288608700037 2.209685087204 -0.210844919086 0.001133 0.173397 -0.984851
-0.137845709920 2.189387798309 -0.214304640889 0.001133 0.173397 -0.984851
-0.037784066051 2.055671215057 -0.237809598446 0.001133 0.173397 -0.984851
-0.321207702160 2.271260023117 -0.200010359287 0.001133 0.173397 -0.984851
-0.136560693383 2.129600763321 -0.224848777056 0.001133 0.173397 -0.984851
-0.046680174768 2.077623605728 -0.233944743872 0.001133 0.173397 -0.984851
-0.342297047377 2.224626779556 -0.208252295852 0.001133 0.173397 -0.984851
0.359026819468 2.232278585434 -0.206375747919 0.001133 0.173397 -0.984851
0.136314108968 2.180599212646 -0.215647667646 0.001133 0.173397 -0.984851
0.237662777305 2.273412466049 -0.199206009507 0.001133 0.173397 -0.984851
0.328185617924 2.211104631424 -0.210132092237 0.001133 0.173397 -0.984851
0.089102692902 2.243326663971 -0.204617112875 0.001133 0.173397 -0.984851
0.087726227939 2.063824176788 -0.236278608441 0.001133 0.173397 -0.984851
0.249810576439 2.172867059708 -0.216931551695 0.001133 0.173397 -0.984851
0.234786868095 2.130350828171 -0.224445015192 0.001133 0.175594 -0.984462
0.411918759346 2.174926042557 -0.216498076916 0.001133 0.175594 -0.984462
0.427528023720 2.095194101334 -0.230615213513 0.001133 0.175594 -0.984462
0.274748623371 2.128166913986 -0.224820062518 0.001133 0.175594 -0.984462
0.499515950680 2.118306636810 -0.226500511169 0.001133 0.175594 -0.984462
0.185419887304 2.040753602982 -0.240328520536 0.001133 0.175594 -0.984462
0.361590504646 2.116996288300 -0.226773068309 0.001133 0.175594 -0.984462
0.354574501514 2.158589363098 -0.219408392906 0.001133 0.175594 -0.984462
0.532397627831 2.284537076950 -0.197005122900 0.003408 0.173784 -0.984778
0.573542952538 2.151962280273 -0.220304653049 0.003408 0.173784 -0.984778
0.619266271591 2.258051872253 -0.150805652142 0.951836 -0.306607 0.001231
0.639013350010 2.227319717407 -0.038060192019 0.008990 0.014983 -0.999847
0.756467282772 2.208532333374 -0.037693414837 0.004965 0.012908 -0.999904
0.794855654240 2.113992214203 -0.038040295243 0.006910 0.004936 -0.999964
0.799815058708 2.161373376846 -0.037776134908 0.006910 0.004936 -0.999964
0.860424399376 1.966635584831 -0.037798322737 0.019053 0.007020 -0.999794
0.887116730213 1.808503031731 -0.067892640829 0.930810 0.365448 -0.006367
0.852350056171 1.895400404930 -0.158900827169 0.930810 0.365448 -0.006367
0.837320089340 1.935420036316 -0.042364493012 0.930810 0.365448 -0.006367
0.842066764832 1.921766519547 -0.228874832392 0.932691 0.360674 -0.001266
0.825940489769 1.963405489922 -0.247329503298 0.932691 0.360674 -0.001266
0.712295532227 1.850662946701 -0.267068266869 0.005503 0.128773 -0.991659
0.819838166237 1.945503473282 -0.254000335932 0.005503 0.128773 -0.991659
0.856235265732 1.870954751968 -0.263518214226 0.005503 0.128773 -0.991659
0.703117609024 1.907931804657 -0.259487032890 -0.003320 0.138321 -0.990382
0.712686121464 1.950684547424 -0.253562897444 -0.003320 0.138321 -0.990382
0.614708840847 1.892236471176 -0.261415034533 0.007763 0.138622 -0.990315
0.633107960224 2.169510126114 -0.217010408640 0.003406 0.175986 -0.984387
0.702690422535 2.140740633011 -0.122467011213 0.782598 0.622490 -0.006901
0.741233408451 2.092564105988 -0.096570424736 0.782598 0.622490 -0.006901
0.780593276024 2.043337106705 -0.160131052136 0.778585 0.627537 0.001373
0.792685151100 2.028294801712 -0.074074462056 0.778585 0.627537 0.001373
0.777014613152 2.047785282135 -0.177148953080 0.778585 0.627537 0.001373
0.652388036251 2.093881845474 -0.230218738317 -0.003408 0.173784 -0.984778
0.735514760017 2.071339130402 -0.234488546848 -0.003408 0.173784 -0.984778
0.579752862453 1.831255912781 -0.270103961229 0.005534 0.136148 -0.990673
0.563047766685 1.772108316422 -0.277522146702 0.007457 0.088420 -0.996055
0.573954820633 1.592062711716 -0.293544143438 0.001061 0.090153 -0.995927
0.613843500614 1.663837313652 -0.242475658655 0.999976 -0.006883 -0.000983
0.613397359848 1.603028774261 -0.279536485672 0.999976 -0.006883 -0.000983
0.696899592876 1.772496104240 -0.235661044717 0.045158 -0.874425 -0.483055
0.727134823799 1.759895324707 -0.212185725570 0.028771 -0.850788 -0.524721
0.883368194103 1.789139628410 -0.250926911831 0.028771 -0.850788 -0.524721
0.875033557415 1.753049373627 -0.194979205728 0.026693 -0.689795 -0.723512
0.687914192677 1.706694722176 -0.157133370638 0.035401 -0.715109 -0.698116
0.673585832119 1.671079635620 -0.129686251283 0.035001 -0.592215 -0.805020
0.657764613628 1.662199497223 -0.123983867466 0.031956 -0.573822 -0.818356
0.694798469543 1.657110095024 -0.120345026255 0.029172 -0.325969 -0.944930
0.873049676418 1.644732356071 -0.109790779650 0.046307 -0.390301 -0.919522
0.625499367714 1.547281384468 -0.087943524122 0.043278 -0.255959 -0.965718
0.790722191334 1.538545727730 -0.078903660178 0.037620 -0.231785 -0.972039
0.714178979397 1.518233895302 -0.077803984284 0.038593 -0.176591 -0.983527
0.770624458790 1.489139080048 -0.070579275489 0.030778 -0.149329 -0.988308
0.832516074181 1.453165769577 -0.063731543720 0.031329 -0.003032 -0.999505
0.891705930233 1.439384460449 -0.061831597239 0.031203 -0.001007 -0.999513
0.753458917141 1.389670729637 -0.066106744111 0.031203 -0.001007 -0.999513
0.815363466740 1.348590850830 -0.066708870232 0.032560 0.126870 -0.991385
0.667973220348 1.323549151421 -0.074577644467 0.032560 0.126870 -0.991385
0.849456369877 1.289876699448 -0.071308910847 0.040841 0.096032 -0.994540
0.844603836536 1.284866929054 -0.071992218494 0.040841 0.096032 -0.994540
0.660198628902 1.277813553810 -0.080544829369 0.040473 0.248968 -0.967666
0.745323359966 1.200726747513 -0.096357546747 0.045100 0.232813 -0.971475
0.667594373226 1.148291707039 -0.120396301150 0.043481 0.380787 -0.923640
0.854435682297 1.128295660019 -0.121076978743 0.038459 0.404484 -0.913736
0.883791923523 1.108741044998 -0.131331384182 0.034374 0.523864 -0.851108
0.618795812130 1.085672497749 -0.158644929528 0.032491 0.682310 -0.730340
0.819346308708 1.072261452675 -0.161302164197 0.043938 0.633552 -0.772452
0.822783768177 1.031602382660 -0.203482627869 0.034922 0.806002 -0.590882
0.612644553185 1.018364548683 -0.235418707132 0.034228 0.863918 -0.502469
0.887701869011 1.013180494308 -0.225511044264 0.040053 0.849406 -0.526218
0.713860690594 0.985334753990 -0.291811704636 0.037979 0.925898 -0.375860
0.823486447334 0.977174103260 -0.299726963043 0.043560 0.920038 -0.389399
0.646078228951 0.967245697975 -0.354794293642 0.042436 0.973595 -0.224303
0.781868934631 0.961141645908 -0.355491846800 0.036736 0.980010 -0.195528
0.680527746677 0.955835819244 -0.401724815369 0.036531 0.981611 -0.187366
0.855179488659 0.949733614922 -0.399305373430 0.036174 0.983689 -0.176201
0.880049884319 0.937724292278 -0.462580442429 0.038447 0.984475 -0.171264
0.702722847462 0.935219883919 -0.513029932976 0.044529 0.976033 -0.213018
0.183304205537 0.965749263763 -0.356009304523 0.000978 -0.000978 -0.999999
0.129680588841 0.963211834431 -0.356090962887 0.000978 0.000978 -0.999999
0.317925453186 0.894875586033 -0.355819314718 0.000979 0.000979 -0.999999
0.394259214401 0.821775674820 -0.355732232332 0.000979 0.000979 -0.999999
0.405979156494 0.850241124630 -0.355698883533 0.000979 0.000979 -0.999999
0.503511011600 0.772840976715 -0.355580002069 0.000979 0.000979 -0.999999
