0.424998641014 0.141656935215 -0.379864037037 -0.000989 -0.012857 0.999917
0.489137560129 0.488881886005 -0.375387102365 -0.000989 -0.012857 0.999917
0.225039243698 0.184056699276 -0.379317492247 -0.000989 -0.012857 0.999917
0.359266310930 0.224428772926 -0.378796875477 -0.000989 -0.012857 0.999917
0.495667815208 0.507994055748 -0.375140666962 -0.000989 -0.012857 0.999917
0.713886141777 0.384889602661 -0.376727759838 -0.000989 -0.012857 0.999917
0.695293962955 0.150927007198 -0.379744380713 -0.000989 -0.012857 0.999917
0.248344123363 0.566270053387 -0.374389439821 -0.000989 -0.012857 0.999917
0.466424524784 0.455795317888 -0.375813722610 -0.000989 -0.012857 0.999917
-0.360280036926 0.407484650612 -0.376437097788 -0.000989 -0.012857 0.999917
-0.679253458977 0.641089558601 -0.373425334692 -0.000989 -0.012857 0.999917
0.405459165573 -0.006995499134 -0.381780713797 -0.000989 -0.012857 0.999917
0.571606993675 0.479213565588 -0.375511676073 -0.000989 -0.012857 0.999917
0.501893281937 0.443908929825 -0.375966936350 -0.000989 -0.012857 0.999917
0.658901631832 0.198066800833 -0.379136592150 -0.000989 -0.012857 0.999917
0.623490810394 -0.127819418907 -0.383338391781 -0.000989 -0.012857 0.999917
0.409347206354 0.284071534872 -0.378027856350 -0.000989 -0.012857 0.999917
-0.083065867424 0.495380133390 -0.375303655863 -0.000989 -0.012857 0.999917
0.601514637470 0.038125813007 -0.381198823452 -0.000989 -0.012857 0.999917
-0.450141429901 0.652034819126 -0.373284071684 -0.000989 -0.012857 0.999917
-0.023106276989 0.545212507248 -0.374661087990 -0.000989 -0.012857 0.999917
0.775250971317 0.257033050060 -0.378376245499 -0.000989 -0.012857 0.999917
-0.017069399357 0.571264743805 -0.374325186014 -0.000989 -0.012857 0.999917
-0.104426085949 0.295728802681 -0.377877861261 -0.000989 -0.012857 0.999917
-0.408642530441 0.754454135895 0.447565317154 0.001096 0.991465 0.130369
-0.543156445026 0.733954310417 0.462607622147 -0.948265 -0.018790 0.316923
-0.465720623732 0.685989677906 0.478019952774 0.001176 -0.972780 0.231726
-0.390222996473 0.689832866192 0.494186460972 0.001176 -0.972780 0.231726
-0.327815175056 0.667526543140 0.400589227676 -0.003537 -0.972648 0.232257
-0.328959941864 0.731496810913 0.390979021788 0.486950 0.140997 -0.861974
-0.298765242100 0.743460059166 0.460530817509 0.948265 -0.018790 0.316923
-0.494877666235 0.717168688774 0.377965807915 -0.486950 0.140997 -0.861974
-0.324861705303 0.655615925789 0.317059546709 0.274655 -0.851585 0.446507
-0.542459487915 0.636417269707 0.214902549982 0.398576 -0.917112 -0.006449
-0.422519415617 0.732270836830 0.323133319616 0.001046 0.997236 -0.074296
-0.344681322575 0.727242708206 0.255130529404 0.001046 0.997236 -0.074296
-0.371937364340 0.724940598011 0.223995760083 0.001046 0.997236 -0.074296
-0.332324147224 0.726848721504 0.286077439785 0.316198 0.948594 -0.013748
-0.282754629850 0.708794057369 0.243087232113 0.348105 0.937205 -0.021677
-0.241627052426 0.687153756618 0.161245375872 0.382958 0.916611 -0.114749
-0.238024577498 0.672944784164 0.092483520508 0.481635 0.862259 -0.156641
-0.200027555227 0.650644958019 0.086444735527 0.481635 0.862259 -0.156641
-0.193424865603 0.627771735191 0.060422539711 0.786194 -0.523596 0.328248
-0.237449347973 0.602394402027 0.124779067934 0.783136 -0.530098 0.325106
-0.225526064634 0.570189595222 0.042163982987 -0.470918 -0.867017 0.162841
-0.303766250610 0.631656944752 0.134567081928 -0.572349 -0.816206 0.078895
-0.531836807728 0.632320880890 0.127906575799 0.572349 -0.816206 0.078895
-0.600506901741 0.585099756718 0.088455803692 0.470918 -0.867017 0.162841
-0.588438808918 0.612352371216 0.168745011091 -0.783136 -0.530098 0.325106
-0.599836826324 0.624438166618 0.161024123430 -0.786194 -0.523596 0.328248
-0.639426290989 0.649907708168 0.088477291167 -0.481635 0.862259 -0.156641
-0.595792412758 0.683735489845 0.140920951962 -0.481635 0.862259 -0.156641
-0.556972026825 0.706575751305 0.186769202352 -0.382958 0.916611 -0.114749
-0.552131414413 0.710871636868 0.292179465294 -0.348105 0.937205 -0.021677
-0.536777496338 0.716893613338 0.326039493084 -0.316198 0.948594 -0.013748
-0.576628327370 0.663047552109 0.265522807837 -0.762499 -0.511054 0.396761
-0.564064085484 0.673774898052 -0.017305182293 -0.479686 0.874063 -0.076918
-0.561019361019 0.667341053486 -0.107807487249 -0.479686 0.874063 -0.076918
-0.633091747761 0.590525686741 -0.157536715269 -0.750034 0.607922 -0.260538
-0.684686243534 0.524426460266 -0.163728103042 -0.750034 0.607922 -0.260538
-0.586130023003 0.628729701042 -0.201376691461 -0.742782 0.605407 -0.285931
-0.651017904282 0.547448039055 -0.204653903842 -0.742782 0.605407 -0.285931
-0.591051042080 0.409362733364 -0.372136950493 -0.849983 0.098902 -0.517443
-0.669973850250 0.277566015720 -0.291494190693 -0.824833 0.166164 -0.540408
-0.659531950951 0.292800605297 -0.302765637636 -0.824833 0.166164 -0.540408
-0.652560114861 0.285589993000 -0.315634071827 -0.824833 0.166164 -0.540408
-0.601488292217 0.356576859951 -0.373569399118 -0.850742 0.192875 -0.488915
-0.655426442623 0.090970180929 -0.361869126558 -0.657029 -0.753854 -0.004150
-0.514262199402 0.018793294206 -0.335878491402 -0.000989 -0.999917 -0.012857
-0.375140428543 0.018583236262 -0.319340020418 0.000989 -0.999917 -0.012857
-0.259116590023 0.023327808827 -0.318355739117 0.658376 -0.752627 -0.009702
-0.210566326976 0.132818445563 -0.296434342861 -0.163910 -0.060140 0.984640
-0.217729493976 0.140045464039 -0.297196477652 -0.163910 -0.060140 0.984640
-0.215973392129 0.401938050985 -0.236575797200 -0.723133 -0.199752 0.661194
-0.201189666986 0.270870864391 -0.260163456202 -0.723133 -0.199752 0.661194
-0.260534971952 0.459563940763 -0.236973270774 -0.534168 -0.557759 0.635272
-0.219278737903 0.550138175488 -0.021810660139 -0.665248 -0.684577 0.297992
-0.255083292723 0.546183526516 -0.103383444250 -0.549897 -0.784436 0.286834
-0.613796114922 0.489258497953 -0.163363605738 0.696503 -0.651463 0.300799
-0.673891365528 0.495768696070 -0.161299854517 -0.728486 -0.526955 0.437752
-0.690121710300 0.506782650948 -0.175107598305 -0.743578 -0.506160 0.436914
-0.683148443699 0.417151123285 -0.207466781139 -0.358820 -0.275443 0.891840
-0.664858996868 0.194035291672 -0.267547607422 -0.398114 -0.262905 0.878855
-0.616686522961 0.186858311296 -0.262827724218 -0.046698 -0.291547 0.955416
-0.584180355072 0.327777206898 -0.278906077147 0.795618 -0.035080 0.604782
-0.579090058804 0.308568060398 -0.286758184433 0.795618 -0.035080 0.604782
-0.590720355511 0.221409723163 -0.276720136404 0.795618 -0.035080 0.604782
-0.598857283592 0.460518896580 -0.215624645352 0.569768 -0.542717 0.617108
-0.171869486570 0.462820380926 -0.179008483887 0.768629 -0.468358 0.435719
-0.169574856758 0.431787133217 -0.194798558950 0.416818 -0.268279 0.868498
-0.154167994857 0.233910903335 -0.263025105000 0.406768 -0.270675 0.872511
-0.186362609267 0.140500709414 -0.372545778751 0.850742 0.192875 -0.488915
-0.235510706902 0.359404414892 -0.371623694897 0.850742 0.192875 -0.488915
-0.232449442148 0.392438292503 -0.355417549610 0.824833 0.166164 -0.540408
-0.224211603403 0.382344305515 -0.345933675766 0.824833 0.166164 -0.540408
-0.151323705912 0.448276817799 -0.214305236936 0.824833 0.166164 -0.540408
-0.220270529389 0.462889760733 -0.319065600634 0.849983 0.098902 -0.517443
-0.245975375175 0.439340531826 -0.365721821785 0.849983 0.098902 -0.517443
-0.195738032460 0.563370764256 -0.195094317198 0.742782 0.605407 -0.285931
-0.212931603193 0.543638944626 -0.281500369310 0.742782 0.605407 -0.285931
-0.183611303568 0.610486507416 -0.050603952259 0.750034 0.607922 -0.260538
-0.204024940729 0.599308669567 -0.135861903429 0.750034 0.607922 -0.260538
-0.291580021381 0.679996848106 -0.059327080846 0.479686 0.874063 -0.076918
-0.165627747774 0.567599892616 -0.073445811868 0.743578 -0.506160 0.436914
-0.464169651270 0.650144696236 0.215063095093 0.001048 -0.997066 0.076536
-0.363343417645 0.656586349010 0.299386501312 0.001048 -0.997066 0.076536
-0.498925834894 0.652408123016 0.244692325592 0.001048 -0.997066 0.076536
-0.374957203865 0.624482452869 0.068623311818 0.001154 -0.979409 0.201881
-0.443343818188 0.636564970016 0.127451896667 0.001154 -0.979409 0.201881
-0.503766715527 0.628478348255 0.088079087436 0.001154 -0.979409 0.201881
-0.504492282867 0.622923552990 0.061033509672 0.001154 -0.979409 0.201881
-0.305922955275 0.547212898731 -0.133261337876 0.001299 -0.905318 0.424733
-0.326842725277 0.590549767017 -0.041115306318 0.001299 -0.905318 0.424733
-0.372278720140 0.593058347702 -0.035781282932 0.001299 -0.905318 0.424733
-0.446115046740 0.577891051769 -0.068030826747 0.001299 -0.905318 0.424733
-0.439880162477 0.568668603897 -0.087640464306 0.001299 -0.905318 0.424733
-0.328070342541 0.537966966629 -0.152920588851 0.001299 -0.905318 0.424733
-0.384516388178 0.043765924871 -0.310832738876 0.001034 -0.061026 0.998136
-0.512874662876 0.298490375280 -0.295472174883 0.001034 -0.061026 0.998136
-0.546443521976 0.089172489941 -0.308094620705 0.001034 -0.061026 0.998136
-0.527094423771 0.095114953816 -0.307736277580 0.001034 -0.061026 0.998136
-0.564659476280 0.059587098658 -0.309878677130 0.001034 -0.061026 0.998136
-0.563987493515 0.055709838867 -0.310112506151 0.001034 -0.061026 0.998136
-0.341650456190 0.243557780981 -0.298784792423 0.001034 -0.061026 0.998136
-0.309635013342 0.085785895586 -0.308298826218 0.001034 -0.061026 0.998136
-0.467377454042 0.316554874182 -0.294382840395 0.001034 -0.061026 0.998136
-0.338860541582 0.164622560143 -0.303544789553 0.001034 -0.061026 0.998136
-0.375586807728 0.398332715034 -0.289451450109 0.001034 -0.061026 0.998136
-0.314818084240 0.278325557709 -0.296688199043 0.001034 -0.061026 0.998136
-0.444482356310 0.424216091633 -0.271360516548 0.001378 -0.660161 0.751123
-0.519906401634 0.498323529959 -0.206353276968 0.001378 -0.660161 0.751123
-0.559714674950 0.463722497225 -0.236705213785 0.001378 -0.660161 0.751123
-0.416521608829 0.472450196743 -0.229049578309 0.001378 -0.660161 0.751123
-0.334873944521 0.467804551125 -0.233124777675 0.001378 -0.660161 0.751123
-0.443739920855 0.479854553938 -0.222554415464 0.001378 -0.660161 0.751123
0.317811042070 0.703737020493 0.336087644100 -0.137042 -0.012256 0.990489
0.394406676292 0.671288549900 0.340572416782 0.000989 -0.012857 0.999917
0.464014977217 0.730181396008 0.294874280691 0.001046 0.997236 -0.074296
0.570337653160 0.634863495827 0.243695735931 0.274655 -0.851585 0.446507
0.273438751698 0.625794172287 0.208954706788 0.398576 -0.917112 -0.006449
0.282138943672 0.640982747078 0.261103361845 -0.274655 -0.851585 0.446507
0.274833887815 0.703952550888 0.206049203873 -0.348105 0.937205 -0.021677
0.307236790657 0.717116117477 0.259836673737 -0.316198 0.948594 -0.013748
0.367566108704 0.729027152061 0.279263973236 0.001046 0.997236 -0.074296
0.449201166630 0.725380420685 0.229943871498 0.001046 0.997236 -0.074296
0.239986568689 0.687235236168 0.176711693406 -0.382958 0.916611 -0.114749
0.252244710922 0.675478696823 0.071385368705 -0.481635 0.862259 -0.156641
0.200750619173 0.644585251808 0.059478580952 -0.481635 0.862259 -0.156641
0.263466924429 0.666868686676 -0.015860432759 -0.479686 0.874063 -0.076918
0.186571747065 0.566020905972 -0.155385494232 -0.750034 0.607922 -0.260538
0.232451826334 0.630082070827 -0.137467131019 -0.750034 0.607922 -0.260538
0.257394373417 0.585951566696 -0.300142645836 -0.742782 0.605407 -0.285931
0.241400510073 0.580569088459 -0.269964724779 -0.742782 0.605407 -0.285931
0.205529347062 0.487500101328 -0.285522460938 -0.849983 0.098902 -0.517443
0.181847438216 0.317728161812 -0.296707481146 -0.824833 0.166164 -0.540408
0.148606419563 0.197480946779 -0.282878667116 -0.824833 0.166164 -0.540408
0.195640534163 0.402932554483 -0.291593134403 -0.824833 0.166164 -0.540408
0.149685129523 0.218997508287 -0.277913480997 -0.824833 0.166164 -0.540408
0.181420043111 0.210091307759 -0.331560224295 -0.850742 0.192875 -0.488915
0.238187104464 0.357223898172 -0.372176021338 -0.850742 0.192875 -0.488915
0.188371658325 0.087843105197 -0.346602678299 -0.657029 -0.753854 -0.004150
0.298666328192 0.019139835611 -0.363162994385 0.000989 -0.999917 -0.012857
0.570829570293 0.018582854420 -0.319309711456 0.000989 -0.999917 -0.012857
0.599975645542 0.142581284046 -0.300827383995 -0.163910 -0.060140 0.984640
0.642662405968 0.379301309586 -0.217855349183 -0.748296 -0.206053 0.630552
0.611636281013 0.287868320942 -0.284605085850 -0.748296 -0.206053 0.630552
0.603161275387 0.357220083475 -0.271944344044 -0.748296 -0.206053 0.630552
0.633548855782 0.511570572853 -0.075885958970 -0.696503 -0.651463 0.300799
0.577252328396 0.564547300339 -0.068492457271 -0.549897 -0.784436 0.286834
0.560886204243 0.608192145824 0.068202622235 -0.572349 -0.816206 0.078895
0.260339975357 0.592001259327 0.059677504003 0.572349 -0.816206 0.078895
0.223171263933 0.561961829662 0.013424741104 0.470918 -0.867017 0.162841
0.208137899637 0.612800776958 0.064657963812 -0.783136 -0.530098 0.325106
0.194812193513 0.633765816689 0.066501550376 -0.786194 -0.523596 0.328248
0.182876005769 0.511515915394 -0.112284794450 -0.768629 -0.468358 0.435719
0.174713701010 0.278213620186 -0.241060078144 -0.406768 -0.270675 0.872511
0.235386013985 0.406789302826 -0.253223448992 0.723133 -0.199752 0.661194
0.209127694368 0.197170376778 -0.288087755442 0.723133 -0.199752 0.661194
0.229597821832 0.144138738513 -0.298457354307 0.163910 -0.060140 0.984640
0.256450474262 0.135244876146 -0.303484380245 0.163910 -0.060140 0.984640
0.282637566328 0.578649580479 -0.061868336052 0.549897 -0.784436 0.286834
0.239085674286 0.542926430702 -0.076082170010 0.665248 -0.684577 0.297992
0.548824906349 0.629612684250 0.167850181460 -0.470918 -0.867017 0.162841
0.671419262886 0.584058940411 -0.048767838627 0.743578 -0.506160 0.436914
0.685650587082 0.504028618336 -0.166197925806 0.728486 -0.526955 0.437752
0.673682987690 0.460800021887 -0.189085856080 0.358820 -0.275443 0.891840
0.664931654930 0.214964032173 -0.260017842054 0.398114 -0.262905 0.878855
0.647752285004 0.179051890969 -0.368144840002 0.850742 0.192875 -0.488915
0.657226085663 0.157970309258 -0.359996795654 0.850742 0.192875 -0.488915
0.614696621895 0.400955140591 -0.342385947704 0.824833 0.166164 -0.540408
0.691352546215 0.210240781307 -0.283882707357 0.824833 0.166164 -0.540408
0.659785568714 0.461358636618 -0.254929482937 0.824833 0.166164 -0.540408
0.627802729607 0.327235400677 -0.345019936562 0.824833 0.166164 -0.540408
0.605403959751 0.546306550503 -0.327333241701 0.849983 0.098902 -0.517443
0.634704172611 0.498961597681 -0.288195490837 0.849983 0.098902 -0.517443
0.596305012703 0.562615931034 -0.322167754173 0.742782 0.605407 -0.285931
0.587048172951 0.572758376598 -0.324773490429 0.742782 0.605407 -0.285931
0.621151387691 0.615443408489 -0.141746520996 0.750034 0.607922 -0.260538
0.654658019543 0.569469034672 -0.152928456664 0.750034 0.607922 -0.260538
0.543142676353 0.686243236065 -0.024008642882 0.479686 0.874063 -0.076918
0.611664295197 0.680623233318 0.163922742009 0.481635 0.862259 -0.156641
0.602999448776 0.655723929405 -0.000713691115 0.481635 0.862259 -0.156641
0.593834280968 0.680604755878 0.260561704636 0.762499 -0.511054 0.396761
0.551046609879 0.692750990391 0.048380285501 0.382958 0.916611 -0.114749
0.460199683905 0.652012169361 0.239508718252 0.001048 -0.997066 0.076536
0.335906714201 0.650325834751 0.217434585094 0.001048 -0.997066 0.076536
0.475499808788 0.624288439751 0.067679077387 0.001154 -0.979409 0.201881
0.379794597626 0.639939427376 0.143881976604 0.001154 -0.979409 0.201881
0.505688071251 0.610918998718 0.002584546804 -0.001154 -0.979409 0.201881
0.335266798735 0.613685011864 0.016051525250 -0.001154 -0.979409 0.201881
0.362587392330 0.159354493022 -0.303862452507 0.001034 -0.061026 0.998136
0.321295261383 0.314073562622 -0.294532507658 0.001034 -0.061026 0.998136
0.528853535652 0.047753348947 -0.310592293739 0.001034 -0.061026 0.998136
0.309772610664 0.131277084351 -0.305555611849 0.001034 -0.061026 0.998136
0.330775499344 0.125115394592 -0.305927157402 0.001034 -0.061026 0.998136
0.310985803604 0.093461014330 -0.307835996151 0.001034 -0.061026 0.998136
0.351234138012 0.312411606312 -0.294632732868 -0.001034 -0.061026 0.998136
0.501595854759 0.168098688126 -0.303335160017 -0.001034 -0.061026 0.998136
0.557166934013 0.224977105856 -0.299905240536 -0.001034 -0.061026 0.998136
0.552968978882 0.235364705324 -0.299278825521 -0.001034 -0.061026 0.998136
0.565009713173 0.283260941505 -0.296390563250 -0.001034 -0.061026 0.998136
0.527342081070 0.387418001890 -0.290109604597 -0.001034 -0.061026 0.998136
0.390644490719 0.415837466717 -0.278710335493 -0.001378 -0.660161 0.751123
0.283865392208 0.449572712183 -0.249117806554 -0.001378 -0.660161 0.751123
0.477372944355 0.409058302641 -0.284656822681 -0.001378 -0.660161 0.751123
0.537107944489 0.421432375908 -0.273802042007 0.001378 -0.660161 0.751123
0.440130591393 0.502619922161 -0.202584356070 0.001378 -0.660161 0.751123
0.566280841827 0.513122379780 -0.193371564150 0.001378 -0.660161 0.751123
0.350860029459 0.574431240559 -0.075387850404 0.001299 -0.905318 0.424733
0.477181196213 0.553066134453 -0.120815865695 0.001299 -0.905318 0.424733
0.428285658360 0.540323615074 -0.147909969091 0.001299 -0.905318 0.424733
0.490899115801 0.580512821674 -0.062456425279 -0.001299 -0.905318 0.424733
0.465851396322 0.584355056286 -0.054286874831 -0.001299 -0.905318 0.424733
0.538148880005 0.589705884457 -0.042909231037 -0.001299 -0.905318 0.424733
0.408725619316 0.748597681522 0.492493897676 0.001096 0.991465 0.130369
0.351005375385 0.760406076908 0.401559740305 -0.061198 0.989561 0.130479
0.336036682129 0.715418398380 0.385980546474 -0.486950 0.140997 -0.861974
0.348919421434 0.678123712540 0.444984704256 0.003537 -0.972648 0.232257
0.451351523399 0.733230471611 0.507606804371 0.001036 -0.063217 0.997999
0.499503821135 0.689610183239 0.493319541216 -0.003537 -0.972648 0.232257
0.478735566139 0.667782068253 0.401429355145 0.001176 -0.972780 0.231726
0.381374597549 0.660446643829 0.370572894812 0.001176 -0.972780 0.231726
0.510920047760 0.749119997025 0.390599608421 0.486950 0.140997 -0.861974
-0.007557432633 -0.005413395818 0.586961865425 0.000989 0.999917 0.012857
-0.382665097713 0.700602114201 0.359500855207 0.000989 0.999917 0.012857
-0.474838495255 0.832475900650 0.568984985352 -0.555599 -0.363339 0.747860
-0.342265486717 0.869377255440 0.539055943489 0.286947 0.896525 0.337498
-0.313176304102 0.854093372822 0.498871147633 0.872986 0.364125 0.324513
-0.375244081020 0.831648111343 0.531219542027 -0.585068 -0.317516 -0.746243
-0.285347580910 0.835188090801 0.412046164274 0.836196 -0.451702 0.311034
-0.275704562664 0.864054858685 0.386195600033 0.884864 0.454390 0.102695
-0.566517770290 0.838238298893 0.363358348608 -0.883327 -0.459218 0.094090
-0.510187387466 0.840038478374 0.392446875572 0.917294 -0.386877 0.094327
0.369450211525 0.821727871895 0.547067046165 -0.255048 -0.917884 0.304040
0.552263379097 0.836207509041 0.421053588390 0.882174 -0.360410 0.303106
0.523589730263 0.845829546452 0.516907095909 0.879299 -0.373816 0.295118
0.543643534184 0.830304145813 0.429728090763 0.427707 -0.893781 0.134991
0.482066690922 0.855521976948 0.493376284838 -0.871868 0.374094 -0.316071
0.333611011505 0.873749077320 0.476437062025 0.356339 0.925931 -0.125200
0.319084048271 0.870781004429 0.467628896236 -0.385309 0.910346 0.151019
0.296173483133 0.827350199223 0.411552071571 -0.415155 -0.899738 0.134606
0.516840279102 0.874723851681 0.380546480417 -0.368856 0.922827 0.111068
-0.865292549133 -0.067808844149 0.312556207180 0.423430 0.905852 0.011798
-0.799257099628 -0.105956137180 0.393758475780 0.130964 -0.311883 0.941051
-0.906457781792 -0.070236429572 0.345896214247 -0.973506 0.037396 0.225583
0.877765655518 0.536423742771 0.123718723655 0.980024 0.019905 0.197878
0.791920781136 -0.103485025465 0.315617561340 -0.423430 0.905852 0.011798
0.865157783031 -0.069891624153 0.366607934237 -0.423430 0.905852 0.011798
0.913574516773 -0.072262994945 0.327848047018 0.973506 0.037396 0.225583
0.913713991642 -0.121051222086 0.320680856705 0.580650 -0.563721 -0.587421
0.893940865993 -0.141918003559 0.325183719397 0.580267 -0.693327 -0.427303
0.811493158340 -0.125989571214 0.385759592056 0.176807 -0.355029 0.917983
-0.207900047302 1.296391129494 0.226713702083 -0.000989 0.999917 0.012857
-0.560978591442 1.296290516853 0.234340965748 -0.000989 0.999917 0.012857
-0.479449689388 1.298458933830 0.063706532121 -0.000989 0.999917 0.012857
-0.179617956281 1.295554399490 0.292594105005 -0.000989 0.999917 0.012857
-0.383585482836 1.298981428146 0.022656613961 -0.000989 0.999917 0.012857
-0.576063096523 1.296678185463 0.203812822700 -0.000989 0.999917 0.012857
-0.367344498634 1.297465324402 0.142015829682 -0.000989 0.999917 0.012857
-0.550625443459 1.297108292580 0.169968277216 -0.000989 0.999917 0.012857
-0.271564781666 1.295920133591 0.263731807470 -0.000989 0.999917 0.012857
-0.349151909351 1.296845793724 0.190802589059 -0.000989 0.999917 0.012857
-0.624871373177 1.296438574791 0.222627684474 -0.000989 0.999917 0.012857
-0.480172097683 1.297818779945 0.114102959633 -0.000989 0.999917 0.012857
-0.380024254322 1.295892596245 0.265810251236 -0.000989 0.999917 0.012857
-0.185672461987 1.300257682800 -0.077812895179 0.000989 0.999917 0.012857
-0.183066144586 1.299734354019 -0.036581054330 0.000989 0.999917 0.012857
-0.191991463304 1.298965096474 0.024024486542 0.000989 0.999917 0.012857
-0.069121047854 1.298288226128 0.077353194356 0.000989 0.999917 0.012857
-0.265075087547 1.300038933754 -0.060574918985 0.000989 0.999917 0.012857
-0.044909015298 1.299179315567 0.007153555751 0.000989 0.999917 0.012857
-0.151987046003 1.297611713409 0.130649179220 0.000989 0.999917 0.012857
-0.086737312376 1.297955632210 0.103554219007 0.000989 0.999917 0.012857
0.068691007793 1.299307823181 -0.002978339791 0.000989 0.999917 0.012857
0.082591600716 1.298418879509 0.067060083151 0.000989 0.999917 0.012857
0.208572879434 1.297999978065 0.100061260164 0.000989 0.999917 0.012857
0.027947947383 1.299106955528 0.012854009867 0.000989 0.999917 0.012857
0.034858867526 1.296812057495 0.193655818701 0.000989 0.999917 0.012857
0.095992073417 1.297040343285 0.175670579076 0.000989 0.999917 0.012857
0.113762862980 1.300343155861 -0.084545210004 0.000989 0.999917 0.012857
0.157178282738 1.299763441086 -0.038867592812 0.000989 0.999917 0.012857
0.127831891179 1.298723101616 0.043096393347 0.000989 0.999917 0.012857
0.405351608992 1.299241662025 0.002156943083 0.000989 0.999917 0.012857
0.283627808094 1.298703193665 0.044643253088 0.000989 0.999917 0.012857
0.402065187693 1.299414396286 -0.011425495148 0.000989 0.999917 0.012857
0.184939518571 1.296609878540 0.209501281381 0.000989 0.999917 0.012857
0.373045414686 1.296563625336 0.212995350361 0.000989 0.999917 0.012857
0.353315353394 1.295789599419 0.273944646120 0.000989 0.999917 0.012857
0.200614199042 1.297582507133 0.132925525308 0.000989 0.999917 0.012857
0.284929633141 1.297768473625 0.118229150772 0.000989 0.999917 0.012857
0.346317350864 1.297749638557 0.119666755199 0.000989 0.999917 0.012857
0.445574998856 1.297433733940 0.144445598125 0.000989 0.999917 0.012857
0.505437970161 1.295750260353 0.276917845011 0.000989 0.999917 0.012857
0.626271724701 1.295899868011 0.265042364597 0.000989 0.999917 0.012857
0.311568647623 1.299180746078 0.007027089596 0.000989 0.999917 0.012857
0.525296568871 1.563368201256 0.059720225632 -0.832241 -0.006810 0.554373
0.568762302399 1.479547977448 0.123803794384 -0.832241 -0.006810 0.554373
0.582215964794 1.383774518967 0.142752379179 -0.832241 -0.006810 0.554373
0.423609763384 1.772252321243 -0.090038843453 -0.832241 -0.006810 0.554373
0.604203581810 1.350820064545 0.175289750099 -0.832241 -0.006810 0.554373
0.478625237942 1.670597195625 -0.008870676160 -0.832241 -0.006810 0.554373
0.526132583618 1.363780498505 0.058438807726 -0.832241 -0.006810 0.554373
0.545228660107 1.301091909409 0.086264595389 -0.832241 -0.006810 0.554373
0.481359541416 1.448825955391 -0.007588557899 -0.832241 -0.006810 0.554373
0.473657399416 1.479855775833 -0.018738754094 -0.832241 -0.006810 0.554373
0.453973412514 1.510538935661 -0.047852169722 -0.832241 -0.006810 0.554373
0.630909979343 1.357017278671 0.215396851301 -0.832241 -0.006810 0.554373
0.671596586704 1.302958011627 0.275692880154 -0.832241 -0.006810 0.554373
0.378449141979 1.635444402695 -0.098913773894 0.000989 -0.012857 0.999917
0.103996336460 1.783592820168 -0.097032502294 0.000989 -0.012857 0.999917
0.050403147936 1.840723156929 -0.096307024360 0.000989 -0.012857 0.999917
0.264657676220 1.666188597679 -0.098523370922 0.000989 -0.012857 0.999917
0.252817928791 1.552568674088 -0.099966183305 0.000989 -0.012857 0.999917
0.252960652113 1.689972400665 -0.098221346736 0.000989 -0.012857 0.999917
0.336057424545 1.846631765366 -0.096231997013 0.000989 -0.012857 0.999917
0.320794939995 1.689779043198 -0.098223805428 0.000989 -0.012857 0.999917
0.257791161537 1.700844287872 -0.098083287477 0.000989 -0.012857 0.999917
0.205327123404 1.647683501244 -0.098758354783 0.000989 -0.012857 0.999917
0.225903987885 1.874685049057 -0.095875754952 0.000989 -0.012857 0.999917
0.378481388092 1.766715407372 -0.097246818244 0.000989 -0.012857 0.999917
0.044467844069 2.054840803146 -0.093587808311 0.000989 -0.012857 0.999917
0.228048235178 1.981980919838 -0.094513118267 0.000989 -0.012857 0.999917
0.343538135290 1.890607714653 -0.095673553646 0.000989 -0.012857 0.999917
0.028223872185 1.966415882111 -0.094710797071 0.000989 -0.012857 0.999917
0.327409178019 1.901609182358 -0.095533840358 0.000989 -0.012857 0.999917
0.165566220880 2.045506954193 -0.093706302345 -0.000989 -0.012857 0.999917
0.160444080830 2.088323593140 -0.093162484467 -0.000989 -0.012857 0.999917
0.253487378359 2.021690130234 -0.094008743763 -0.000989 -0.012857 0.999917
0.187789171934 2.038963317871 -0.093789406121 -0.000989 -0.012857 0.999917
0.216098904610 2.013468980789 -0.094113193452 -0.000989 -0.012857 0.999917
0.509611248970 1.965937852859 -0.069797486067 -0.579748 0.423598 0.696030
0.477750450373 1.947730183601 -0.085272565484 -0.579748 0.423598 0.696030
0.596950888634 1.765700340271 0.125619381666 -0.579748 0.423598 0.696030
0.491396784782 1.849646091461 -0.013885200024 -0.579748 0.423598 0.696030
0.452681839466 1.852556228638 -0.048000901937 -0.579748 0.423598 0.696030
0.588377356529 1.914191603661 0.074043206871 -0.969220 -0.246170 -0.003568
0.611280739307 1.822663426399 0.152617916465 -0.969220 -0.246170 -0.003568
0.577406644821 1.957961320877 0.042096491903 -0.969220 -0.246170 -0.003568
0.599926173687 1.867761611938 0.135559856892 -0.969220 -0.246170 -0.003568
0.610986173153 1.634341239929 0.183809548616 -0.820672 0.009590 0.571319
0.503770768642 1.707970499992 0.028813738376 -0.820672 0.009590 0.571319
0.613777339458 1.528807044029 0.189420476556 -0.820672 0.009590 0.571319
0.452729970217 1.810354828835 -0.045997425914 -0.820672 0.009590 0.571319
0.595947444439 1.600334882736 0.162743091583 -0.820672 0.009590 0.571319
0.596136569977 1.661263465881 0.162087813020 -0.820672 0.009590 0.571319
0.669613957405 1.385570645332 0.271735936403 -0.820672 0.009590 0.571319
-0.153310894966 1.914355278015 -0.095371961594 0.000989 -0.012857 0.999917
-0.308924317360 1.888196229935 -0.095704175532 0.000989 -0.012857 0.999917
-0.152538165450 1.971431732178 -0.094647094607 0.000989 -0.012857 0.999917
-0.095184929669 1.932118892670 -0.095146358013 0.000989 -0.012857 0.999917
-0.324911326170 1.974885106087 -0.094603180885 0.000989 -0.012857 0.999917
-0.343716502190 1.985217809677 -0.094471931458 0.000989 -0.012857 0.999917
-0.112044505775 2.061832904816 -0.093498982489 0.000989 -0.012857 0.999917
-0.140913933516 2.045577764511 -0.093705415726 0.000989 -0.012857 0.999917
-0.219750955701 2.014523744583 -0.094099789858 0.000989 -0.012857 0.999917
-0.414943784475 1.961378097534 -0.094774678349 0.000989 -0.012857 0.999917
-0.583768129349 1.845990896225 0.067885160446 0.579748 0.423598 0.696030
-0.501727819443 1.823142170906 0.013337031007 0.579748 0.423598 0.696030
-0.542992949486 1.774003982544 0.077856697142 0.579748 0.423598 0.696030
-0.545822024345 2.026449918747 -0.074179768562 0.579748 0.423598 0.696030
-0.550914406776 1.958704710007 -0.028492644429 0.579748 0.423598 0.696030
-0.568671345711 1.981135129929 0.048086017370 0.969220 -0.246170 -0.003568
-0.648856759071 1.661746263504 0.240083649755 0.969220 -0.246170 -0.003568
-0.561424136162 2.009241580963 0.090688988566 0.969220 -0.246170 -0.003568
-0.580702185631 1.933015823364 0.092600017786 0.969220 -0.246170 -0.003568
-0.553398668766 1.663051009178 0.104818217456 0.820672 0.009590 0.571319
-0.632305860519 1.433039665222 0.221564382315 0.820672 0.009590 0.571319
-0.578033685684 1.671566009521 0.140045017004 0.820672 0.009590 0.571319
-0.630908608437 1.507014393806 0.218433886766 0.820672 0.009590 0.571319
-0.583457410336 1.627390027046 0.148501053452 0.820672 0.009590 0.571319
-0.532138466835 1.713009238243 0.073545709252 0.820672 0.009590 0.571319
-0.535736918449 1.688741207123 0.079079248011 0.820672 0.009590 0.571319
-0.456410050392 1.638060688972 -0.038303982466 0.832241 -0.006810 0.554373
-0.421857267618 1.350417852402 -0.093745529652 0.832241 -0.006810 0.554373
-0.503502190113 1.608873009682 0.031908676028 0.832241 -0.006810 0.554373
-0.431875377893 1.704107761383 -0.074238695204 0.832241 -0.006810 0.554373
-0.504232227802 1.405374646187 0.030418701470 0.832241 -0.006810 0.554373
-0.483368247747 1.692515373230 0.002793374937 0.832241 -0.006810 0.554373
-0.472424983978 1.571368694305 -0.015147191472 0.832241 -0.006810 0.554373
-0.451590240002 1.381372570992 -0.048787645996 0.832241 -0.006810 0.554373
-0.589691042900 1.323234438896 0.157464250922 0.832241 -0.006810 0.554373
-0.427404701710 1.534841299057 -0.083088949323 0.832241 -0.006810 0.554373
-0.454884380102 1.304739952087 -0.044823437929 0.832241 -0.006810 0.554373
-0.485146969557 1.567994713783 0.003878142918 0.832241 -0.006810 0.554373
-0.427871763706 1.603576540947 -0.081516057253 0.832241 -0.006810 0.554373
-0.324063122272 1.655344724655 -0.098661072552 0.000989 -0.012857 0.999917
-0.095700360835 1.754973649979 -0.097395926714 0.000989 -0.012857 0.999917
-0.039395917207 1.878856420517 -0.095822788775 0.000989 -0.012857 0.999917
-0.140953108668 1.744292974472 -0.097531557083 0.000989 -0.012857 0.999917
-0.105109810829 1.855800151825 -0.096115566790 0.000989 -0.012857 0.999917
-0.382813721895 1.786761522293 -0.096992261708 0.000989 -0.012857 0.999917
-0.185414493084 1.625743746758 -0.099036961794 0.000989 -0.012857 0.999917
-0.200938820839 1.622220039368 -0.099081709981 0.000989 -0.012857 0.999917
-0.271313339472 1.551603794098 -0.099978432059 0.000989 -0.012857 0.999917
-0.305353611708 1.476209878922 -0.100935831666 0.000989 -0.012857 0.999917
-0.315173804760 1.871733427048 -0.095913238823 0.000989 -0.012857 0.999917
-0.258107542992 1.754068851471 -0.097407415509 0.000989 -0.012857 0.999917
-0.019539201632 1.614263534546 -0.099182747304 0.000989 -0.012857 0.999917
-0.060044165701 1.742607474327 -0.097552955151 0.000989 -0.012857 0.999917
-0.147342368960 1.324016451836 -0.102868475020 0.000989 -0.012857 0.999917
-0.028287358582 1.501778125763 -0.100611150265 0.000989 -0.012857 0.999917
-0.083100698888 1.628855466843 -0.098997443914 0.000989 -0.012857 0.999917
-0.032884106040 1.728394031525 -0.097733452916 0.000989 -0.012857 0.999917
-0.152640327811 1.394954681396 -0.101967662573 0.000989 -0.012857 0.999917
-0.052444361150 1.387555122375 -0.102061621845 0.000989 -0.012857 0.999917
-0.171279996634 1.473469495773 -0.100970633328 0.000989 -0.012857 0.999917
-0.108564481139 1.379003286362 -0.102170221508 0.000989 -0.012857 0.999917
-0.189561560750 1.608310222626 -0.099258340895 0.000989 -0.012857 0.999917
-0.206692025065 1.390878915787 -0.102019414306 0.000989 -0.012857 0.999917
0.314164042473 1.445467352867 -0.101326219738 0.000989 -0.012857 0.999917
0.332507073879 1.307900667191 -0.103073120117 0.000989 -0.012857 0.999917
0.192782595754 1.587783575058 -0.099518999457 0.000989 -0.012857 0.999917
0.320212155581 1.354265451431 -0.102484352887 0.000989 -0.012857 0.999917
0.280272483826 1.329937100410 -0.102793291211 0.000989 -0.012857 0.999917
0.012795954943 1.307277679443 -0.103081032634 0.000989 -0.012857 0.999917
0.065963022411 1.676980972290 -0.098386324942 0.000989 -0.012857 0.999917
0.266516774893 1.394219636917 -0.101976990700 0.000989 -0.012857 0.999917
0.133804142475 1.542790174484 -0.100090354681 0.000989 -0.012857 0.999917
0.122331917286 1.697412848473 -0.098126865923 0.000989 -0.012857 0.999917
0.231977105141 1.435845017433 -0.101448409259 0.000989 -0.012857 0.999917
0.014190785587 1.705597639084 -0.098022930324 0.000989 -0.012857 0.999917
-0.447289049625 2.075351476669 -0.275057613850 -0.000989 0.012857 -0.999917
0.479927569628 2.090324163437 -0.265426039696 0.571319 0.009590 -0.820672
0.430257260799 2.101658105850 -0.265200704336 -0.508101 0.012130 -0.861212
0.425701349974 2.067296981812 -0.251065522432 -0.955321 0.003679 -0.295548
-0.526091098785 -0.488236010075 0.229602962732 -0.121463 -0.155816 0.980290
-0.542296230793 -0.316212147474 0.254763245583 -0.121463 -0.155816 0.980290
-0.458287358284 -0.378811031580 0.255345731974 -0.121463 -0.155816 0.980290
-0.691349804401 -0.283177524805 0.241400316358 -0.121463 -0.155816 0.980290
-0.579901576042 -0.447285830975 0.229364722967 -0.121463 -0.155816 0.980290
-0.370251208544 -0.419822633266 0.259841203690 -0.121463 -0.155816 0.980290
-0.460280179977 -0.328133493662 0.263104587793 -0.121463 -0.155816 0.980290
-0.493399500847 -0.655097067356 0.214610934258 0.023952 -0.044781 0.998710
-0.471162825823 -0.634309172630 0.215044274926 0.023952 -0.044781 0.998710
-0.628655314445 -0.509664654732 0.224325403571 0.023952 -0.044781 0.998710
-0.746229410172 -0.625638782978 0.221758902073 0.023952 -0.044781 0.998710
-0.668557465076 -0.418591499329 0.229379415512 0.023952 -0.044781 0.998710
-0.602724373341 -0.717616260052 0.214283123612 0.023952 -0.044781 0.998710
-0.694078505039 -0.712343990803 0.216621845961 0.023952 -0.044781 0.998710
-0.700833618641 -0.620771229267 0.220936864614 0.023952 -0.044781 0.998710
-0.743925094604 -0.591989874840 0.223234489560 0.023952 -0.044781 0.998710
-0.438936531544 -1.397835493088 0.160406365991 0.040042 -0.070344 0.996719
-0.533943414688 -1.392821550369 0.164597257972 0.040042 -0.070344 0.996719
-0.564968585968 -1.104789018631 0.186082452536 0.040042 -0.070344 0.996719
-0.514016389847 -1.082259893417 0.185606211424 0.040042 -0.070344 0.996719
-0.515398144722 -1.263317823410 0.172944396734 0.040042 -0.070344 0.996719
-0.564453184605 -0.923265457153 0.198812007904 0.040042 -0.070344 0.996719
-0.606714248657 -1.219050168991 0.179743379354 0.040042 -0.070344 0.996719
-0.666653215885 -0.788611710072 0.212399542332 0.040042 -0.070344 0.996719
-0.487172961235 -0.931014001369 0.195145249367 0.040042 -0.070344 0.996719
-0.611253142357 -0.833188831806 0.207029998302 0.040042 -0.070344 0.996719
-0.519336938858 -1.024822473526 0.189855650067 0.040042 -0.070344 0.996719
-0.627601981163 -1.101041913033 0.188876330853 0.040042 -0.070344 0.996719
-0.740350246429 -0.856943190098 0.210577577353 0.040042 -0.070344 0.996719
-0.467640727758 -1.156800270081 0.178496658802 0.040042 -0.070344 0.996719
-0.566471695900 -1.223756432533 0.177786812186 0.040042 -0.070344 0.996719
-0.471634864807 -0.673336625099 0.212616920471 0.040042 -0.070344 0.996719
-0.525266706944 -1.425433874130 0.161955952644 0.040042 -0.070344 0.996719
-0.457099556923 -0.987095117569 0.189990967512 0.040042 -0.070344 0.996719
-0.308204442263 -0.926585197449 0.193831115961 0.001044 -0.072063 0.997400
-0.241212576628 -1.283651590347 0.168206214905 0.001044 -0.072063 0.997400
-0.348810553551 -0.773238956928 0.204836025834 0.001044 -0.072063 0.997400
0.343805730343 -1.672175526619 0.140323743224 0.001044 -0.072063 0.997400
-0.074208930135 -1.367445945740 0.162192687392 0.001044 -0.072063 0.997400
-0.271759510040 -1.361808180809 0.162597298622 0.001044 -0.072063 0.997400
-0.102147132158 -1.566501379013 0.147907465696 0.001044 -0.072063 0.997400
-0.145403385162 -1.575570821762 0.147256582975 0.001044 -0.072063 0.997400
-0.175588592887 -1.076015949249 0.183107197285 0.001044 -0.072063 0.997400
-0.310678809881 -1.391034603119 0.160499855876 0.001044 -0.072063 0.997400
-0.351641625166 -1.008933663368 0.187921375036 0.001044 -0.072063 0.997400
-0.168100848794 -1.067616224289 0.183710008860 0.001044 -0.072063 0.997400
-0.352578878403 -1.480386972427 0.154087468982 0.001044 -0.072063 0.997400
-0.048114418983 -1.491409182549 0.153296455741 0.001044 -0.072063 0.997400
-0.093900397420 -1.163932323456 0.176797866821 0.001044 -0.072063 0.997400
-0.322001993656 -0.965255141258 0.191055953503 0.001044 -0.072063 0.997400
-0.260035157204 -1.106524944305 0.180917710066 0.001044 -0.072063 0.997400
-0.326845616102 -0.877617001534 0.197345316410 0.001044 -0.072063 0.997400
-0.111029028893 -1.489689230919 0.153419896960 0.001044 -0.072063 0.997400
-0.337909102440 -1.550141215324 0.149081543088 0.001044 -0.072063 0.997400
-0.403978258371 -1.652604341507 0.141728267074 0.001044 -0.072063 0.997400
0.215914309025 -1.554707527161 0.148753851652 0.001044 -0.072063 0.997400
0.095249146223 -1.615849494934 0.144365996122 0.001044 -0.072063 0.997400
-0.346591353416 -0.952575922012 0.191965892911 0.001044 -0.072063 0.997400
0.259874701500 -1.566586971283 0.147901311517 0.001044 -0.072063 0.997400
-0.073240101337 -1.650399804115 0.141886487603 0.001044 -0.072063 0.997400
-0.390029966831 -1.247971773148 0.170766770840 0.001044 -0.072063 0.997400
-0.051500204951 -1.186538815498 0.175175517797 0.001044 -0.072063 0.997400
0.093658238649 -1.689401984215 0.139087483287 0.001044 -0.072063 0.997400
-0.106334194541 -1.355051040649 0.163082227111 0.001044 -0.072063 0.997400
0.105421587825 -1.514094948769 0.151668414474 0.001044 -0.072063 0.997400
-0.285102456808 -1.102253437042 0.181224256754 0.001044 -0.072063 0.997400
-0.010611891747 -1.528510570526 0.150633871555 0.001044 -0.072063 0.997400
-0.422589272261 -1.233444094658 0.171809345484 0.001044 -0.072063 0.997400
0.139587119222 -1.519363284111 0.151290327311 0.001044 -0.072063 0.997400
-0.405784845352 -0.839151740074 0.200105786324 0.001044 -0.072063 0.997400
0.141860425472 -1.544833540916 0.149462461472 0.001044 -0.072063 0.997400
-0.314250797033 -1.660051703453 0.141193807125 0.001044 -0.072063 0.997400
-0.204580962658 -1.363665342331 0.162464007735 0.001044 -0.072063 0.997400
-0.136976510286 -1.366469144821 0.162262797356 0.001044 -0.072063 0.997400
-0.331203877926 -1.298364758492 0.167150318623 0.001044 -0.072063 0.997400
-0.209337070584 -1.418027162552 0.158562734723 0.001044 -0.072063 0.997400
-0.092242322862 -1.228932023048 0.172133162618 0.001044 -0.072063 0.997400
0.002195008099 -1.260357975960 0.169877886772 0.001044 -0.072063 0.997400
0.075958423316 -0.652252376080 0.213518649340 0.001044 -0.072063 0.997400
0.047341726720 -0.990300416946 0.189258590341 0.001044 -0.072063 0.997400
0.093024253845 -1.215842604637 0.173072531819 0.001044 -0.072063 0.997400
-0.053587496281 -0.682084143162 0.211377769709 0.001044 -0.072063 0.997400
0.299253344536 -1.277612209320 0.168639630079 0.001044 -0.072063 0.997400
0.173359870911 -0.813160240650 0.201971068978 0.001044 -0.072063 0.997400
0.328423112631 -0.754763960838 0.206161886454 0.001044 -0.072063 0.997400
0.121208183467 -0.806342303753 0.202460363507 0.001044 -0.072063 0.997400
0.070751488209 -0.892942667007 0.196245476604 0.001044 -0.072063 0.997400
0.142908215523 -0.771194219589 0.204982772470 0.001044 -0.072063 0.997400
-0.331066638231 -0.767375588417 0.205256804824 0.001044 -0.072063 0.997400
0.328138530254 -0.728940010071 0.208015143871 0.001044 -0.072063 0.997400
0.304044663906 -0.957125186920 0.191639408469 0.001044 -0.072063 0.997400
0.019594414160 -0.890322685242 0.196433499455 0.001044 -0.072063 0.997400
-0.305103182793 -0.713026225567 0.209157198668 0.001044 -0.072063 0.997400
0.111851789057 -0.839501917362 0.200080662966 0.001044 -0.072063 0.997400
-0.132852256298 -0.835667014122 0.200355872512 0.001044 -0.072063 0.997400
-0.304018527269 -0.815235495567 0.201822146773 0.001044 -0.072063 0.997400
0.258930623531 -1.223363399506 0.172532796860 0.001044 -0.072063 0.997400
0.234462112188 -1.410497188568 0.159103125334 0.001044 -0.072063 0.997400
-0.020683031529 -0.977588176727 0.190170884132 0.001044 -0.072063 0.997400
0.320959538221 -1.101408839226 0.181284874678 0.001044 -0.072063 0.997400
0.007176258601 -0.868999719620 0.197963744402 0.001044 -0.072063 0.997400
0.136033207178 -1.079286336899 0.182872503996 0.001044 -0.072063 0.997400
0.122493200004 -1.125422954559 0.179561510682 0.001044 -0.072063 0.997400
0.135659530759 -0.654409945011 0.213363811374 0.001044 -0.072063 0.997400
0.308917671442 -1.065483331680 0.183863088489 0.001044 -0.072063 0.997400
0.213398456573 -0.702106893063 0.209940835834 0.001044 -0.072063 0.997400
0.107823044062 -1.298738121986 0.167123526335 0.001044 -0.072063 0.997400
0.139525666833 -0.676143348217 0.211804106832 0.001044 -0.072063 0.997400
0.005837898701 -0.650187730789 0.213666811585 0.001044 -0.072063 0.997400
0.307356834412 -1.522481679916 0.151066541672 0.001044 -0.072063 0.997400
0.200138837099 -0.826783478260 0.200993403792 0.001044 -0.072063 0.997400
0.207363858819 -0.917989850044 0.194447964430 0.001044 -0.072063 0.997400
0.049568250775 -0.858367979527 0.198726728559 0.001044 -0.072063 0.997400
-0.261808156967 -0.772378683090 0.204897761345 0.001044 -0.072063 0.997400
0.132318630815 -1.096912741661 0.181607544422 0.001044 -0.072063 0.997400
0.169720113277 -1.077420592308 0.183006405830 0.001044 -0.072063 0.997400
-0.118923619390 -0.873706340790 0.197625979781 0.001044 -0.072063 0.997400
0.089409478009 -0.969920217991 0.190721184015 0.001044 -0.072063 0.997400
0.304240375757 -0.943280518055 0.192632973194 0.001044 -0.072063 0.997400
-0.051502976567 -0.795366227627 0.203248068690 0.001044 -0.072063 0.997400
0.337421655655 -1.591747522354 0.146095663309 0.001044 -0.072063 0.997400
0.427333116531 -1.510811090469 0.151904076338 0.001044 -0.072063 0.997400
-0.226985052228 -0.891793489456 0.196327954531 0.001044 -0.072063 0.997400
0.405062168837 -1.099978923798 0.181387498975 0.001044 -0.072063 0.997400
0.117943868041 -1.060686707497 0.184207305312 0.001044 -0.072063 0.997400
0.093075610697 -0.637593269348 0.214570656419 0.001044 -0.072063 0.997400
0.336516976357 -1.166515827179 0.176612466574 0.001044 -0.072063 0.997400
0.068958401680 -0.605896353722 0.222350984812 0.001184 -0.242814 0.970072
-0.188410803676 -0.477776288986 0.254322648048 0.001184 -0.242814 0.970072
-0.160494908690 -0.474882185459 0.255044847727 0.001184 -0.242814 0.970072
0.267259716988 -0.600198209286 0.223772943020 0.001184 -0.242814 0.970072
-0.014828592539 -0.611642122269 0.220917165279 0.001184 -0.242814 0.970072
0.405793547630 -0.630302786827 0.216260492802 0.001184 -0.242814 0.970072
-0.081134840846 -0.556139349937 0.234767585993 0.001184 -0.242814 0.970072
-0.054093003273 -0.624819993973 0.217628687620 0.001184 -0.242814 0.970072
-0.336887985468 -0.520301401615 0.243710741401 0.001184 -0.242814 0.970072
-0.261179178953 -0.399536520243 0.273846954107 0.001184 -0.242814 0.970072
0.175873517990 -0.586047708988 0.227304115891 0.001184 -0.242814 0.970072
-0.233233302832 -0.434502571821 0.265121370554 0.001184 -0.242814 0.970072
0.281662702560 -0.614690601826 0.220156446099 0.001184 -0.242814 0.970072
0.098420917988 -0.413779377937 0.270292729139 0.001184 -0.242814 0.970072
-0.175110846758 -0.386407434940 0.277123242617 0.001184 -0.242814 0.970072
0.376476764679 -0.588341236115 0.226731777191 0.001184 -0.242814 0.970072
0.248998746276 -0.503323912621 0.247947379947 0.001184 -0.242814 0.970072
0.141042888165 -0.456406414509 0.259655386209 0.001184 -0.242814 0.970072
0.225091397762 -0.400385707617 0.273635059595 0.001184 -0.242814 0.970072
0.273460805416 -0.467747390270 0.256825298071 0.001184 -0.242814 0.970072
0.120427250862 -0.463533729315 0.257876813412 0.001184 -0.242814 0.970072
0.375832766294 -0.344294577837 0.271434903145 0.121463 -0.155816 0.980290
0.575644671917 -0.377211242914 0.241323292255 0.121463 -0.155816 0.980290
0.379772990942 -0.373225867748 0.266372352839 0.121463 -0.155816 0.980290
0.483810365200 -0.435143768787 0.243618667126 0.121463 -0.155816 0.980290
0.375832796097 -0.480676054955 0.249885961413 0.121463 -0.155816 0.980290
0.412073433399 -0.521966636181 0.238843724132 0.121463 -0.155816 0.980290
0.652757406235 -0.330529361963 0.239085584879 0.121463 -0.155816 0.980290
0.420372456312 -0.412992268801 0.255027532578 0.121463 -0.155816 0.980290
0.694069981575 -0.403492867947 0.230585962534 -0.023952 -0.044781 0.998710
0.603278517723 -0.455501437187 0.226137131453 -0.023952 -0.044781 0.998710
0.579931199551 -0.630536794662 0.217649459839 -0.023952 -0.044781 0.998710
0.714265048504 -0.308109611273 0.235382914543 -0.023952 -0.044781 0.998710
0.662163138390 -0.704690635204 0.216170564294 -0.023952 -0.044781 0.998710
0.690043866634 -0.708767652512 0.216626033187 -0.023952 -0.044781 0.998710
0.744783461094 -0.370029300451 0.233271434903 -0.023952 -0.044781 0.998710
0.682060122490 -0.624789774418 0.220257356763 -0.023952 -0.044781 0.998710
0.686303257942 -0.726160049438 0.215750008821 -0.023952 -0.044781 0.998710
0.702256977558 -0.446472048759 0.228821724653 -0.023952 -0.044781 0.998710
0.516374349594 -1.051615238190 0.187738716602 -0.040042 -0.070344 0.996719
0.683000683784 -0.919601559639 0.203743934631 -0.040042 -0.070344 0.996719
0.656020104885 -1.103356242180 0.189746722579 -0.040042 -0.070344 0.996719
0.470868110657 -1.422789573669 0.159828454256 -0.040042 -0.070344 0.996719
0.643934726715 -0.839799582958 0.207770854235 -0.040042 -0.070344 0.996719
0.599725246429 -1.117463827133 0.186481222510 -0.040042 -0.070344 0.996719
0.506844043732 -1.345924615860 0.166681125760 -0.040042 -0.070344 0.996719
0.584119379520 -1.207887768745 0.179499208927 -0.040042 -0.070344 0.996719
0.599878430367 -1.062949180603 0.190316542983 -0.040042 -0.070344 0.996719
0.497921109200 -1.318865537643 0.168221235275 -0.040042 -0.070344 0.996719
0.633400201797 -1.147313237190 0.185745194554 -0.040042 -0.070344 0.996719
0.519063174725 -1.399734377861 0.163395181298 -0.040042 -0.070344 0.996719
0.528328061104 -1.297266006470 0.170966982841 -0.040042 -0.070344 0.996719
0.478014856577 -0.680872917175 0.212230071425 -0.040042 -0.070344 0.996719
0.500499665737 -1.135070562363 0.181235343218 -0.040042 -0.070344 0.996719
0.462398946285 -0.795849919319 0.203523024917 -0.040042 -0.070344 0.996719
0.528574824333 -1.253786206245 0.174031019211 -0.040042 -0.070344 0.996719
0.610304236412 -1.204763889313 0.180776625872 -0.040042 -0.070344 0.996719
0.576393365860 -1.461848139763 0.149818912148 0.181045 -0.165637 0.969426
0.726995706558 -1.264529943466 0.155192971230 0.181045 -0.165637 0.969426
0.747257351875 -1.175485730171 0.166534096003 0.181045 -0.165637 0.969426
0.575139701366 -1.470407962799 0.148598998785 0.181045 -0.165637 0.969426
0.741915524006 -1.071354389191 0.185224160552 0.181045 -0.165637 0.969426
0.697888195515 -1.467151761055 0.126208722591 0.181045 -0.165637 0.969426
0.662819623947 -1.514271140099 0.124758109450 0.181045 -0.165637 0.969426
0.665780305862 -1.217044353485 0.174702644348 0.181045 -0.165637 0.969426
0.490579873323 -1.762876033783 0.075914464891 0.371069 -0.418440 0.828985
0.567509293556 -1.820583105087 0.012337148190 0.371069 -0.418440 0.828985
0.557860136032 -1.754584193230 0.050084814429 0.371069 -0.418440 0.828985
0.513121902943 -1.810672640800 0.041634842753 0.371069 -0.418440 0.828985
0.518885374069 -1.889724373817 -0.000992096961 0.371069 -0.418440 0.828985
0.561256527901 -1.757446765900 0.047118373215 0.371069 -0.418440 0.828985
0.418669790030 -1.800517439842 0.087828487158 0.351721 -0.430583 0.831198
