-0.530898332596 2.035581588745 0.046179864556 -0.308561 0.948923 0.065844
-0.604009449482 1.953421831131 -0.000265248120 -0.080896 0.338173 0.937601
-0.623333513737 1.941430807114 0.034268558025 -0.418987 0.902965 0.095413
-0.629980027676 1.957577943802 0.115168198943 -0.158520 0.514077 -0.842969
-0.704497337341 1.921240091324 0.111508205533 -0.282773 0.492118 -0.823322
-0.770650088787 1.884501695633 -0.008041935973 -0.522592 0.407917 0.748666
-0.647529065609 1.956389188766 -0.006442990154 -0.135232 0.377813 0.915953
-0.395870119333 2.072057485580 0.031630109996 -0.192908 0.980910 0.024552
-0.523230731487 2.039419174194 0.041740309447 -0.296904 0.953883 0.044220
-0.618702828884 2.010897874832 -0.008156785741 -0.346646 0.931185 0.112830
-0.557352244854 2.025193929672 0.119249984622 -0.274854 0.960108 0.051457
-0.772301316261 1.891747236252 0.015281219035 -0.938252 0.345672 0.013928
-0.779818952084 1.869728326797 0.011586294509 -0.952907 0.302688 0.018684
-0.783370316029 1.825141668320 0.049248047173 -0.937320 0.207519 0.279942
-0.747005343437 1.912494421005 0.066784068942 -0.826280 0.475072 0.302603
-0.662330925465 1.976554274559 0.104474537075 -0.486816 0.866560 0.109926
-0.716371834278 1.924670577049 0.108343042433 -0.682278 0.619501 0.388221
-0.586319983006 1.971457481384 0.075472332537 0.697319 0.006932 0.716727
-0.577483355999 1.955719232559 0.066985197365 0.697319 0.006932 0.716727
-0.608289122581 1.970552325249 0.073275081813 0.020258 0.996925 0.075702
0.468576163054 2.052558660507 0.079256631434 0.271418 0.959521 0.075182
0.569602251053 2.017023324966 0.122734494507 0.476155 0.879361 -0.001326
0.732302963734 1.943623900414 -0.007264649495 0.739599 0.671197 -0.049877
0.625562667847 2.006167173386 0.000851929188 0.343379 0.932417 0.112650
0.665096402168 1.988631248474 -0.013627680950 0.458760 0.882231 0.105868
0.536454617977 2.038561344147 -0.010858051479 0.245622 0.966112 0.079355
0.536513388157 2.033560276031 0.061234049499 0.291580 0.955526 0.044179
0.377840071917 2.075652360916 0.001771124080 0.171249 0.983793 0.053146
0.440528869629 2.063038349152 0.034350883216 0.187968 0.981869 0.024518
0.720886766911 1.906194090843 0.109555192292 0.282773 0.492118 -0.823322
0.777037978172 1.820751786232 0.036413609982 0.474681 0.612220 0.632348
0.727653801441 1.909069061279 -0.002695168601 0.353876 0.449089 0.820421
0.668180346489 1.938216686249 -0.002285993425 0.132493 0.377954 0.916295
0.627685844898 2.007081985474 -0.024766892195 0.132493 0.377954 0.916295
0.540467560291 2.027237176895 0.129911154509 0.270243 0.960441 0.067244
0.491627842188 2.046025753021 0.061066765338 -0.040868 0.998636 -0.032484
0.507566034794 2.036777257919 0.125952810049 0.268448 0.960561 0.072519
0.323808968067 2.084659337997 0.001699692570 0.221769 0.975082 0.005867
0.568087100983 1.953278303146 0.026428578421 0.197772 0.976577 -0.084759
0.580727636814 1.974821686745 -0.005978200119 0.080896 0.338173 0.937601
0.400900900364 2.041737079620 0.024393681437 0.538419 0.639689 0.548546
0.431296229362 2.038519382477 0.031040187925 -0.037877 0.988252 -0.148066
0.438451945782 2.036397695541 0.016861975193 0.035504 0.988388 -0.147743
0.461553931236 2.036914348602 0.030676938593 0.099466 0.988811 -0.111168
0.712769210339 1.943029880524 0.021816464141 0.924049 0.284213 -0.255649
0.658225178719 1.907704949379 -0.005008121021 -0.250123 0.008377 -0.968178
0.764495790005 1.856606483459 0.010506493971 0.321028 0.488658 0.811267
0.742272973061 1.874475240707 0.029470806941 0.752293 0.465862 0.465862
0.638509273529 1.949336290359 0.020144686103 0.069604 0.995443 -0.065184
0.539263606071 -1.962565064430 -0.163636773825 0.206846 -0.956831 -0.204177
0.495011419058 -1.961901903152 -0.158261865377 -0.203768 -0.957579 -0.203768
0.547011613846 -1.874245524406 -0.088158123195 0.252954 0.005994 0.967460
0.523718357086 -1.862930178642 -0.082151271403 0.252954 0.005994 0.967460
0.463099420071 -1.923588752747 -0.136329069734 -0.964151 -0.001201 0.265352
0.572947621346 -1.901327371597 -0.166188627481 0.964151 0.001201 -0.265352
0.655581176281 -1.872825741768 -0.176814973354 0.252369 -0.005980 -0.967613
0.636591196060 -1.881770133972 -0.181722268462 0.252369 -0.005980 -0.967613
0.666119515896 -1.878154277802 -0.167174383998 0.698750 -0.004151 -0.715354
0.679640054703 -1.893338441849 -0.124823153019 -0.429044 -0.896068 -0.113943
0.576757371426 -1.833721041679 -0.143443822861 -0.963976 -0.003610 -0.265966
0.631492614746 -1.830694556236 -0.076491594315 0.252954 0.005994 0.967460
-0.695924282074 -1.871381878853 -0.082779869437 -0.521927 -0.616516 0.589491
-0.544104814529 -1.998002409935 -0.119023576379 -0.393344 -0.762206 0.514122
-0.496481716633 -2.029754400253 -0.130049973726 -0.359984 -0.804765 0.471979
-0.783789992332 -1.749774098396 -0.128476068377 0.769084 -0.165345 0.617391
-0.732671022415 -1.872017621994 -0.170489519835 0.500186 -0.028621 0.865445
-0.652134358883 -1.809360623360 -0.078204318881 -0.792868 -0.608933 0.023688
-0.602079451084 -1.874989986420 -0.059755105525 -0.231932 -0.083997 -0.969099
-0.621850788593 -1.952643156052 -0.188177004457 0.069187 -0.022353 0.997353
-0.609406590462 -1.842859387398 -0.093441821635 -0.644508 -0.763494 0.041079
-0.651927709579 -1.809410333633 -0.089434280992 -0.607852 -0.789774 -0.082298
-0.550727665424 -1.888980269432 -0.083286069334 -0.589223 -0.807960 0.004101
-0.587940096855 -1.861903429031 -0.133387356997 -0.606072 -0.794503 -0.037967
-0.549032628536 -1.903306007385 -0.186861753464 -0.011118 -0.025268 0.999619
-0.512586832047 -2.013792276382 -0.189229950309 -0.013166 -0.025319 0.999593
-0.500603139400 -1.940117239952 -0.097209371626 -0.590037 -0.070004 -0.804336
-0.517836570740 -1.913651823997 -0.093965731561 -0.609410 -0.792650 0.018046
-0.473588883877 -1.969649553299 -0.116430550814 -0.678209 -0.098568 -0.728229
0.770585000515 -1.723782062531 -0.061699226499 0.684644 -0.290212 0.668610
0.755529701710 -1.753794431686 -0.059347167611 0.734997 -0.353646 0.578545
0.744714438915 -1.853937506676 -0.129298746586 0.802505 -0.518711 0.294830
0.667770147324 -1.877527952194 -0.062570303679 0.525468 -0.613327 0.589673
0.619631290436 -1.919684529305 -0.069942757487 0.449949 -0.664051 0.597144
0.495934844017 -2.032294988632 -0.132934302092 0.362765 -0.803835 0.471434
0.535490155220 -2.039306879044 -0.182042062283 0.467827 -0.799003 0.377798
0.642601251602 -1.935961842537 -0.107389248908 0.430591 -0.730849 0.529577
0.699661374092 -1.914223790169 -0.150098860264 0.634837 -0.684049 0.359249
0.793232023716 -1.729344010353 -0.111242212355 0.909199 -0.285497 0.303066
0.493565261364 -1.975061774254 -0.101414397359 0.679793 -0.098372 -0.726777
0.461897820234 -1.982674241066 -0.130599081516 0.704179 -0.064802 -0.707059
0.526952266693 -1.909106016159 -0.172403573990 0.646232 -0.762186 -0.038180
0.605713009834 -1.850822687149 -0.186163902283 0.011118 -0.025268 0.999619
0.507686555386 -2.016364336014 -0.189216062427 0.013166 -0.025319 0.999593
0.588326632977 -1.968226909637 -0.188766807318 0.005014 -0.023063 0.999721
0.549060642719 -1.892677068710 -0.144957721233 0.609203 -0.792104 -0.037987
0.519066154957 -1.915722846985 -0.131951913238 0.639955 -0.765942 0.061562
0.613706111908 -1.840685129166 -0.089143440127 0.646159 -0.762100 0.041004
0.679687559605 -1.782582879066 -0.149739503860 0.605280 -0.791073 -0.088542
0.698556840420 -1.752346515656 -0.085398726165 0.795241 -0.605831 0.023676
0.705730080605 -1.779656529427 -0.150460526347 -0.252381 0.055946 -0.966009
0.670811116695 -1.774642467499 -0.094642892480 -0.942074 -0.211036 0.260691
0.735706329346 -1.680349111557 -0.121534705162 0.686330 0.179643 -0.704755
0.727359831333 -1.717111468315 -0.065522335470 0.697359 0.055846 0.714543
0.659614086151 -1.685478448868 -0.075661353767 -0.686330 -0.179643 0.704755
0.651504039764 -1.673170208931 -0.104900628328 -0.955260 -0.139116 -0.261007
-0.487100929022 -1.903053760529 -0.089164882898 0.697319 0.006932 0.716727
-0.551913738251 -1.889197945595 -0.094552643597 -0.698750 0.004151 0.715354
-0.565510749817 -1.882367014885 -0.107832543552 -0.698750 0.004151 0.715354
-0.544136524200 -1.926062107086 -0.189048409462 -0.252954 -0.005994 -0.967460
-0.481775552034 -1.920403838158 -0.183214902878 0.698750 -0.004151 -0.715354
-0.568826317787 -1.965106248856 -0.113447666168 -0.964151 -0.001201 0.265352
-0.540565311909 -1.961945891380 -0.109596610069 -0.202827 -0.955035 0.216260
-0.502350926399 -1.937345981598 -0.084843143821 0.252954 0.005994 0.967460
-0.476394742727 -1.963831543922 -0.102305352688 -0.298834 -0.905333 -0.301778
-0.684037387371 -1.700305581093 -0.096126869321 0.955260 0.139116 0.261007
-0.689238131046 -1.678424239159 -0.088819667697 0.955260 0.139116 0.261007
-0.728351771832 -1.677359700203 -0.055170547217 0.252438 -0.043099 0.966653
-0.760380923748 -1.755989193916 -0.090589351952 -0.947092 -0.183968 0.263006
-0.776856184006 -1.653402566910 -0.077695690095 -0.947092 -0.183968 0.263006
-0.754265308380 -1.760798573494 -0.131453871727 -0.697359 -0.055846 -0.714543
-0.728126645088 -1.700761556625 -0.144966498017 0.249400 0.129270 -0.959734
-0.695428013802 -1.671504616737 -0.121752105653 0.686330 0.179643 -0.704755
-0.730535447598 -1.781119942665 -0.148233205080 -0.252381 0.055946 -0.966009
-0.600631058216 -1.830368280411 -0.081912226975 0.252954 0.005994 0.967460
-0.661596298218 -1.790836930275 -0.092544771731 -0.698750 0.004151 0.715354
-0.675831198692 -1.823331594467 -0.144452378154 -0.963976 -0.003610 -0.265966
-0.639814913273 -1.893763542175 -0.085984751582 0.117022 -0.892471 -0.435661
-0.589927732944 -1.808832287788 -0.170637726784 0.698750 -0.004151 -0.715354
-0.651852011681 -1.884670019150 -0.176531597972 -0.252954 -0.005994 -0.967460
-0.611060559750 -1.892932772636 -0.092224225402 0.128698 -0.860399 0.493103
-0.684612452984 -1.824264407158 -0.158399388194 -0.999999 -0.000978 0.000978
0.647700905800 -2.011388540268 -0.466022521257 0.409130 -0.910817 -0.054998
0.262368470430 -2.202596426010 -0.425574332476 0.249582 -0.968185 -0.018086
0.139124661684 -2.226586103439 -0.440956890583 0.143911 -0.989247 -0.026063
-0.191443532705 -2.219746828079 -0.387477695942 -0.147713 -0.988886 -0.016914
-0.331695705652 -2.181036233902 -0.423164069653 -0.325233 -0.945328 -0.024044
-0.314954668283 -2.185472965240 -0.480637788773 -0.308506 -0.950701 -0.031480
-0.270522862673 -2.199234962463 -0.458139777184 -0.246149 -0.968831 -0.027889
-0.118622258306 -2.228102207184 -0.471985936165 -0.142300 -0.989273 -0.033014
0.272787243128 -2.198911905289 -0.467721045017 0.249009 -0.968098 -0.027938
0.336690396070 -2.179158449173 -0.479167491198 0.311526 -0.949714 -0.031531
-0.140086770058 -2.184289216995 -0.164872154593 -0.226845 -0.972367 0.055178
0.085017807782 -2.196426630020 -0.177477762103 0.093812 -0.990240 0.103078
0.240841343999 -2.154959678650 -0.156485915184 0.356441 -0.910585 0.209247
-0.194156631827 -2.187132596970 -0.203082844615 -0.259493 -0.958427 -0.118662
-0.546595513821 -2.073692560196 -0.405698031187 -0.370147 -0.916219 -0.153407
-0.652884423733 -1.994639515877 -0.422466039658 -0.742118 -0.670256 0.004146
-0.053956516087 -1.240878462791 0.119897745550 -0.009892 -0.121999 0.992481
-0.166270852089 -1.198756575584 0.121001124382 -0.027147 -0.087956 0.995754
-0.229017660022 -1.247252702713 0.114025510848 -0.045185 -0.087064 0.995177
-0.331002891064 -1.205758690834 0.114236503839 -0.036488 -0.102831 0.994029
-0.387070566416 -1.285116076469 0.103585705161 -0.045730 -0.101498 0.993784
-0.415365070105 -1.222287297249 0.108635514975 -0.050192 -0.099268 0.993794
-0.539355158806 -1.286448717117 0.094881065190 -0.057359 -0.102346 0.993094
-0.579195857048 -1.235981225967 0.099108815193 -0.116352 -0.097548 0.988406
-0.708283901215 -1.102590441704 0.092123314738 -0.228138 -0.092011 0.969271
-0.709212243557 -1.219296574593 0.080908238888 -0.207227 -0.090584 0.974090
-0.668601930141 -1.131125807762 0.098058193922 -0.183341 -0.097208 0.978231
-0.561593294144 -1.385379910469 0.083155423403 -0.114229 -0.131062 0.984771
-0.540434479713 -1.498558878899 0.071042418480 -0.138152 -0.130816 0.981734
-0.548135221004 -1.348735690117 0.089133948088 0.130922 -0.090820 0.987224
-0.529894888401 -1.357937216759 0.086877301335 -0.065555 -0.123060 0.990232
-0.543012320995 -1.570616722107 0.059652559459 -0.138191 -0.160600 0.977298
-0.665448009968 -1.560054421425 0.048592485487 -0.100157 -0.150839 0.983471
-0.701923310757 -1.445108890533 0.057645328343 -0.205535 -0.112225 0.972194
-0.709150075912 -1.553771972656 0.038651049137 -0.244360 -0.169583 0.954741
-0.652823150158 -1.683192014694 0.026318594813 -0.325861 -0.325861 0.887484
-0.637339472771 -1.804635524750 -0.012789724395 -0.225343 -0.328686 0.917162
-0.554112315178 -1.791410803795 0.010689862072 -0.131505 -0.274966 0.952418
-0.474903315306 -1.823415637016 0.013374147005 -0.149611 -0.247586 0.957245
-0.415610998869 -1.789314746857 0.019311599433 -0.037396 -0.225583 0.973506
-0.358053743839 -1.709959864616 0.038687571883 -0.027397 -0.217984 0.975568
-0.298845469952 -1.702885031700 0.042627472430 -0.039682 -0.217651 0.975220
-0.303989201784 -1.654534697533 0.051752515137 -0.038901 -0.185074 0.981954
-0.267511308193 -1.638660669327 0.056212864816 -0.038901 -0.185074 0.981954
-0.225663349032 -1.531055927277 0.078160151839 -0.036531 -0.187366 0.981611
-0.300488948822 -1.485858559608 0.081915058196 -0.037355 -0.132442 0.990487
-0.224013313651 -1.356707096100 0.102040961385 -0.037355 -0.132442 0.990487
-0.205602362752 -1.310528755188 0.108806200325 -0.044273 -0.126009 0.991041
-0.321479052305 -1.437648534775 0.087301246822 -0.044273 -0.126009 0.991041
-0.418416976929 -1.491916775703 0.076385200024 -0.039551 -0.127692 0.991025
-0.400316298008 -1.504045486450 0.075541466475 -0.039551 -0.127692 0.991025
-0.411408960819 -1.407743692398 0.087445169687 -0.046448 -0.123483 0.991259
-0.426760792732 -1.392643094063 0.088589802384 -0.046448 -0.123483 0.991259
-0.459795266390 -1.552435994148 0.065293885767 -0.038682 -0.176998 0.983451
-0.430247336626 -1.638171792030 0.051013723016 -0.024461 -0.187538 0.981953
-0.111117929220 -1.427604436874 0.094872564077 -0.009968 -0.131794 0.991227
-0.030798407272 -1.301498889923 0.112526714802 -0.009968 -0.131794 0.991227
-0.079366989434 -1.354681015015 0.104939475656 -0.009968 -0.131794 0.991227
-0.034055139869 -1.371230840683 0.103456340730 -0.018883 -0.125516 0.991912
-0.084904588759 -1.408253669739 0.097796514630 -0.018883 -0.125516 0.991912
-0.031305816025 -1.492786407471 0.088257767260 -0.018883 -0.125516 0.991912
-0.114140726626 -1.601749181747 0.067898243666 -0.019678 -0.184043 0.982721
0.001585897175 -1.649846792221 0.060903564095 -0.017356 -0.186286 0.982342
-0.085631176829 -1.701805710793 0.049407053739 -0.017716 -0.213769 0.976724
-0.182571828365 -1.719532966614 0.043756224215 -0.017716 -0.213769 0.976724
-0.196948722005 -1.743667960167 0.037932548672 -0.044529 -0.213018 0.976033
-0.244794845581 -1.791247725487 0.025368135422 -0.044529 -0.213018 0.976033
-0.262051612139 -1.925205588341 -0.011416780762 -0.047123 -0.304391 0.951381
-0.336600929499 -1.936627030373 -0.023097952828 -0.095680 -0.351727 0.931200
-0.365359604359 -1.878992080688 -0.003507423680 -0.045572 -0.355463 0.933579
-0.402371883392 -1.912416338921 -0.018471915275 -0.124443 -0.401294 0.907456
-0.439311385155 -1.937899947166 -0.026704985648 -0.142829 -0.397377 0.906472
-0.610269665718 -1.879822373390 -0.038731358945 -0.216927 -0.444327 0.869205
-0.714190244675 -1.772674679756 -0.030075337738 -0.341036 -0.328911 0.880632
-0.232289224863 -2.004196405411 -0.038687691092 -0.099847 -0.384344 0.917775
-0.100950390100 -2.008109569550 -0.030882364139 -0.045709 -0.361752 0.931153
-0.169449850917 -1.878183364868 0.008119547740 -0.041836 -0.302991 0.952075
-0.186924427748 -1.886193871498 0.004802878946 -0.041836 -0.302991 0.952075
-0.126360803843 -1.870800733566 0.011722905561 -0.028633 -0.287573 0.957331
0.000300781103 -1.851446628571 0.020098423585 -0.027162 -0.201945 0.979020
0.067681044340 -1.790228128433 0.030864942819 0.029522 -0.201932 0.978955
0.107037365437 -1.829257249832 0.021659521386 0.029522 -0.201932 0.978955
0.011332198977 -1.704721689224 0.050196781754 0.017716 -0.213769 0.976724
0.303234219551 -1.806587934494 0.019324369729 0.044634 -0.213520 0.975919
0.320804297924 -1.724756002426 0.036774061620 0.042182 -0.218141 0.975005
0.314085572958 -1.730941414833 0.035681072623 0.042182 -0.218141 0.975005
0.278983056545 -1.666017651558 0.050601270050 0.041255 -0.185057 0.981862
0.220589488745 -1.571643114090 0.070683747530 0.041255 -0.185057 0.981862
0.348248749971 -1.628678679466 0.054870516062 0.038884 -0.187350 0.981523
0.395398974419 -1.647164463997 0.050038538873 0.026863 -0.185703 0.982239
0.389744222164 -1.536538600922 0.070859417319 0.041022 -0.176981 0.983359
0.492192298174 -1.266369104385 0.100037604570 0.066647 -0.098276 0.992925
0.540950536728 -1.190894246101 0.104555100203 0.057487 -0.102575 0.993063
0.582297682762 -1.114477872849 0.109884075820 0.069487 -0.103661 0.992182
0.570614635944 -1.239928483963 0.099765121937 -0.100542 -0.062133 0.992991
0.492274999619 -1.664302110672 0.045179639012 -0.242598 -0.109105 0.963972
0.413487166166 -1.816365599632 0.012986396439 0.037396 -0.225583 0.973506
0.457429945469 -1.715200662613 0.034606281668 0.027397 -0.217984 0.975568
0.416855722666 -1.858536005020 0.001483261585 0.045572 -0.355463 0.933579
0.324086755514 -1.892770051956 -0.005151189398 0.095680 -0.351727 0.931200
0.229081600904 -1.932903289795 -0.012196265161 0.049703 -0.302040 0.951999
0.063203662634 -1.984160542488 -0.020796518773 0.041836 -0.302991 0.952075
0.020489789546 -1.913379430771 0.002310534008 0.031195 -0.288238 0.957051
0.051053449512 -1.942315816879 -0.007387666963 0.031195 -0.288238 0.957051
0.151076659560 -2.010171413422 -0.034078963101 0.045820 -0.362634 0.930804
0.207071304321 -2.017293214798 -0.041216805577 0.100099 -0.385311 0.917342
0.269146800041 -2.031396150589 -0.055162776262 0.136036 -0.448204 0.883520
0.425398856401 -1.922346234322 -0.025269247591 -0.243673 -0.292123 0.924818
0.557877182961 -1.381313204765 0.084373533726 0.138152 -0.130816 0.981734
0.587961733341 -1.303599238396 0.091080375016 0.114229 -0.131062 0.984771
0.586750268936 -1.168149352074 0.105046696961 0.116352 -0.097548 0.988406
0.689208388329 -0.993477404118 0.112304732203 0.373731 -0.318816 0.871023
0.697503864765 -1.099234819412 0.095206081867 0.228138 -0.092011 0.969271
0.669405102730 -1.153261303902 0.095903158188 0.185316 -0.094499 0.978125
0.601649165154 -1.448305010796 0.071160964668 0.070596 -0.126146 0.989497
0.276141315699 -2.074037551880 -0.081162892282 0.189674 -0.547778 0.814839
0.078479632735 -2.121307849884 -0.081836611032 0.067672 -0.465419 0.882500
0.013688601553 -2.139647006989 -0.087400935590 0.059253 -0.475402 0.877771
-0.013221818954 -2.120172500610 -0.077156648040 -0.056506 -0.475478 0.877911
-0.137137621641 -2.102248430252 -0.076377511024 -0.064922 -0.465504 0.882662
-0.308070421219 -2.039229393005 -0.066278494895 -0.144878 -0.496096 0.856095
-0.480625987053 -2.027323007584 -0.095266804099 -0.286619 -0.690128 0.664509
-0.310182094574 -2.084377527237 -0.100584782660 -0.297770 -0.645437 0.703381
-0.139931276441 -2.142549514771 -0.103712789714 -0.135907 -0.631744 0.763170
-0.064919374883 -2.164176940918 -0.110882855952 -0.055937 -0.684157 0.727186
0.045716401190 -2.149927377701 -0.096670761704 0.079753 -0.636575 0.767080
0.167167082429 -2.154003620148 -0.117488950491 0.136164 -0.629944 0.764611
0.533407688141 -1.962458252907 -0.063433565199 0.219007 -0.534500 0.816300
0.599079906940 -1.881088137627 -0.036483876407 0.216927 -0.444327 0.869205
0.694105625153 -1.720194935799 -0.001905096229 0.343711 -0.328570 0.879719
0.688353836536 -1.644097685814 0.028142007068 0.326179 -0.323173 0.888350
0.709785699844 -1.452787995338 0.055480744690 0.205535 -0.112225 0.972194
0.706494569778 -1.335257530212 0.069743335247 0.211393 -0.112658 0.970887
0.735513448715 -1.255417108536 0.072273336351 0.207227 -0.090584 0.974090
0.751061439514 -1.135759711266 0.077694661915 0.351786 -0.073012 0.933229
0.624166965485 -1.457089304924 0.067822284997 0.105877 -0.127290 0.986198
0.618237972260 -1.613926768303 0.045260004699 0.102546 -0.150802 0.983231
0.574723839760 -1.711204409599 0.031060013920 0.131505 -0.274966 0.952418
0.633663594723 -1.800350904465 -0.010076193139 0.225555 -0.326121 0.918025
0.378726780415 -2.068399429321 -0.098712563515 0.162349 -0.653947 0.738915
0.397497624159 -1.152459859848 0.116428084671 0.050192 -0.099268 0.993794
0.375029057264 -1.281912803650 0.104470893741 0.047955 -0.101487 0.993680
0.252815902233 -1.198744297028 0.117760598660 0.036488 -0.102831 0.994029
0.195316001773 -1.233564615250 0.116802215576 0.045185 -0.087064 0.995177
0.031463041902 -1.198892951012 0.124783903360 0.027147 -0.087956 0.995754
0.120488926768 -1.334281325340 0.107244446874 0.009968 -0.131794 0.991227
0.021511510015 -1.302344918251 0.112519323826 0.009968 -0.131794 0.991227
0.342542678118 -1.508170008659 0.077310577035 0.037439 -0.132740 0.990444
0.218421265483 -1.397544145584 0.096826076508 0.037439 -0.132740 0.990444
0.343219369650 -1.476450920105 0.081347614527 0.044273 -0.126009 0.991041
0.340259283781 -1.491131544113 0.079604625702 0.044273 -0.126009 0.991041
0.401708096266 -1.450060963631 0.082354709506 0.039551 -0.127692 0.991025
0.454019874334 -1.453253626823 0.079767085612 0.046448 -0.123483 0.991259
0.073017522693 -1.407267689705 0.098186127841 0.021104 -0.125511 0.991868
0.043918073177 -1.507493019104 0.086208954453 0.021104 -0.125511 0.991868
0.134941697121 -1.564026594162 0.074543349445 0.019722 -0.184463 0.982642
0.170920968056 -1.591987133026 0.068566232920 0.019722 -0.184463 0.982642
0.047678187490 -1.631932020187 0.063457898796 0.017395 -0.186711 0.982261
0.139054432511 -1.683710694313 0.051953785121 0.017395 -0.186711 0.982261
-0.027321077883 -2.213031291962 -0.184072449803 -0.096031 -0.926499 0.363837
-0.838009357452 -0.167767852545 -0.538495540619 -0.295548 0.003679 0.955321
-0.827058315277 -0.611456394196 -0.526244819164 -0.916180 -0.003866 -0.400748
-0.855145037174 0.199340283871 -0.470254242420 -0.916180 -0.003866 -0.400748
-0.833605825901 -0.198641002178 -0.515473127365 -0.916180 -0.003866 -0.400748
-0.836391985416 -0.248551011086 -0.508590757847 -0.916180 -0.003866 -0.400748
-0.826063275337 -0.315142333508 -0.531540691853 -0.916180 -0.003866 -0.400748
-0.848296344280 0.237996220589 -0.486299574375 -0.916180 -0.003866 -0.400748
-0.836529850960 0.297218143940 -0.513774633408 -0.916180 -0.003866 -0.400748
-0.828457415104 0.739286780357 -0.537588357925 -0.335089 -0.016438 0.942043
-0.852722048759 0.545905649662 -0.479244023561 -0.915765 -0.003875 -0.401697
-0.840351760387 0.614047169685 -0.508086621761 -0.915765 -0.003875 -0.401697
-0.862278521061 0.860731720924 -0.528505384922 -0.973303 -0.003531 -0.229497
-0.819119095802 0.260259807110 -0.619690954685 -0.862651 -0.004025 -0.505784
-0.836730420589 0.392114192247 -0.590724408627 -0.864500 -0.004021 -0.502616
-0.823343098164 -0.250944525003 -0.607834994793 -0.864500 -0.004021 -0.502616
-0.822714328766 -0.124221362174 -0.610054194927 -0.864500 -0.004021 -0.502616
-0.830571055412 -0.469003170729 -0.593463182449 -0.864500 -0.004021 -0.502616
-0.832271337509 -0.738202035427 -0.588116109371 -0.864500 -0.004021 -0.502616
-0.837884664536 -0.543757438660 -0.579218864441 -0.903359 -0.003911 -0.428867
-0.838131725788 0.151232451200 -0.585427761078 -0.903359 -0.003911 -0.428867
-0.841182827950 0.564899504185 -0.583115816116 -0.904368 -0.003915 -0.426736
-0.845710754395 0.447922974825 -0.568139135838 -0.695945 0.004151 0.718083
-0.841128647327 0.346893608570 -0.563257634640 -0.693130 0.004150 0.720800
-0.837798058987 -0.774482607841 -0.553711771965 -0.999780 -0.000999 0.020974
-0.838751256466 -0.046248752624 -0.550248026848 -0.999443 -0.001011 0.033348
-0.839324712753 0.471717357635 -0.554271042347 -0.997236 -0.001046 0.074296
-0.854481637478 0.836941242218 -0.478421181440 -0.915765 -0.003875 -0.401697
-0.869674921036 1.120208621025 -0.187841057777 -0.999999 -0.000978 0.000978
-0.870792031288 1.360468149185 -0.118741199374 -0.999999 -0.000978 -0.000978
-0.870798885822 1.364506483078 -0.133518174291 -0.999999 -0.000978 0.000978
-0.843692839146 1.674061059952 -0.324834197760 -0.993063 0.057487 -0.102575
-0.678327739239 2.079656362534 -0.400373578072 -0.247722 0.347397 0.904405
-0.600641131401 2.115293502808 -0.463205695152 0.608906 0.592039 -0.527943
-0.647906661034 2.087395191193 -0.493002384901 -0.375230 0.851662 -0.365888
-0.769469797611 1.852312684059 -0.542567551136 -0.725443 0.243912 -0.643614
-0.761548519135 1.838541150093 -0.556614935398 -0.748828 0.126541 -0.650572
-0.777594268322 1.733597040176 -0.559057474136 -0.714730 0.142946 -0.684636
-0.793641090393 1.665302276611 -0.550778329372 -0.751758 0.044054 -0.657966
-0.814211785793 1.750984907150 -0.489300847054 -0.919789 0.182824 -0.347224
-0.774879038334 1.907352209091 -0.504275441170 -0.935570 0.253880 -0.245464
-0.619271576405 2.122695207596 -0.422188133001 -0.429169 0.883239 -0.188952
-0.704439640045 2.065943717957 -0.443030357361 -0.583833 0.798850 -0.144838
-0.772070348263 1.957343101501 -0.450253069401 -0.880819 0.433792 -0.189692
-0.784343481064 1.915424108505 -0.459420770407 -0.945555 0.264099 -0.190206
-0.805558562279 1.844087362289 -0.453963220119 -0.942969 0.268436 -0.196853
-0.812733650208 1.832463741302 -0.430560618639 -0.962266 0.182975 -0.201405
-0.829142272472 1.695721149445 -0.463623046875 -0.976854 0.041951 -0.209754
-0.634211540222 2.106869697571 -0.377766162157 -0.521609 0.853175 -0.004043
-0.642551600933 2.102621793747 -0.229261726141 -0.522804 0.852426 -0.006755
-0.553120434284 2.152032852173 -0.320174694061 -0.328945 0.944309 -0.008755
-0.545272827148 2.155011177063 -0.291484504938 -0.328945 0.944309 -0.008755
-0.454061120749 2.186788320541 -0.272402346134 -0.328175 0.944596 -0.006239
-0.330336779356 2.214559555054 -0.267044126987 -0.219035 0.975699 -0.005857
-0.353512287140 2.209727764130 -0.223386213183 -0.220037 0.975457 -0.008237
-0.284132212400 2.222757816315 -0.219591066241 -0.121211 0.992621 -0.003276
-0.136484295130 2.220384836197 -0.198957636952 -0.022791 0.467889 0.883493
-0.657328605652 2.092959165573 -0.219241335988 -0.575015 0.818133 -0.004097
-0.719905555248 2.039620399475 -0.258604228497 -0.816848 0.576839 -0.004091
-0.754622876644 1.982890129089 -0.334577530622 -0.892578 0.450890 -0.001315
-0.758192062378 1.976020574570 -0.289589732885 -0.892578 0.450890 -0.001315
-0.775740206242 1.938959360123 -0.369962692261 -0.962562 0.271059 -0.001205
-0.801411509514 1.848048090935 -0.334605634212 -0.962384 0.271689 -0.001208
-0.815445661545 1.787985324860 -0.272133558989 -0.975327 0.220763 -0.001168
-0.817392051220 1.776154398918 -0.377201855183 -0.979792 0.194526 -0.046543
-0.843666672707 1.670249223709 -0.264643102884 -0.971033 0.238268 0.017960
-0.868275284767 1.455558180809 -0.117152802646 -0.990357 0.067864 0.120775
-0.869184076786 1.412817358971 -0.114334776998 -0.989441 0.030601 0.141672
-0.867855846882 1.245817065239 -0.100213594735 -0.990905 -0.028119 0.131596
-0.858538031578 1.214593648911 -0.036669962108 -0.991514 -0.021191 0.128261
-0.864383041859 1.056544184685 -0.142218425870 -0.994740 -0.045366 0.091839
-0.861573278904 1.010895133018 -0.138806313276 -0.995733 -0.058314 0.071517
-0.867011368275 0.994363903999 -0.229645237327 -0.996041 -0.075441 0.047014
-0.845045149326 1.316522836685 0.022409670055 -0.955534 -0.003670 0.294858
-0.838172912598 1.675837755203 -0.020160339773 -0.986174 0.165677 0.003381
-0.818968474865 1.755212903023 -0.019571378827 -0.956644 0.291258 -0.001219
-0.797297418118 1.834112048149 -0.115280941129 -0.927860 0.372926 0.001273
-0.771551072598 1.904901623726 -0.168393015862 -0.930416 0.359690 0.070345
-0.658343136311 2.078315496445 -0.200543805957 -0.351372 0.495771 0.794197
-0.565800368786 2.144882917404 -0.206975907087 -0.170894 0.500795 0.848528
-0.510474443436 2.099377155304 -0.184064075351 -0.065009 0.281707 0.957295
-0.478616356850 2.119504690170 -0.186502546072 -0.078239 0.219814 0.972399
-0.475586354733 2.117277145386 -0.188285112381 0.587434 0.004108 0.809262
-0.487166821957 2.074941396713 -0.177901148796 0.747468 0.006934 0.664262
-0.559128165245 2.073359489441 -0.179668188095 -0.071047 0.376684 0.923613
-0.661858499050 2.056211233139 -0.190562590957 -0.246022 0.366823 0.897170
0.558426141739 2.032468080521 -0.144745796919 0.334978 0.942205 -0.006273
0.622972309589 2.009683132172 -0.111356578767 0.337203 0.941411 -0.006268
0.712156832218 1.960412383080 -0.116673149168 0.553126 0.833087 -0.004077
0.737109959126 1.937326312065 -0.036661952734 0.735490 0.677534 0.001380
0.793448150158 1.802792668343 0.004086484201 0.918387 0.286906 0.272489
0.501106858253 2.039008140564 0.141443088651 0.265352 0.964151 0.001201
0.338682711124 2.079986095428 0.087685950100 0.249582 0.968185 0.018086
0.387199759483 2.075110673904 -0.028307819739 0.179787 0.983673 -0.008016
0.424137622118 2.067926406860 -0.142049327493 0.175986 0.984387 -0.003406
0.469420820475 2.058078050613 -0.041123572737 0.272317 0.962188 -0.006051
0.214123338461 2.100186824799 -0.140030518174 0.118801 0.992913 -0.003270
0.211552411318 2.100867033005 -0.084351688623 0.124164 0.992212 -0.009889
0.063388966024 2.109153032303 -0.126563891768 0.033619 0.999393 -0.009169
0.024341069162 2.110777139664 -0.083082281053 0.031456 0.999480 -0.007103
-0.163744360209 2.106332302094 -0.037219963968 -0.035582 0.999341 -0.007116
-0.128770053387 2.106991052628 -0.107094883919 -0.037765 0.999244 -0.009186
-0.252427816391 2.096346855164 -0.052913624793 -0.126603 0.991904 -0.009908
-0.276738673449 2.092875480652 -0.131671145558 -0.121211 0.992621 -0.003276
-0.384550333023 2.075319528580 -0.133452177048 -0.178584 0.983919 -0.003412
-0.554090797901 2.034775257111 -0.133207142353 -0.255789 0.966714 -0.006004
-0.531361758709 2.041426658630 -0.035182580352 -0.250123 0.968178 -0.008377
-0.735639572144 1.944993615150 -0.147830411792 -0.727449 0.684741 0.044131
-0.742018103600 1.938672184944 -0.051794119179 -0.738126 0.674661 0.001380
-0.715848803520 1.961468935013 -0.074718281627 -0.556264 0.830996 -0.004080
-0.704274952412 1.968954563141 -0.123233005404 -0.559398 0.828889 -0.004083
-0.680191576481 1.983851552010 -0.118979826570 -0.464597 0.885513 -0.003971
-0.247256368399 2.097358226776 -0.013151849620 -0.126605 0.991923 -0.007706
-0.193078845739 2.104232549667 -0.020844869316 -0.126331 0.991973 -0.005493
-0.085952043533 2.109445571899 0.019041409716 -0.035510 0.999356 -0.005073
0.068307712674 2.109930992126 0.005333562382 0.031392 0.999494 -0.005063
0.160578414798 2.106945514679 0.003020743607 0.031456 0.999480 -0.007103
0.282784909010 2.092596530914 -0.019863553345 0.123896 0.992266 -0.007675
-0.324236184359 2.086258172989 0.029313560575 -0.238684 0.968481 0.071230
-0.278114318848 2.092734336853 0.042598314583 -0.122602 0.988987 0.082902
-0.270244359970 2.086774349213 0.125644877553 -0.127222 0.988599 0.080535
-0.058411862701 2.108751773834 0.048547200859 -0.035773 0.996222 0.079134
-0.156664475799 2.099629640579 0.118878237903 -0.027254 0.995324 0.092664
0.276186347008 2.088134288788 0.196422040462 0.115221 0.991356 -0.062744
0.075073502958 2.102139472961 0.186371609569 0.026615 0.997534 -0.064941
0.110891655087 2.099765300751 0.164253756404 0.026562 0.997680 -0.062687
-0.048300854862 2.100035429001 0.143941670656 -0.027469 0.994386 -0.102186
-0.295140177011 2.083023548126 0.131376966834 -0.125700 0.985249 0.116123
-0.232211202383 2.092900276184 0.187623605132 -0.117738 0.991053 -0.062870
-0.160585701466 2.097663879395 0.156695306301 -0.030874 0.997548 -0.062812
-0.066896229982 2.101622104645 0.174455434084 -0.031001 0.997390 -0.065210
-0.356089770794 2.074440956116 0.188038870692 -0.197981 0.977758 -0.069233
-0.402407526970 2.065265417099 0.188521996140 -0.192422 0.979052 -0.066561
-0.544322669506 2.027010202408 0.173615559936 -0.268647 0.962957 0.023307
-0.432517617941 2.055101394653 0.207393497229 -0.083045 0.127492 0.988357
-0.342371046543 2.018076419830 0.214957669377 -0.046825 0.070782 0.996392
-0.306397706270 1.916964411736 0.223942801356 -0.040036 0.072497 0.996565
-0.299603253603 2.011872529984 0.217372030020 -0.040036 0.072497 0.996565
-0.184973716736 1.886565804482 0.231000214815 -0.037875 0.072503 0.996649
-0.218551799655 2.068799972534 0.216376513243 -0.037875 0.072503 0.996649
-0.080892801285 1.797522306442 0.239072114229 -0.013748 0.072969 0.997239
-0.104803770781 1.872595071793 0.233250737190 -0.013748 0.072969 0.997239
-0.026966214180 1.811923623085 0.238752588630 -0.013748 0.072969 0.997239
-0.009819669649 1.990331172943 0.225749656558 -0.011633 0.072971 0.997266
-0.013523872942 2.032672405243 0.222567722201 -0.011633 0.072971 0.997266
-0.087902024388 1.969841480255 0.226327359676 -0.011633 0.072971 0.997266
0.008516624570 1.973963379860 0.226878374815 0.011633 0.072971 0.997266
0.041924934834 2.039932489395 0.221593663096 0.011633 0.072971 0.997266
0.166633754969 1.957934975624 0.226088061929 0.013748 0.072969 0.997239
0.023716671392 1.818900346756 0.238183766603 0.013748 0.072969 0.997239
0.079178899527 1.910672545433 0.230719700456 0.013748 0.072969 0.997239
0.180145412683 1.938605666161 0.227101355791 0.037875 0.072503 0.996649
0.197384595871 1.935537695885 0.226664751768 0.037875 0.072503 0.996649
0.214791417122 1.826136469841 0.233963519335 0.040036 0.072497 0.996565
0.194672584534 1.796335697174 0.236934795976 0.040036 0.072497 0.996565
0.329975068569 2.057380437851 0.212375581264 0.046818 0.072948 0.996236
0.325518131256 1.765602707863 0.233667716384 0.049104 0.070928 0.996272
0.351903051138 1.905093431473 0.222324505448 0.049104 0.070928 0.996272
0.387133300304 2.019372701645 0.212325334549 0.051393 0.071075 0.996146
0.431155771017 1.883861780167 0.218821555376 0.105469 0.064643 0.992319
0.456692099571 1.874924063683 0.216733470559 0.088532 0.063877 0.994023
0.508901655674 1.931974530220 0.208396300673 0.088532 0.063877 0.994023
0.534220993519 1.921864032745 0.206993728876 0.040437 0.084153 0.995632
0.579725265503 1.990139365196 0.196921214461 0.234398 0.078968 0.968928
0.622851431370 1.768190145493 0.203799232841 0.248083 0.074299 0.965885
0.709305703640 1.729390621185 0.164481505752 0.464203 0.073441 0.882679
0.710040628910 1.890716314316 0.152121737599 0.525391 0.042974 0.849775
0.650354146957 1.921505928040 0.182698875666 0.314568 0.074400 0.946315
0.714519202709 1.697866797447 0.163230717182 0.475421 0.022896 0.879461
0.589076161385 1.270557880402 0.400470793247 0.498092 0.314667 0.808015
0.570632159710 1.234002113342 0.425038933754 0.498938 0.286224 0.818008
0.373281627893 1.078051924706 0.518537878990 0.029197 0.185691 0.982174
0.236036702991 1.054493904114 0.526937961578 0.026950 0.193340 0.980762
0.185124382377 1.081090927124 0.522691786289 0.005763 0.194783 0.980829
0.041629198939 1.085389733315 0.522892475128 0.012886 0.207351 0.978182
-0.009981641546 1.042946815491 0.532405197620 -0.012886 0.207351 0.978182
-0.015657484531 1.110170006752 0.518047928810 -0.008086 0.195221 0.980726
-0.330331414938 1.074309706688 0.520453751087 -0.027013 0.193785 0.980672
-0.227435842156 1.027889490128 0.532406210899 -0.029264 0.186117 0.982092
-0.602652788162 1.291561126709 0.386986732483 -0.498586 0.311814 0.808817
-0.597673654556 1.490387558937 0.315206944942 -0.450224 0.321589 0.832994
-0.615611672401 1.617116689682 0.254331618547 -0.313064 0.383312 0.868943
-0.351446181536 1.895339488983 0.223367840052 -0.049104 0.070928 0.996272
-0.620013415813 1.984580874443 0.189013093710 -0.511355 0.619365 0.595738
-0.706948459148 1.917421579361 0.146822094917 -0.778374 0.427375 0.459875
-0.793790161610 1.759345054626 0.069650650024 -0.889571 0.250981 0.381669
-0.810357391834 1.750715374947 0.026703802869 -0.922584 0.282658 0.262571
-0.796106159687 1.798763632774 0.024221345782 -0.923547 0.287803 0.253438
-0.848919034004 1.548787593842 0.005718410015 -0.958844 0.038754 0.281277
-0.841239690781 1.475072979927 0.034744448960 -0.950127 0.008694 0.311741
-0.812762796879 1.478278398514 0.096522137523 -0.883337 -0.001320 0.468736
-0.814005434513 1.308111429214 0.095243923366 -0.883845 0.003975 0.467762
-0.814351797104 1.204910278320 0.094821780920 -0.896771 -0.003939 0.442477
-0.796931803226 1.272268891335 0.118716806173 -0.658597 -0.004142 0.752485
-0.753665804863 1.350418090820 0.149157181382 -0.556739 0.026248 0.830273
-0.772560596466 1.438010215759 0.134942024946 -0.558767 -0.009563 0.829270
-0.722183465958 1.651952266693 0.165008097887 -0.451719 0.039104 0.891303
-0.720533609390 1.747088551521 0.161000952125 -0.464296 0.070684 0.882855
-0.671695709229 1.759783744812 0.186772331595 -0.407305 0.046740 0.912096
-0.632303655148 1.919590950012 0.191483095288 -0.316198 0.071567 0.945990
-0.630610823631 1.783616781235 0.202469617128 -0.248083 0.074299 0.965885
-0.545135498047 1.861813545227 0.211828619242 -0.040525 0.084337 0.995613
-0.492028832436 1.958027243614 0.208887457848 -0.088532 0.063877 0.994023
-0.474193453789 2.011050701141 0.207098796964 -0.088532 0.063877 0.994023
-0.440615028143 1.903071284294 0.217363357544 -0.105469 0.064643 0.992319
-0.704203248024 1.614863753319 0.175729751587 -0.479800 0.053617 0.875738
-0.752143561840 1.245339393616 0.158818513155 -0.891952 0.070092 0.446663
-0.716222941875 1.404066205025 0.199223935604 -0.871323 0.100592 0.480290
-0.587402701378 0.986304759979 0.490428686142 -0.805459 0.100500 0.584067
-0.575657367706 0.770001530647 0.530402362347 -0.709022 0.082986 0.700287
-0.568463385105 0.721927046776 0.539666116238 -0.597274 0.061295 0.799691
-0.554355263710 0.710254848003 0.549329757690 -0.327605 0.091517 0.940372
-0.556365549564 0.857721269131 0.532332897186 -0.316071 0.164246 0.934410
-0.527398407459 0.968152403831 0.521122634411 -0.246527 0.179170 0.952430
-0.424968779087 1.013023018837 0.530513167381 -0.154703 0.185388 0.970411
-0.438960850239 0.850192129612 0.559092044830 -0.149035 0.182153 0.971910
-0.503949403763 0.767940461636 0.558954596519 -0.150162 0.097305 0.983861
-0.523073732853 0.784631729126 0.552006065845 -0.295038 0.095723 0.950678
-0.511350750923 0.489608705044 0.578478276730 -0.310502 0.047278 0.949396
-0.579197108746 0.249620988965 0.555479824543 -0.565310 -0.049096 0.823416
-0.589754104614 0.047650016844 0.536161541939 -0.602676 -0.109977 0.790371
-0.617746949196 -0.298880785704 0.456784516573 -0.722700 -0.165841 0.670970
-0.731360197067 -0.805144846439 0.131266281009 -0.880414 -0.094079 0.464780
-0.785177469254 -0.945601046085 0.058570601046 -0.650101 -0.049789 0.758215
-0.829602301121 -1.056125402451 -0.033959966153 -0.940014 -0.008809 0.341022
-0.833544671535 -0.865062654018 -0.042797245085 -0.981268 -0.005765 0.192564
-0.842322289944 -0.917763233185 -0.097202777863 -0.987776 -0.003364 0.155847
-0.849469780922 -0.844249546528 -0.473471850157 -0.913934 -0.009075 -0.405761
-0.853189826012 -0.928554534912 -0.454454690218 -0.998507 -0.001030 -0.054614
-0.855819284916 -0.960491836071 -0.348505407572 -0.999999 -0.000978 -0.000978
-0.855477154255 -1.161161303520 -0.144402414560 -0.999999 -0.000978 0.000978
-0.855539262295 -1.124731898308 -0.130951568484 -0.999999 -0.000978 0.000978
-0.855254888535 -1.291532993317 -0.097286060452 -0.999999 -0.000978 0.000978
-0.856800377369 -1.569195389748 -0.238357216120 -0.998472 -0.034647 0.043047
-0.855789780617 -1.598755478859 -0.274128645658 -0.996311 -0.085761 -0.003176
-0.852914571762 -1.630621552467 -0.317505955696 -0.986652 -0.162361 0.012489
-0.822134792805 -1.770671844482 -0.461518615484 -0.927109 -0.356370 -0.116059
-0.803761005402 -1.782482028008 -0.577137470245 -0.932455 -0.345103 -0.106914
-0.759381055832 -1.907610893250 -0.519066810608 -0.916386 -0.386064 -0.105790
-0.563577711582 -2.086290121078 -0.537431597710 -0.532905 -0.836587 -0.127021
-0.551267802715 -2.085607767105 -0.582704603672 -0.417098 -0.895828 -0.153366
-0.459194958210 -2.129586219788 -0.574186921120 -0.411124 -0.895819 -0.168777
-0.519994080067 -2.100534200668 -0.443020701408 -0.213767 -0.452946 0.865531
-0.464303940535 -2.127403259277 -0.530276894569 -0.218222 -0.520377 0.825583
-0.493954122066 -2.094876050949 -0.517482221127 -0.213996 -0.561933 0.799022
-0.582826733589 -2.056181907654 -0.518478453159 -0.295598 -0.529547 0.795111
-0.577346622944 -2.051190614700 -0.513503909111 -0.290286 -0.497409 0.817508
-0.689698278904 -1.993853569031 -0.524780094624 -0.357880 -0.459677 0.812785
-0.700257360935 -1.993658423424 -0.315982520580 -0.676639 -0.735722 -0.029541
-0.685771882534 -2.004685640335 -0.371351897717 -0.670198 -0.741044 -0.041090
-0.650693774223 -2.018977403641 -0.388481885195 -0.398775 -0.361243 -0.842901
-0.751809716225 -1.914862036705 -0.286398470402 -0.840140 -0.538984 0.060513
-0.790121376514 -1.825835704803 -0.373782068491 -0.916446 -0.398052 -0.040995
-0.767336070538 -1.879309654236 -0.362813293934 -0.915489 -0.399945 -0.043848
-0.803042471409 -1.802549719810 -0.448534458876 -0.776536 -0.293781 0.557391
-0.807421147823 -1.779011130333 -0.424723505974 -0.924837 -0.377565 0.046045
-0.809985458851 -1.776649355888 -0.356392145157 -0.934019 -0.354641 -0.042869
-0.784250199795 -1.828516125679 -0.222388252616 -0.900817 -0.396359 0.177281
-0.819157779217 -1.744731187820 -0.281524389982 -0.951638 -0.298275 0.073600
-0.845654666424 -1.659989595413 -0.282418966293 -0.957033 -0.275099 0.091700
-0.804174304008 -1.692447304726 -0.126436293125 -0.943267 -0.233400 0.236162
-0.793976604939 -1.761913537979 -0.161656245589 -0.936322 -0.264521 0.230931
-0.838150918484 -1.531776309013 -0.119440108538 -0.902900 -0.134234 0.408354
-0.844820499420 -1.477683305740 -0.112752772868 -0.881476 -0.202282 0.426711
-0.850030720234 -1.289410591125 -0.082846917212 -0.900793 0.017145 0.433910
-0.839267194271 -1.161980032921 -0.064929336309 -0.940844 0.063941 0.332753
-0.837210357189 -1.125930309296 -0.062925353646 -0.940317 0.029425 0.339026
-0.812941610813 -1.422727227211 -0.032653376460 -0.864320 -0.128422 0.486270
-0.802123665810 -1.574132800102 -0.049952603877 -0.920499 -0.143436 0.363465
-0.801225841045 -1.636766791344 -0.073308013380 -0.952995 -0.170226 0.250647
-0.794296979904 -1.583723664284 -0.038202203810 -0.870049 -0.175187 0.460787
-0.760567367077 -1.554556965828 0.006582595408 -0.631590 -0.159033 0.758817
-0.761441767216 -1.169283866882 0.064722403884 -0.651281 -0.073648 0.755255
-0.737035334110 -0.986106097698 0.092572994530 -0.395315 -0.051910 0.917078
-0.716821432114 -0.913755357265 0.113856546581 -0.679926 -0.258340 0.686266
-0.685867547989 -0.697235643864 0.238491699100 -0.531571 -0.369011 0.762406
-0.610327005386 -0.355908662081 0.441340625286 -0.348227 -0.329980 0.877412
-0.551405310631 -0.215730547905 0.511927783489 -0.327469 -0.186924 0.926188
-0.539901137352 -0.054740961641 0.549089550972 -0.364561 -0.122437 0.923095
-0.529075920582 0.100930005312 0.570431411266 -0.335170 -0.050470 0.940805
-0.533103346825 0.385477691889 0.575506031513 -0.318445 0.013737 0.947842
-0.506279647350 0.330746352673 0.583891332150 -0.134557 0.012232 0.990830
-0.420617997646 0.420835435390 0.594268202782 -0.135260 0.039782 0.990011
-0.469100028276 0.577193379402 0.580841422081 -0.154238 0.047547 0.986889
-0.441545575857 0.745466232300 0.570711910725 -0.153196 0.100120 0.983111
-0.406594991684 0.877107858658 0.553711473942 0.407467 0.171338 0.897003
-0.366905748844 0.835095047951 0.560723364353 -0.045495 0.162148 0.985717
-0.313380569220 0.850123465061 0.560746967793 -0.045495 0.162148 0.985717
-0.216431275010 1.003536224365 0.537225484848 -0.029100 0.178093 0.983583
-0.224477663636 0.867752969265 0.561718761921 -0.029100 0.178093 0.983583
-0.185476124287 0.960887432098 0.545599818230 -0.014959 0.178359 0.983852
-0.071257859468 0.972245931625 0.545161068439 -0.014959 0.178359 0.983852
-0.080430284142 0.928717851639 0.553032875061 -0.017324 0.183633 0.982842
-0.020222412422 0.881532669067 0.562858283520 -0.017324 0.183633 0.982842
-0.066694319248 0.807086825371 0.573472023010 -0.016276 0.098739 0.994980
-0.027290862054 0.829985976219 0.571869730949 -0.016276 0.098739 0.994980
-0.254959076643 0.780039966106 0.571476697922 -0.045639 0.099069 0.994033
-0.384879201651 0.818271040916 0.561603605747 -0.045639 0.099069 0.994033
-0.292950004339 0.675590217113 0.580096244812 -0.047860 0.099059 0.993930
-0.382794916630 0.700277030468 0.573387205601 -0.047860 0.099059 0.993930
-0.227258548141 0.550263285637 0.590851485729 -0.047629 0.039162 0.998097
-0.263130754232 0.589531123638 0.587653040886 -0.047629 0.039162 0.998097
-0.351469069719 0.466491639614 0.589186906815 -0.037048 0.047633 0.998178
-0.397692739964 0.571815133095 0.582478463650 -0.037048 0.047633 0.998178
-0.442448884249 0.355548113585 0.592222392559 -0.126056 0.005481 0.992008
-0.492152869701 0.218661755323 0.584189355373 -0.123078 -0.063265 0.990378
-0.449101269245 0.177708283067 0.587161839008 -0.154238 -0.047547 0.986889
-0.497831642628 0.040591299534 0.571668326855 -0.151880 -0.134593 0.979192
-0.491555869579 -0.106177069247 0.552128076553 -0.144532 -0.139591 0.979604
-0.493437767029 -0.155502796173 0.540308952332 -0.140229 -0.239831 0.960634
-0.465301781893 -0.179323256016 0.538712859154 -0.164020 -0.219130 0.961811
-0.362828731537 0.064355239272 0.582945883274 -0.037048 -0.047633 0.998178
-0.349651873112 0.109833158553 0.585582971573 -0.037048 -0.047633 0.998178
-0.320286810398 0.237768054008 0.592709898949 -0.037048 -0.047633 0.998178
-0.223684281111 0.105491861701 0.590136826038 -0.037048 -0.047633 0.998178
-0.094189241529 0.258506715298 0.599534392357 -0.013456 -0.046577 0.998824
-0.186532407999 0.228477001190 0.596871018410 -0.013456 -0.046577 0.998824
-0.090072914958 0.303090482950 0.599349737167 -0.014953 0.006978 0.999864
-0.159423768520 0.290522903204 0.598447918892 -0.014953 0.006978 0.999864
-0.186517491937 0.316673338413 0.597904920578 -0.014953 0.006978 0.999864
-0.187307178974 0.306257277727 0.597957730293 -0.014953 0.006978 0.999864
-0.020876010880 0.438991755247 0.598830759525 -0.013350 0.037996 0.999189
-0.028857015073 0.478047549725 0.597241818905 -0.013350 0.037996 0.999189
-0.127102136612 0.550798475742 0.593040525913 -0.015435 0.038073 0.999156
-0.100405722857 0.583971619606 0.592166543007 -0.015435 0.038073 0.999156
-0.123431943357 0.695363581181 0.583629965782 -0.016276 0.098739 0.994980
-0.072852551937 0.634309053421 0.590513229370 -0.016276 0.098739 0.994980
0.087193764746 0.681906700134 0.585523545742 0.016241 0.098526 0.995002
0.043063160032 0.785425305367 0.575980007648 0.016241 0.098526 0.995002
0.119215860963 0.792266488075 0.574002146721 0.016276 0.098739 0.994980
0.173968791962 0.773081004620 0.574986398220 0.016276 0.098739 0.994980
0.090818494558 0.902913987637 0.557619392872 0.017324 0.183633 0.982842
0.009883768857 0.946783542633 0.550832211971 0.017324 0.183633 0.982842
0.187450096011 0.979312896729 0.542258441448 0.012624 0.180184 0.983552
0.136954441667 0.937626540661 0.550546526909 0.012624 0.180184 0.983552
0.219914078712 0.960147082806 0.545006513596 0.029100 0.178093 0.983583
0.217119544744 0.922776639462 0.551903188229 0.029100 0.178093 0.983583
0.306699186563 0.908311426640 0.551406860352 0.045495 0.162148 0.985717
0.223234534264 0.850034296513 0.564882099628 0.045495 0.162148 0.985717
0.261585414410 0.769254922867 0.572127282619 0.045639 0.099069 0.994033
0.278490424156 0.757687747478 0.572501480579 0.045639 0.099069 0.994033
0.300330609083 0.682673096657 0.578949928284 0.047860 0.099059 0.993930
0.323078602552 0.686744809151 0.577473998070 0.047860 0.099059 0.993930
0.269262582064 0.584236741066 0.587427020073 0.047629 0.039162 0.998097
0.294909954071 0.553302943707 0.587427198887 0.047629 0.039162 0.998097
0.197718203068 0.454116404057 0.595672547817 0.015435 0.038073 0.999156
0.086298450828 0.600089251995 0.591711759567 0.015435 0.038073 0.999156
0.024811953306 0.476972192526 0.597294449806 0.013350 0.037996 0.999189
0.028648503125 0.527594149113 0.595326304436 0.013350 0.037996 0.999189
