0.282330989838 -0.860114753246 0.277239948511 0.000978 0.000978 0.999999
0.335615932941 -0.950887858868 0.275085121393 0.011294 -0.042098 0.999050
0.425752490759 -0.931621074677 0.273393154144 0.083628 -0.033668 0.995928
0.539311587811 -0.934594154358 0.267353951931 0.049892 -0.092022 0.994506
0.461164891720 -0.923954308033 0.272226065397 0.049892 -0.092022 0.994506
0.627267539501 -0.892633199692 0.267038851976 0.049492 -0.141570 0.988690
0.721584618092 -0.827080070972 0.260840862989 0.185879 -0.046174 0.981487
0.753127038479 -0.813086092472 0.128699496388 0.999856 -0.016913 0.000995
0.753442883492 -0.797335028648 0.040554292500 0.999856 -0.016913 0.000995
0.752651393414 -0.843924760818 -0.046365983784 0.999821 -0.018902 0.000995
0.743452131748 -0.773968458176 -0.072301238775 0.209090 0.198436 -0.957551
0.527625560760 -0.739350616932 -0.067641526461 0.005929 0.238344 -0.971163
0.451374620199 -0.711593270302 -0.060884762555 0.006102 0.286783 -0.957976
0.556514322758 -0.680733561516 -0.050598457456 0.003906 0.425731 -0.904841
0.452687799931 -0.664628684521 -0.043333366513 -0.001292 0.412244 -0.911072
0.334109395742 -0.672887504101 -0.047143921256 0.001295 0.413217 -0.910632
0.269815713167 -0.640049219131 -0.024754025042 0.001381 0.697373 -0.716707
0.499499678612 -0.654362082481 -0.038027234375 0.004151 0.701544 -0.712614
0.754103124142 -0.739800691605 -0.037469521165 0.999999 -0.000978 -0.000978
0.588864028454 -0.861598849297 0.272114485502 0.079586 -0.109575 0.990787
0.567624688148 -0.855721473694 0.273994326591 0.050706 -0.109300 0.992715
0.451776713133 -0.848987400532 0.276589691639 0.004984 -0.016947 0.999844
0.275357007980 -1.021621584892 0.274781256914 0.033891 -0.017459 0.999273
0.065491899848 -0.946974337101 0.277455002069 0.002991 -0.016947 0.999852
0.192993864417 -0.926279723644 0.277407824993 0.002991 -0.016947 0.999852
0.033142074943 -1.061740994453 0.276987016201 0.010923 -0.004965 0.999928
0.056899584830 -0.993097186089 0.277078121901 0.010923 -0.004965 0.999928
0.098108664155 -1.079210281372 0.276169031858 0.010923 -0.004965 0.999928
-0.091338917613 -1.005998969078 0.276670962572 -0.010923 -0.004965 0.999928
-0.005344902631 -1.030062913895 0.277510821819 -0.010923 -0.004965 0.999928
-0.047870848328 -1.059275388718 0.276883333921 -0.010923 -0.004965 0.999928
-0.195764869452 -1.042100310326 0.275437057018 -0.002991 -0.016947 0.999852
-0.168163493276 -1.033296346664 0.275674104691 -0.002991 -0.016947 0.999852
-0.308521181345 -1.083593368530 0.272705644369 -0.033891 -0.017459 0.999273
-0.412032365799 -0.960142552853 0.273809224367 -0.011294 -0.042098 0.999050
-0.499925732613 -1.038503766060 0.263872176409 -0.083628 -0.033668 0.995928
-0.581793904305 -0.904292106628 0.268047839403 -0.049892 -0.092022 0.994506
-0.597247302532 -0.936113119125 0.264163732529 -0.127246 -0.078215 0.988783
-0.041679926217 -0.592666149139 0.033043760806 0.001357 0.826370 -0.563126
-0.418864071369 -0.604702949524 0.014954838902 0.001360 0.825507 -0.564391
-0.657820641994 -0.568670094013 0.097198680043 0.001063 0.995910 0.090344
0.052008949220 0.177067697048 -0.243703037500 0.000983 0.999987 0.004916
-0.088313117623 -0.337639927864 -0.202285364270 -0.640856 -0.004135 0.767650
-0.029272761196 -0.371275991201 -0.190048530698 -0.000981 -0.004907 0.999987
-0.067093141377 -0.251098692417 -0.189432322979 -0.000981 -0.004907 0.999987
-0.026013519615 -0.305299669504 -0.124038837850 -0.112534 -0.565594 0.816969
0.493612676859 -0.435683339834 0.038006924093 0.779454 0.460512 -0.424713
0.422841072083 -0.506887555122 0.318678736687 -0.528553 -0.198397 -0.825391
0.236598610878 -0.447836458683 0.068776585162 0.782901 0.248466 0.570377
0.326230853796 -0.440061867237 0.014965841547 0.187791 0.169659 0.967445
0.330583006144 -0.453831166029 -0.001717831008 0.077065 -0.977381 0.196944
0.220480844378 -0.435315489769 0.058400698006 -0.336703 0.940976 -0.034566
0.426787048578 -0.493335187435 0.188011944294 0.181045 -0.969426 -0.165637
0.288253009319 -0.474471628666 0.117067739367 -0.535256 -0.732889 -0.419970
0.307609915733 -0.443616896868 0.153000146151 -0.056272 0.980561 0.187971
0.285114437342 -0.489376544952 0.183460861444 -0.578652 -0.813509 -0.058007
0.323921561241 -0.474670976400 0.229967147112 -0.298053 -0.200101 0.933340
0.316251248121 -0.440707415342 0.084275066853 0.469534 0.767288 -0.436814
0.290667384863 -0.439069330692 0.059592828155 0.472079 0.766108 -0.436142
0.478733837605 -0.469754964113 0.199831604958 0.048320 0.498382 0.865610
0.318254619837 -0.518710076809 0.179606854916 -0.867668 -0.001333 0.497143
0.320919275284 -0.477206259966 0.184352338314 -0.867668 -0.001333 0.497143
0.318565517664 -0.476340323687 0.129165396094 -0.868154 0.004013 -0.496279
0.367388367653 -0.472428858280 0.112012989819 0.200115 0.005784 -0.979755
0.347784519196 -0.528336405754 0.113044768572 -0.200115 0.005784 -0.979755
0.380557030439 -0.607284247875 0.167077988386 -0.000983 -0.999987 -0.004916
0.672101855278 -1.363950490952 -0.623976528645 0.001091 0.125512 0.992091
0.765748441219 -1.346812367439 -0.626164376736 0.001091 0.125512 0.992091
0.892835259438 -1.455595970154 -0.633107841015 0.999999 -0.000978 -0.000978
0.892599701881 -1.588608026505 -0.506711363792 0.999999 -0.000978 -0.000978
0.892473340034 -1.659951329231 -0.326823502779 0.999999 -0.000978 -0.000978
0.888206243515 -1.681567549706 -0.328557610512 -0.001094 -0.992057 0.125785
0.686147511005 -1.674630999565 -0.276526719332 -0.001094 -0.992057 0.125785
0.802939355373 -1.660713076591 -0.222563832998 -0.001273 -0.925729 0.378186
0.837807238102 -1.652184367180 -0.201520070434 -0.001273 -0.925729 0.378186
0.710263609886 -1.593498706818 -0.107946477830 -0.001371 -0.796531 0.604596
0.811219871044 -1.613348007202 -0.133855640888 -0.001371 -0.796531 0.604596
0.892560303211 -1.610851049423 -0.153730764985 0.999999 -0.000978 -0.000978
0.792020618916 -1.626795887947 -0.298395097256 0.001094 0.992057 -0.125785
0.785163760185 -1.629579782486 -0.320509165525 0.001094 0.992057 -0.125785
0.800029039383 -1.627129316330 -0.370231270790 0.001102 0.990769 0.135556
0.820987462997 -1.623622179031 -0.396125137806 0.001102 0.990769 0.135556
0.854678273201 -1.616061568260 -0.425244063139 0.001279 0.921899 0.387428
0.789034962654 -1.583011507988 -0.494005173445 0.001370 0.790530 0.612421
0.746107101440 -1.550543546677 -0.535773634911 0.001370 0.790530 0.612421
0.855526566505 -1.524669289589 -0.558467447758 0.001371 0.604596 0.796531
0.840388953686 -1.437759399414 -0.608000159264 0.001273 0.378186 0.925729
0.669199347496 -1.581467032433 -0.514033913612 -0.999999 0.000978 -0.000978
0.669123232365 -1.624434590340 -0.442091047764 -0.999999 0.000978 -0.000978
0.669074118137 -1.652196407318 -0.317288488150 -0.999999 0.000978 0.000978
0.777784168720 -1.643152713776 -0.490510106087 -0.001279 -0.921899 -0.387428
0.809213936329 -1.652783036232 -0.467726349831 -0.001279 -0.921899 -0.387428
0.788109779358 -1.672136545181 -0.412808775902 -0.001102 -0.990769 -0.135556
0.777482807636 -1.677232623100 -0.375439018011 -0.001102 -0.990769 -0.135556
0.846394419670 -1.598439097404 -0.556462824345 -0.001370 -0.790530 -0.612421
0.707621634007 -1.611651778221 -0.539108276367 -0.001370 -0.790530 -0.612421
0.795433342457 -1.575574874878 -0.583001255989 -0.001371 -0.604596 -0.796531
0.794987678528 -1.525427699089 -0.621072888374 -0.001371 -0.604596 -0.796531
0.697271347046 -1.458139061928 -0.654000282288 -0.001273 -0.378186 -0.925729
0.792952477932 -1.469063401222 -0.649609982967 -0.001273 -0.378186 -0.925729
0.846647679806 -1.423205256462 -0.667311191559 -0.001091 -0.125512 -0.992091
0.789085805416 -1.358937740326 -0.675424039364 -0.001091 -0.125512 -0.992091
0.844781577587 -1.336062312126 -0.677759826183 0.001100 0.135260 -0.990809
0.765873789787 -1.295493483543 -0.672226130962 0.001100 0.135260 -0.990809
0.669743061066 -1.274527311325 -0.625631392002 -0.999999 0.000978 0.000978
0.797531843185 -1.264527678490 -0.617123842239 -0.001100 -0.135260 0.990809
0.733112871647 -1.230032205582 -0.657782375813 0.001279 0.387428 -0.921899
0.729979693890 -1.177195549011 -0.635580778122 0.001279 0.387428 -0.921899
0.676238894463 -1.251927733421 -0.612371265888 -0.001279 -0.387428 0.921899
0.772894322872 -1.254589796066 -0.613417983055 -0.001279 -0.387428 0.921899
0.850944638252 -1.177054643631 -0.575181782246 -0.001370 -0.612421 0.790530
0.770290434361 -1.154441118240 -0.557755529881 -0.001370 -0.612421 0.790530
0.735652685165 -1.103497862816 -0.502637624741 -0.001371 -0.796531 0.604596
0.873828053474 -1.088950514793 -0.483154028654 -0.001371 -0.796531 0.604596
0.849351465702 -1.136651754379 -0.607613623142 0.001370 0.612421 -0.790530
0.733635067940 -1.099435567856 -0.578911006451 0.001370 0.612421 -0.790530
0.776702940464 -1.075308084488 -0.452826857567 -0.001273 -0.925729 0.378186
0.858721911907 -1.073351144791 -0.447677224874 -0.001273 -0.925729 0.378186
0.893529176712 -1.063853144646 -0.433165818453 0.999999 -0.000978 -0.000978
0.788690805435 -1.058108091354 -0.526054978371 0.001371 0.796531 -0.604596
0.740496814251 -1.065050601959 -0.535311877728 0.001371 0.796531 -0.604596
0.768002033234 -1.037953138351 -0.494675844908 0.001273 0.925729 -0.378186
0.855656743050 -1.013076663017 -0.433356225491 0.001273 0.925729 -0.378186
0.732452630997 -1.003555536270 -0.384135246277 0.001094 0.992057 -0.125785
0.889420926571 -1.007778286934 -0.415335416794 0.001094 0.992057 -0.125785
0.775023698807 -1.002630472183 -0.294409513474 0.001102 0.990769 0.135556
0.817805528641 -1.002733349800 -0.294211328030 0.001102 0.990769 0.135556
0.717048764229 -1.035582780838 -0.182490617037 0.001279 0.921899 0.387428
0.790146231651 -1.041497111320 -0.168724924326 0.001279 0.921899 0.387428
0.688466489315 -1.086302518845 -0.107924163342 0.001370 0.790530 0.612421
0.782023131847 -1.075863242149 -0.121599152684 0.001370 0.790530 0.612421
0.831865668297 -1.125756144524 -0.071595475078 0.001371 0.604596 0.796531
0.724805831909 -1.126202702522 -0.071112461388 0.001371 0.604596 0.796531
0.669584453106 -1.364076972008 -0.035389743745 -0.999999 0.000978 0.000978
0.669141769409 -1.613993048668 -0.233586370945 -0.999999 0.000978 -0.000978
0.752317130566 -1.611149787903 -0.234688043594 0.001273 0.925729 -0.378186
0.845565378666 -1.601899027824 -0.211622074246 0.001273 0.925729 -0.378186
0.676768898964 -1.575004577637 -0.166991710663 0.001371 0.796531 -0.604596
0.780064761639 -1.557235717773 -0.143346250057 0.001371 0.796531 -0.604596
0.887476205826 -1.505620956421 -0.097760379314 0.001370 0.612421 -0.790530
0.683492183685 -1.445908308029 -0.066290110350 0.001279 0.387428 -0.921899
0.795687019825 -1.386526107788 -0.049847178161 0.001100 0.135260 -0.990809
0.771391570568 -1.364659905434 -0.046860095114 0.001100 0.135260 -0.990809
0.781167328358 -1.335297822952 -0.044436361641 -0.001091 -0.125512 -0.992091
0.682043790817 -1.207470655441 -0.076961241663 -0.001273 -0.378186 -0.925729
0.881014645100 -1.215170025826 -0.073962047696 -0.001273 -0.378186 -0.925729
0.690141737461 -1.148323178291 -0.117534220219 -0.001371 -0.604596 -0.796531
0.871638059616 -1.161186695099 -0.108012266457 -0.001371 -0.604596 -0.796531
0.779510378838 -1.129024028778 -0.135264083743 -0.001370 -0.790530 -0.612421
0.821848928928 -1.092647075653 -0.182267859578 -0.001370 -0.790530 -0.612421
0.671761691570 -1.051087737083 -0.359238028526 -0.001094 -0.992057 0.125785
0.886677622795 -1.050171017647 -0.348977357149 -0.001094 -0.992057 0.125785
0.893516778946 -1.070810437202 -0.201233729720 0.999999 -0.000978 0.000978
0.893197298050 -1.251241326332 -0.033608328551 0.999999 -0.000978 0.000978
0.893127262592 -1.290740251541 0.000336846337 0.999999 -0.000978 0.000978
0.878731369972 -1.524932980537 -0.048986431211 -0.001370 -0.612421 0.790530
0.685346364975 -1.523861885071 -0.048421368003 -0.001370 -0.612421 0.790530
0.872808694839 -1.466549158096 -0.020168542862 -0.001279 -0.387428 0.921899
0.744039595127 -1.447821378708 -0.012394342571 -0.001279 -0.387428 0.921899
0.850803196430 -1.362833857536 0.004265256692 -0.001100 -0.135260 0.990809
0.854175865650 -1.354098439217 0.005461737048 -0.001100 -0.135260 0.990809
0.696275651455 -1.300333023071 0.001949327532 0.001091 0.125512 0.992091
0.882324814796 -1.323427677155 0.004827668890 0.001091 0.125512 0.992091
0.782791018486 -1.251452445984 -0.004657222889 0.001273 0.378186 0.925729
0.816826641560 -1.219401001930 -0.017765710130 0.001273 0.378186 0.925729
0.795804738998 -1.084776759148 -0.195816755295 -0.001279 -0.921899 -0.387428
0.683957099915 -1.070587992668 -0.229109019041 -0.001279 -0.921899 -0.387428
0.843250870705 -1.053788423538 -0.293087631464 -0.001102 -0.990769 -0.135556
0.687735736370 -1.056117534637 -0.274059951305 -0.001102 -0.990769 -0.135556
0.670187056065 -1.023852944374 -0.318653345108 -0.999999 0.000978 0.000978
0.670215308666 -1.007876157761 -0.344551235437 -0.999999 0.000978 0.000978
0.816387236118 -1.362176895142 -0.514211893082 0.001043 0.997701 0.067764
0.866236388683 -1.367110967636 -0.517977476120 0.978551 -0.027149 -0.204209
0.847471833229 -1.497303605080 -0.463290333748 0.001378 0.753685 -0.657235
0.821665406227 -1.426004171371 -0.579124569893 0.001255 0.347682 0.937612
0.758183300495 -1.451599001884 -0.576020002365 -0.150341 0.375150 0.914691
0.729882597923 -1.403800487518 -0.598190367222 -0.161153 0.163690 0.973260
0.841333746910 -1.228069901466 -0.568368315697 -0.001296 -0.418483 0.908224
0.888859152794 -1.256751537323 -0.602780401707 -0.001279 -0.387428 0.921899
0.895965576172 -1.382844448090 -0.620147168636 -0.999999 0.000978 0.000978
0.895675182343 -1.546817421913 -0.526624143124 -0.999999 0.000978 -0.000978
0.895541965961 -1.621998786926 -0.414041727781 -0.999999 0.000978 -0.000978
0.685233712196 -1.613512635231 -0.473565608263 -0.001279 -0.921899 -0.387428
0.730432569981 -1.605038762093 -0.386421591043 -0.141181 0.980898 0.133815
0.792592167854 -1.600593566895 -0.352150619030 -0.159086 0.987233 0.007898
0.868042469025 -1.620355725288 -0.328145563602 0.001094 0.992057 -0.125785
0.894928812981 -1.615766525269 -0.378405302763 0.001102 0.990769 0.135556
0.858722269535 -1.617736339569 -0.363545149565 0.001102 0.990769 0.135556
0.856603145599 -1.501266837120 -0.563067197800 0.001371 0.604596 0.796531
0.885016977787 -1.338676929474 -0.616578698158 0.001091 0.125512 0.992091
0.861560702324 -1.502718329430 -0.461233109236 0.978325 -0.164914 -0.125235
0.857035398483 -1.497591495514 -0.442917644978 -0.001372 -0.794201 0.607653
0.771780431271 -1.555946588516 -0.485239326954 -0.160791 0.803957 0.572538
0.765532195568 -1.574742674828 -0.455808579922 -0.162131 0.896743 0.411784
0.815706133842 -1.596287250519 -0.380451768637 0.001214 0.959904 -0.280326
0.823452413082 -1.590849876404 -0.374653011560 -0.000995 -0.018902 -0.999821
0.811005949974 -1.533328056335 -0.378572136164 -0.001063 -0.092452 -0.995717
0.839150309563 -1.413085341454 -0.287275642157 0.001371 0.796531 -0.604596
0.854978561401 -1.389257788658 -0.263019293547 0.001370 0.612421 -0.790530
0.821804225445 -1.433739900589 -0.298901706934 0.996733 -0.076177 0.026823
0.855236113071 -1.451238632202 -0.272239655256 0.001383 0.723512 0.690311
0.855363130569 -1.460821628571 -0.262192726135 0.001383 0.723512 0.690311
0.848027050495 -1.519338250160 -0.214758187532 -0.001378 -0.770137 -0.637877
0.843863844872 -1.516423225403 -0.203874841332 0.001383 0.723512 0.690311
0.881477713585 -1.547846436501 -0.147531986237 0.001371 0.796531 -0.604596
0.846359014511 -1.547446250916 -0.184192225337 -0.001323 -0.469832 -0.882755
0.666839838028 -1.639531970024 -0.309823185205 -0.999999 0.000978 0.000978
0.727725744247 -1.640628814697 -0.393886566162 -0.001102 -0.990769 -0.135556
0.895507872105 -1.641256093979 -0.301970541477 -0.999999 0.000978 0.000978
0.838370800018 -1.612950563431 -0.194204106927 -0.001273 -0.925729 0.378186
0.758366227150 -1.635890245438 -0.250746518373 -0.001273 -0.925729 0.378186
0.767561435699 -1.639874219894 -0.268478393555 -0.001094 -0.992057 0.125785
0.705211699009 -1.643229961395 -0.295892417431 -0.001094 -0.992057 0.125785
0.737244129181 -1.584954380989 -0.152051538229 -0.001371 -0.796531 0.604596
0.863541960716 -1.522028088570 -0.089120402932 -0.001370 -0.612421 0.790530
0.727591335773 -1.527171254158 -0.093295648694 -0.001370 -0.612421 0.790530
0.863754391670 -1.453157067299 -0.050839781761 -0.001279 -0.387428 0.921899
0.744137406349 -1.429686903954 -0.041065759957 -0.001279 -0.387428 0.921899
0.842203557491 -1.346630334854 -0.027284702286 -0.001100 -0.135260 0.990809
0.668190479279 -1.316300392151 -0.029757702723 0.001091 0.125512 0.992091
0.686822772026 -1.263445377350 -0.036444678903 0.001091 0.125512 0.992091
0.884799242020 -1.439057230949 -0.074220545590 0.001279 0.387428 -0.921899
0.765928864479 -1.473191857338 -0.106234468520 -0.162131 0.411784 -0.896743
0.759875535965 -1.491692423820 -0.118035629392 -0.160791 0.572538 -0.803957
0.668924212456 -1.188511967659 -0.066444374621 0.001273 0.378186 0.925729
0.861851632595 -1.381671905518 -0.059361614287 0.001100 0.135260 -0.990809
0.826805472374 -1.379646778107 -0.082491226494 -0.001222 -0.956436 -0.291939
0.779989540577 -1.373111248016 -0.074405089021 -0.148779 0.156281 -0.976443
0.763974726200 -1.375180959702 -0.072306670249 -0.140841 0.133493 -0.980991
0.866193711758 -1.247527718544 -0.195833638310 0.001383 0.690311 -0.723512
0.675227522850 -1.101464152336 -0.189108625054 -0.151923 -0.780675 -0.606189
0.860881805420 -1.149944782257 -0.129334598780 -0.001371 -0.604596 -0.796531
0.814915180206 -1.308301925659 -0.171651020646 -0.989675 -0.016812 -0.142343
0.839847505093 -1.318019866943 -0.153288811445 -0.001043 -0.997701 -0.067764
0.845731019974 -1.426194787025 -0.194145560265 0.001372 0.607653 0.794201
0.834108829498 -1.487015008926 -0.161430343986 -0.001378 -0.657235 -0.753685
0.821914076805 -1.376138687134 -0.242736816406 -0.996481 0.033541 -0.076819
0.856136679649 -1.386407256126 -0.173915550113 -0.001065 -0.995698 0.092648
0.813222765923 -1.373563051224 -0.161034777761 -0.989497 0.021388 -0.142965
0.858268737793 -1.291244864464 -0.262762367725 -0.001371 -0.604596 -0.796531
0.822202384472 -1.181825518608 -0.288564503193 0.001063 0.092452 0.995717
0.820771753788 -1.163618564606 -0.290271401405 0.001063 0.092452 0.995717
0.890052437782 -1.063312172890 -0.300403654575 -0.001102 -0.990769 -0.135556
0.896444618702 -1.112382173538 -0.146604582667 -0.999999 0.000978 -0.000978
0.886946082115 -1.080026507378 -0.171275109053 0.001370 0.790530 0.612421
0.840837538242 -1.076841115952 -0.175277233124 0.001370 0.790530 0.612421
0.869074165821 -1.051464200020 -0.232182472944 0.001279 0.921899 0.387428
0.693333208561 -1.064261913300 -0.200988069177 0.001279 0.921899 0.387428
0.859096944332 -1.036970973015 -0.293161749840 0.001102 0.990769 0.135556
0.680429279804 -1.037860512733 -0.284351199865 0.001102 0.990769 0.135556
0.765313684940 -1.033568739891 -0.351854860783 0.001094 0.992057 -0.125785
0.764369010925 -1.037434220314 -0.382441014051 0.001094 0.992057 -0.125785
0.737139046192 -1.065131545067 -0.471893548965 0.001273 0.925729 -0.378186
0.825283586979 -1.078327059746 -0.496587693691 0.001371 0.796531 -0.604596
0.677905499935 -1.086471676826 -0.507659316063 0.001371 0.796531 -0.604596
0.872985064983 -1.166491866112 -0.587816298008 0.001370 0.612421 -0.790530
0.891640126705 -1.187049627304 -0.602802276611 0.001279 0.387428 -0.921899
0.850974500179 -1.186308026314 -0.602520883083 0.001279 0.387428 -0.921899
0.666985213757 -1.557460188866 -0.526553571224 -0.999999 0.000978 -0.000978
0.839002609253 -1.563496947289 -0.546352028847 -0.001370 -0.790530 -0.612421
0.815979421139 -1.588932037354 -0.513501584530 -0.001370 -0.790530 -0.612421
0.672207951546 -1.531588554382 -0.573730707169 -0.001371 -0.604596 -0.796531
0.826108157635 -1.505992293358 -0.593370497227 -0.001371 -0.604596 -0.796531
0.832222104073 -1.477420687675 -0.609621465206 -0.001273 -0.378186 -0.925729
0.807585477829 -1.422349929810 -0.632084310055 -0.001273 -0.378186 -0.925729
0.668806374073 -1.350505352020 -0.642275512218 -0.001091 -0.125512 -0.992091
0.827395200729 -1.348691701889 -0.642540335655 -0.001091 -0.125512 -0.992091
0.862844884396 -1.335313439369 -0.643406987190 0.001100 0.135260 -0.990809
0.754667282104 -1.304503440857 -0.639216065407 0.001100 0.135260 -0.990809
0.861761152744 -1.228338718414 -0.478223621845 0.001378 0.657235 0.753685
0.871127963066 -1.251824021339 -0.467432558537 0.985316 0.104159 -0.135286
0.872161924839 -1.255186915398 -0.461071193218 0.992316 0.074053 -0.099118
0.866324722767 -1.292225003242 -0.480722188950 0.001065 0.995698 -0.092648
0.824087798595 -1.308301329613 -0.559911012650 -0.001001 -0.999735 0.023017
0.811378240585 -1.308098077774 -0.552275061607 -0.001001 -0.999735 0.023017
0.840384602547 -1.323311686516 -0.437752813101 -0.001236 -0.317711 -0.948187
0.860123336315 -1.163772702217 -0.452030748129 0.001378 0.770137 0.637877
0.895441353321 -1.134100198746 -0.525192260742 -0.001371 -0.796531 0.604596
0.684913098812 -1.109180450439 -0.488734155893 -0.144931 -0.787410 0.599149
0.831833064556 -1.096282005310 -0.421732246876 -0.001255 -0.937612 0.347682
0.795205175877 -1.082358956337 -0.365113615990 -0.144467 -0.985004 0.094322
0.667865931988 -1.060198426247 -0.430023640394 -0.999999 0.000978 0.000978
0.667893528938 -1.044647812843 -0.298069536686 -0.999999 0.000978 0.000978
0.746721088886 -1.084285736084 -0.254251986742 -0.146800 -0.899329 -0.411895
0.739786267281 -1.075188755989 -0.298864990473 -0.101663 -0.961293 -0.256087
0.695322394371 -1.063179492950 -0.327782511711 -0.137910 -0.977795 -0.157789
0.851116776466 -1.072217226028 -0.252590656281 -0.001279 -0.921899 -0.387428
0.878289282322 -1.242255687714 -0.353561758995 0.996194 0.081300 -0.031436
0.874163031578 -1.206610560417 -0.296715527773 0.990473 0.126808 0.053693
0.822434186935 -1.249721169472 -0.368875145912 -0.996926 -0.071899 0.031120
0.869510114193 -1.059931397438 -0.343450516462 -0.001094 -0.992057 0.125785
0.850750863552 -1.174133300781 -0.076996132731 0.001371 0.604596 0.796531
0.677697718143 -1.168815970421 -0.080800443888 0.001371 0.604596 0.796531
0.689357161522 -1.282287120819 -0.064686492085 -0.150976 -0.123972 -0.980733
0.728450298309 -1.233715891838 -0.087200306356 -0.150499 -0.372731 -0.915653
0.853448867798 -1.206813335419 -0.157023176551 0.001383 0.690311 -0.723512
0.763908565044 -1.604178071022 -0.322625577450 -0.153374 0.980367 -0.123926
0.695203423500 -1.600881814957 -0.248121082783 -0.147214 0.915530 -0.374344
0.725546300411 -1.577673316002 -0.204401344061 -0.166629 0.856739 -0.488091
0.829772591591 -1.499694228172 -0.296261131763 -0.001098 -0.132811 0.991141
0.817716240883 -1.508623242378 -0.297454059124 -0.001098 -0.132811 0.991141
0.846853852272 -1.486726045609 -0.294528722763 -0.001098 -0.132811 0.991141
0.847180426121 -1.597454309464 -0.426684737206 0.999999 -0.000978 -0.000978
0.816577017307 -1.584910154343 -0.421543657780 0.001296 0.908224 0.418483
0.811852574348 -1.500072598457 -0.536291658878 -0.001302 -0.430994 0.902354
0.853754401207 -1.458322405815 -0.499154299498 -0.001383 -0.690311 0.723512
0.853991985321 -1.306482315063 -0.598707497120 0.920461 -0.131891 0.367907
0.841833293438 -1.614784240723 -0.307038903236 -0.001305 -0.432009 -0.901868
0.846588432789 -1.611104369164 -0.296100318432 -0.001360 -0.564391 0.825507
0.850321590900 -1.086010694504 -0.225051850080 0.001360 0.825507 0.564391
0.847004055977 -1.572661161423 -0.477603137493 0.001156 0.204554 -0.978855
0.855415225029 -1.201120853424 -0.566966414452 0.920908 0.381577 0.079551
0.724650382996 -1.456999659538 -0.177905425429 -0.999999 0.000978 -0.000978
0.727820515633 -1.561293244362 -0.428099334240 -0.001279 -0.921899 -0.387428
0.732555866241 -1.496295332909 -0.318968534470 0.001273 0.925729 -0.378186
0.766623795033 -1.503286480904 -0.294424444437 0.999999 -0.000978 0.000978
0.766567945480 -1.534795522690 -0.315076589584 0.999999 -0.000978 -0.000978
0.743990540504 -1.582062721252 -0.324857562780 -0.001094 -0.992057 0.125785
0.759824335575 -1.421414732933 -0.110086701810 -0.001279 -0.387428 0.921899
0.802980422974 -1.303933501244 -0.252983927727 0.001273 0.378186 0.925729
0.802010595798 -1.426798105240 -0.346895456314 -0.001102 -0.990769 -0.135556
0.822481632233 -1.317829847336 -0.276845663786 0.999999 -0.000978 0.000978
0.747606635094 -1.382457375526 -0.412205845118 -0.001273 -0.378186 -0.925729
0.822363078594 -1.384773135185 -0.325435101986 0.999999 -0.000978 0.000978
0.745387434959 -1.375232219696 -0.301075994968 -0.001370 -0.612421 0.790530
0.783158600330 -1.396616339684 -0.288237243891 0.001094 0.992057 -0.125785
0.750227868557 -1.321794390678 -0.365018129349 -0.001279 -0.387428 0.921899
0.806903660297 -1.313354730606 -0.310367017984 -0.001370 -0.790530 -0.612421
0.786580026150 -1.282210230827 -0.286640554667 -0.001102 -0.990769 -0.135556
0.799383878708 -1.303578853607 -0.300478816032 0.001371 0.604596 0.796531
0.798109769821 -1.274057269096 -0.273663461208 0.001370 0.790530 0.612421
0.751275837421 -1.252811431885 -0.357353955507 0.001273 0.925729 -0.378186
0.735054135323 -1.490609884262 -0.487148731947 -0.999999 0.000978 -0.000978
0.734989404678 -1.527157545090 -0.227133184671 -0.999999 0.000978 -0.000978
0.734992325306 -1.525506019592 -0.364454776049 -0.999999 0.000978 -0.000978
0.735323071480 -1.338789463043 -0.543616712093 -0.999999 0.000978 0.000978
0.735347688198 -1.324898123741 -0.484301894903 -0.999999 0.000978 -0.000978
0.752162635326 -1.494233489037 -0.434281080961 0.999999 -0.000978 0.000978
0.748094677925 -1.160017609596 -0.191007286310 0.001370 0.790530 0.612421
0.752738893032 -1.168890118599 -0.293103992939 0.999999 -0.000978 0.000978
0.752675890923 -1.204448223114 -0.195586681366 0.999999 -0.000978 0.000978
0.752522647381 -1.290973305702 -0.201827049255 0.999999 -0.000978 0.000978
0.752406418324 -1.356613993645 -0.107290461659 0.999999 -0.000978 -0.000978
0.752273023129 -1.431935429573 -0.174065023661 0.999999 -0.000978 -0.000978
0.752230107784 -1.456148505211 -0.147413477302 0.999999 -0.000978 -0.000978
0.752196371555 -1.475188493729 -0.281310796738 0.999999 -0.000978 -0.000978
0.735148072243 -1.437555551529 -0.126916334033 -0.999999 0.000978 -0.000978
0.735254585743 -1.377451658249 -0.165153920650 -0.999999 0.000978 0.000978
0.735285341740 -1.360074877739 -0.179749116302 -0.999999 0.000978 0.000978
0.735388696194 -1.301725029945 -0.111142784357 -0.999999 0.000978 -0.000978
0.735602021217 -1.181289196014 -0.427592903376 -0.999999 0.000978 -0.000978
0.735646724701 -1.156034588814 -0.336019247770 -0.999999 0.000978 -0.000978
0.752651333809 -1.218326807022 -0.399684756994 0.999999 -0.000978 -0.000978
0.752579391003 -1.258937954903 -0.469308704138 0.999999 -0.000978 -0.000978
0.735406577587 -1.291633725166 -0.501302719116 -0.999999 0.000978 -0.000978
0.735546171665 -1.212858200073 -0.516208469868 -0.999999 0.000978 -0.000978
0.738649070263 -1.279811978340 -0.557375490665 0.001100 0.135260 -0.990809
0.714083313942 -1.339080452919 -0.255629360676 0.999999 -0.000978 -0.000978
0.737660586834 -1.380077838898 -0.257499009371 0.250218 0.374587 -0.892791
0.718247890472 -1.277246117592 -0.281098097563 0.256950 -0.764544 -0.591142
0.700762093067 1.249523520470 -0.622472286224 0.001091 0.125512 0.992091
0.890409886837 1.255611181259 -0.623284518719 0.001091 0.125512 0.992091
0.895615041256 1.079055309296 -0.576355278492 0.999999 -0.000978 0.000978
0.895581305027 1.060020446777 -0.536701977253 0.999999 -0.000978 0.000978
0.895525395870 1.028457403183 -0.497693002224 0.999999 -0.000978 0.000978
0.895441949368 0.981329381466 -0.427826225758 0.999999 -0.000978 -0.000978
0.864975988865 0.944644927979 -0.322628557682 -0.001094 -0.992057 0.125785
0.726973295212 0.950896084309 -0.275120824575 -0.001094 -0.992057 0.125785
0.763514280319 0.967993617058 -0.214687764645 -0.001273 -0.925729 0.378186
0.893829286098 0.960665464401 -0.232073932886 -0.001273 -0.925729 0.378186
0.759595811367 1.001385807991 -0.148053601384 -0.001371 -0.796531 0.604596
0.865011572838 1.000626683235 -0.148807644844 -0.001371 -0.796531 0.604596
0.888320147991 0.995971322060 -0.318039923906 0.001094 0.992057 -0.125785
0.839108228683 0.994998574257 -0.326422840357 0.001094 0.992057 -0.125785
0.735551655293 0.994222521782 -0.339662373066 0.001102 0.990769 0.135556
0.812790989876 1.003706216812 -0.409950345755 0.001102 0.990769 0.135556
0.844771742821 1.021505475044 -0.454103350639 0.001279 0.921899 0.387428
0.703083276749 1.018558740616 -0.446494221687 0.001279 0.921899 0.387428
0.736379802227 1.044048786163 -0.495997875929 0.001370 0.790530 0.612421
0.686138212681 1.071261644363 -0.530973315239 0.001370 0.790530 0.612421
0.829192161560 1.089191794395 -0.549655199051 0.001371 0.604596 0.796531
0.814871072769 1.136895298958 -0.585852742195 0.001371 0.604596 0.796531
0.715750396252 1.176237583160 -0.603246271610 0.001273 0.378186 0.925729
0.840083062649 1.195710539818 -0.611285328865 0.001273 0.378186 0.925729
0.672302246094 1.135618567467 -0.636681377888 -0.999999 0.000978 0.000978
0.672295570374 1.131844282150 -0.589293956757 -0.999999 0.000978 0.000978
0.672222971916 1.090874195099 -0.584147036076 -0.999999 0.000978 0.000978
0.672073841095 1.006654381752 -0.482155859470 -0.999999 0.000978 0.000978
0.672025024891 0.979098618031 -0.427494227886 -0.999999 0.000978 0.000978
0.723279058933 0.973490595818 -0.469391763210 -0.001279 -0.921899 -0.387428
0.712228953838 0.959621727467 -0.436342656612 -0.001279 -0.921899 -0.387428
0.820243060589 0.954554319382 -0.422497719526 -0.001102 -0.990769 -0.135556
0.789855659008 0.946157634258 -0.360758990049 -0.001102 -0.990769 -0.135556
0.782796502113 1.011812925339 -0.536756753922 -0.001370 -0.790530 -0.612421
0.847954392433 1.041198611259 -0.574797570705 -0.001370 -0.790530 -0.612421
0.674527406693 1.060871839523 -0.591208875179 -0.001371 -0.604596 -0.796531
0.735165655613 1.104431986809 -0.624361634254 -0.001371 -0.604596 -0.796531
0.764596939087 1.144201040268 -0.644626736641 -0.001273 -0.378186 -0.925729
0.845483899117 1.167454361916 -0.654177546501 -0.001273 -0.378186 -0.925729
0.682416498661 1.273662447929 -0.676307737827 -0.001091 -0.125512 -0.992091
0.814019262791 1.284019708633 -0.677646696568 -0.001091 -0.125512 -0.992091
0.868745446205 1.303178429604 -0.675862550735 0.001100 0.135260 -0.990809
0.748511672020 1.368577122688 -0.666940271854 0.001100 0.135260 -0.990809
0.730741500854 1.357674717903 -0.617580592632 -0.001100 -0.135260 0.990809
0.875401258469 1.307842016220 -0.624366402626 -0.001100 -0.135260 0.990809
0.896158754826 1.386019349098 -0.638630747795 0.999999 -0.000978 -0.000978
0.896254062653 1.439866781235 -0.627263486385 0.999999 -0.000978 -0.000978
0.754678547382 1.389497160912 -0.660242438316 0.001279 0.387428 -0.921899
0.714762806892 1.444806218147 -0.637029290199 0.001279 0.387428 -0.921899
0.672809481621 1.421994328499 -0.595761835575 -0.999999 0.000978 -0.000978
0.706883966923 1.400515913963 -0.600992918015 -0.001279 -0.387428 0.921899
0.863012790680 1.485440731049 -0.546414136887 -0.001370 -0.612421 0.790530
0.771818280220 1.495829939842 -0.536922931671 -0.001371 -0.796531 0.604596
0.883270978928 1.528809428215 -0.493223637342 -0.001371 -0.796531 0.604596
0.896372437477 1.506692886353 -0.527213394642 0.999999 -0.000978 0.000978
0.803844273090 1.464318752289 -0.626638233662 0.001370 0.612421 -0.790530
0.710088372231 1.492409825325 -0.604982137680 0.001370 0.612421 -0.790530
0.672884166241 1.464141488075 -0.597706735134 -0.999999 0.000978 -0.000978
0.742501020432 1.552782654762 -0.446437031031 -0.001273 -0.925729 0.378186
0.835748612881 1.546729326248 -0.460861116648 -0.001273 -0.925729 0.378186
0.896426439285 1.537148118019 -0.543624937534 0.999999 -0.000978 0.000978
0.779457807541 1.563031792641 -0.531716406345 0.001371 0.796531 -0.604596
0.747636795044 1.554210901260 -0.543409168720 0.001371 0.796531 -0.604596
0.850299060345 1.588754892349 -0.491167813540 0.001273 0.925729 -0.378186
0.892952740192 1.614002943039 -0.429132878780 0.001273 0.925729 -0.378186
0.809242129326 1.619917273521 -0.398474574089 0.001094 0.992057 -0.125785
0.837292134762 1.626057624817 -0.349516510963 0.001094 0.992057 -0.125785
0.839472949505 1.628015518188 -0.333411633968 0.001102 0.990769 0.135556
0.893874764442 1.623480081558 -0.300978899002 0.001102 0.990769 0.135556
0.676239728928 1.613344907761 -0.238253235817 0.001279 0.921899 0.387428
0.699395835400 1.581705093384 -0.163060337305 0.001279 0.921899 0.387428
0.773168444633 1.560286521912 -0.135412409902 0.001370 0.790530 0.612421
0.752553343773 1.529214620590 -0.095299154520 0.001370 0.790530 0.612421
0.839796125889 1.507119417191 -0.077265202999 0.001371 0.604596 0.796531
0.678639054298 1.455833077431 -0.038111545146 0.001371 0.604596 0.796531
0.672780752182 1.405751705170 -0.026539437473 -0.999999 0.000978 0.000978
0.741168200970 1.016106963158 -0.230241119862 0.001273 0.925729 -0.378186
0.840038955212 1.019075751305 -0.222539454699 0.001273 0.925729 -0.378186
0.685155212879 1.052396774292 -0.164364606142 0.001371 0.796531 -0.604596
0.867986321449 1.068967103958 -0.142112195492 0.001371 0.796531 -0.604596
0.812242746353 1.078853607178 -0.129618704319 0.001370 0.612421 -0.790530
0.894056081772 1.259019494057 -0.047068867832 0.001100 0.135260 -0.990809
0.730070948601 1.285297155380 -0.043814666569 -0.001091 -0.125512 -0.992091
0.886294126511 1.342025279999 -0.051022157073 -0.001091 -0.125512 -0.992091
0.839093625546 1.375803470612 -0.059869516641 -0.001273 -0.378186 -0.925729
0.754127204418 1.466512203217 -0.109583131969 -0.001371 -0.604596 -0.796531
0.815031886101 1.477851748466 -0.118274107575 -0.001371 -0.604596 -0.796531
0.875160694122 1.518032908440 -0.163380727172 -0.001370 -0.790530 -0.612421
0.673049211502 1.557366132736 -0.154092684388 -0.999999 0.000978 -0.000978
0.819004118443 1.568741083145 -0.401411294937 -0.001094 -0.992057 0.125785
0.797496438026 1.573424577713 -0.364670991898 -0.001094 -0.992057 0.125785
0.896495342255 1.576097369194 -0.397431701422 0.999999 -0.000978 0.000978
0.896473884583 1.563961744308 -0.155136525631 0.999999 -0.000978 -0.000978
0.895845413208 1.209107518196 -0.018404936418 0.999999 -0.000978 0.000978
0.744300484657 1.060406208038 -0.080255568027 -0.001370 -0.612421 0.790530
0.767228364944 1.085246086121 -0.060960520059 -0.001370 -0.612421 0.790530
0.829254865646 1.124211311340 -0.034766890109 -0.001279 -0.387428 0.921899
0.688201069832 1.120221614838 -0.036548517644 -0.001279 -0.387428 0.921899
0.834767043591 1.201237797737 -0.004135908093 -0.001100 -0.135260 0.990809
0.787639677525 1.282931566238 0.007034501061 -0.001100 -0.135260 0.990809
0.750584125519 1.288106560707 0.006613090634 0.001091 0.125512 0.992091
0.894307315350 1.338425278664 0.000218770467 0.001091 0.125512 0.992091
0.787397682667 1.404715895653 -0.017211727798 0.001273 0.378186 0.925729
0.840400695801 1.419571161270 -0.023314189166 0.001273 0.378186 0.925729
0.772093951702 1.541126489639 -0.196862936020 -0.001279 -0.921899 -0.387428
0.705973803997 1.549966812134 -0.217620790005 -0.001279 -0.921899 -0.387428
0.822210431099 1.571972489357 -0.295293778181 -0.001102 -0.990769 -0.135556
0.717735350132 1.570515751839 -0.283299237490 -0.001102 -0.990769 -0.135556
0.896529018879 1.595101356506 -0.341473728418 0.999999 -0.000978 0.000978
0.673164129257 1.622240543365 -0.371543496847 -0.999999 0.000978 0.000978
0.868841409683 1.201277732849 -0.360291451216 0.001279 0.921899 0.387428
0.828970551491 1.209486484528 -0.379543602467 0.001279 0.921899 0.387428
0.830670058727 1.237577080727 -0.408381074667 0.001371 0.604596 0.796531
0.831547617912 1.264233827591 -0.420455932617 0.001091 0.125512 0.992091
0.821733474731 1.266897916794 -0.567937135696 0.001043 0.997701 0.067764
0.880044221878 1.250842094421 -0.436987012625 0.995121 -0.027249 -0.094825
0.867725610733 1.255029082298 -0.417048484087 0.001273 0.378186 0.925729
0.826586306095 1.223188400269 -0.416874647141 -0.001384 -0.709868 -0.704333
0.881750702858 1.209179282188 -0.381825119257 0.997285 -0.059043 -0.044014
0.857311487198 1.129736542702 -0.461415141821 0.001378 0.753685 -0.657235
0.843945801258 1.152373313904 -0.557847321033 0.001336 0.498295 0.867007
0.814359426498 1.227535128593 -0.588000655174 0.001127 0.167869 0.985809
0.839475750923 1.247465610504 -0.591390371323 0.001127 0.167869 0.985809
0.718929529190 1.163228273392 -0.578570783138 -0.150341 0.375150 0.914691
0.722940921783 1.265291333199 -0.605695664883 -0.150976 0.123972 0.980733
0.736042857170 1.289065361023 -0.605810761452 -0.161644 -0.007913 0.986817
0.820911884308 1.344122648239 -0.587961256504 -0.001197 -0.259673 0.965696
0.864616513252 1.362509489059 -0.605377435684 -0.001279 -0.387428 0.921899
0.862705886364 1.413424730301 -0.583992719650 -0.001279 -0.387428 0.921899
0.898723900318 1.139724612236 -0.595174789429 -0.999999 0.000978 -0.000978
0.877379298210 1.000269770622 -0.446678280830 -0.001279 -0.921899 -0.387428
0.691819787025 1.001916885376 -0.449815630913 -0.001279 -0.921899 -0.387428
0.683494329453 1.007497549057 -0.345216602087 -0.141181 0.980898 0.133815
0.812222063541 1.043285727501 -0.244497850537 0.001255 0.937612 -0.347682
0.842874526978 1.028795480728 -0.302933573723 0.001162 0.977614 0.210402
0.850027084351 1.124039292336 -0.541982352734 0.999413 0.013244 0.031582
0.753096282482 1.044923424721 -0.449277609587 -0.162131 0.896743 0.411784
0.808426558971 1.042853236198 -0.374815404415 -0.000995 -0.018902 -0.999821
0.813417673111 1.065876722336 -0.376114368439 -0.001063 -0.092452 -0.995717
0.865648388863 1.178593635559 -0.360861331224 -0.001381 -0.711237 0.702951
0.829947113991 1.216265797615 -0.282099634409 0.001371 0.796531 -0.604596
0.859945714474 1.163099884987 -0.287454366684 -0.000983 -0.999987 -0.004916
0.828604936600 1.092927098274 -0.199004754424 -0.001384 -0.720806 -0.693136
0.714279770851 1.093526840210 -0.141505032778 -0.181198 0.601456 -0.778086
0.669873118401 1.038241505623 -0.175524979830 -0.999999 0.000978 -0.000978
0.669832468033 1.015318155289 -0.216779768467 -0.999999 0.000978 -0.000978
0.772910892963 0.985647857189 -0.400716781616 -0.001102 -0.990769 -0.135556
0.817082285881 0.978702545166 -0.350546211004 -0.001102 -0.990769 -0.135556
0.898443460464 0.981423497200 -0.350732594728 -0.999999 0.000978 0.000978
0.898468494415 0.995537281036 -0.297265201807 -0.999999 0.000978 0.000978
0.805465161800 1.002603054047 -0.218520924449 -0.001273 -0.925729 0.378186
0.744450211525 0.991258144379 -0.246577247977 -0.001273 -0.925729 0.378186
0.706077933311 0.978581964970 -0.324431002140 -0.001094 -0.992057 0.125785
0.687189936638 1.035516500473 -0.158689290285 -0.001371 -0.796531 0.604596
0.891195595264 1.054724097252 -0.132914036512 -0.001371 -0.796531 0.604596
0.787177741528 1.098297834396 -0.093177102506 -0.001370 -0.612421 0.790530
0.705744147301 1.108301877975 -0.085530743003 -0.001370 -0.612421 0.790530
0.860235452652 1.181867003441 -0.046807173640 -0.001279 -0.387428 0.921899
0.877341687679 1.197328805923 -0.040296766907 -0.001279 -0.387428 0.921899
0.888585031033 1.238250851631 -0.032822441310 -0.001100 -0.135260 0.990809
0.854493916035 1.282273054123 -0.026805156842 -0.001100 -0.135260 0.990809
0.744554638863 1.291182994843 -0.027506729588 0.001091 0.125512 0.992091
0.854270279408 1.319818615913 -0.031151877716 0.001091 0.125512 0.992091
0.899005115032 1.298503041267 -0.042379923165 -0.999999 0.000978 0.000978
0.898878335953 1.226952195168 -0.055044330657 -0.999999 0.000978 0.000978
0.898775994778 1.169172763824 -0.078634038568 -0.999999 0.000978 0.000978
0.898800134659 1.182764649391 -0.053143419325 -0.999999 0.000978 0.000978
0.818713545799 1.133275032043 -0.125725388527 0.001362 0.578659 -0.815569
0.824747383595 1.167732954025 -0.104709915817 0.001296 0.418483 -0.908224
0.678409993649 1.211390256882 -0.065582089126 -0.188489 0.381294 -0.905034
0.700787663460 1.394731402397 -0.049249537289 0.001273 0.378186 0.925729
0.812986791134 1.404294252396 -0.053234390914 0.001273 0.378186 0.925729
0.723602533340 1.264630556107 -0.064152069390 -0.140841 0.133493 -0.980991
0.823118448257 1.272317886353 -0.075156889856 0.000979 0.002938 -0.999995
0.833826720715 1.315206289291 -0.106763854623 0.001098 0.991141 0.132811
0.842183649540 1.327245354652 -0.197204262018 0.001098 0.991141 0.132811
0.823014259338 1.342312812805 -0.225032627583 -0.996437 -0.007444 -0.084011
0.838097095490 1.453599691391 -0.194625705481 -0.001378 -0.753685 0.657235
0.832831501961 1.443693637848 -0.205991759896 -0.001378 -0.753685 0.657235
0.783137798309 1.495608806610 -0.179076462984 -0.151923 -0.780675 -0.606189
0.670579969883 1.437351703644 -0.099610961974 -0.999999 0.000978 0.000978
0.779932498932 1.457574009895 -0.136966064572 -0.092409 -0.699667 -0.708468
0.899286687374 1.457463741302 -0.101584620774 -0.999999 0.000978 -0.000978
0.843210101128 1.303915500641 -0.102231107652 -0.001043 -0.997701 -0.067764
0.849285006523 1.305042028427 -0.118915595114 -0.001043 -0.997701 -0.067764
0.842941880226 1.305458903313 -0.124866135418 -0.001043 -0.997701 -0.067764
0.857358813286 1.308279514313 -0.223289117217 -0.001284 -0.917945 0.396706
0.850624203682 1.306111574173 -0.249923363328 -0.001091 -0.125512 -0.992091
0.854887962341 1.213947176933 -0.205415770411 0.001372 0.607653 0.794201
0.820948958397 1.170007705688 -0.171765372157 0.001372 0.607653 0.794201
0.823845505714 1.243629217148 -0.232175186276 -0.996481 0.033541 -0.076819
0.826560676098 1.240848064423 -0.154917642474 -0.001065 -0.995698 0.092648
0.843106925488 1.243911385536 -0.121933400631 -0.001065 -0.995698 0.092648
0.824015378952 1.388551473618 -0.290604948997 -0.996742 -0.074352 -0.031249
0.899468004704 1.559817194939 -0.254504710436 -0.999999 0.000978 -0.000978
0.899450302124 1.549850583076 -0.234283745289 -0.999999 0.000978 -0.000978
0.796880304813 1.517848968506 -0.135549202561 0.001370 0.790530 0.612421
0.715584516525 1.530704021454 -0.151939749718 0.001370 0.790530 0.612421
0.815016150475 1.554916381836 -0.186644330621 0.001279 0.921899 0.387428
0.670828580856 1.560100674629 -0.198373213410 0.001279 0.921899 0.387428
0.688439607620 1.590075373650 -0.302822530270 0.001102 0.990769 0.135556
0.792268931866 1.594031333923 -0.334249168634 0.001094 0.992057 -0.125785
0.687989354134 1.591767668724 -0.353613048792 0.001094 0.992057 -0.125785
0.805321753025 1.569389700890 -0.449306577444 0.001273 0.925729 -0.378186
0.707480013371 1.567148208618 -0.455222070217 0.001273 0.925729 -0.378186
0.872181355953 1.524127364159 -0.526729941368 0.001371 0.796531 -0.604596
0.702863335609 1.541706323624 -0.503970682621 0.001371 0.796531 -0.604596
0.684271097183 1.460941672325 -0.586515307426 0.001370 0.612421 -0.790530
0.825220406055 1.476239204407 -0.574458420277 0.001370 0.612421 -0.790530
0.847231864929 1.380984187126 -0.626951813698 0.001279 0.387428 -0.921899
0.733812689781 1.399437785149 -0.619281351566 0.001279 0.387428 -0.921899
0.670039713383 1.132313370705 -0.587383508682 -0.999999 0.000978 0.000978
0.669951260090 1.082390308380 -0.542998075485 -0.999999 0.000978 0.000978
0.669868409634 1.035624265671 -0.507741987705 -0.999999 0.000978 0.000978
0.789542376995 1.041199326515 -0.519513845444 -0.001370 -0.790530 -0.612421
0.812045097351 1.078824043274 -0.562523603439 -0.001371 -0.604596 -0.796531
0.783479511738 1.120326280594 -0.593993961811 -0.001371 -0.604596 -0.796531
0.720368504524 1.178709030151 -0.622076094151 -0.001273 -0.378186 -0.925729
0.868720889091 1.160979509354 -0.614945828915 -0.001273 -0.378186 -0.925729
0.706486940384 1.262365102768 -0.640697002411 -0.001091 -0.125512 -0.992091
0.898012638092 1.221208453178 -0.635536134243 -0.001091 -0.125512 -0.992091
0.765161454678 1.318435907364 -0.639553308487 0.001100 0.135260 -0.990809
0.782299458981 1.332596659660 -0.637610852718 0.001100 0.135260 -0.990809
0.752482235432 1.098836779594 -0.527286529541 -0.159675 0.691925 0.704091
0.725042045116 1.314479351044 -0.604791998863 -0.143932 -0.134091 0.980461
0.765085339546 1.407569766045 -0.569694101810 -0.163212 -0.381775 0.909731
0.745252311230 1.467975258827 -0.531966447830 -0.161920 -0.628008 0.761176
0.831469237804 1.414999723434 -0.509495973587 -0.001372 -0.607653 -0.794201
0.838409066200 1.395462512970 -0.494563460350 -0.001372 -0.607653 -0.794201
0.838946282864 1.357748031616 -0.465720653534 -0.001372 -0.607653 -0.794201
0.822538793087 1.316643714905 -0.580177247524 -0.001001 -0.999735 0.023017
0.816800832748 1.317111134529 -0.560849606991 -0.001001 -0.999735 0.023017
0.864682495594 1.314259052277 -0.445205837488 -0.001381 -0.702951 -0.711237
0.859769344330 1.530947446823 -0.471637785435 -0.001273 -0.925729 0.378186
0.704365432262 1.500199675560 -0.505835235119 -0.144931 -0.787410 0.599149
0.843861103058 1.518500328064 -0.450038820505 -0.001336 -0.867007 0.498295
0.686523318291 1.557928323746 -0.386022418737 -0.158924 -0.979418 0.124429
0.670797586441 1.560203433037 -0.415489912033 -0.999999 0.000978 -0.000978
0.670795977116 1.559298396111 -0.263833910227 -0.999999 0.000978 -0.000978
0.670808434486 1.566348075867 -0.227995827794 -0.999999 0.000978 0.000978
0.763649046421 1.518297672272 -0.208476901054 -0.163635 -0.909239 -0.382763
0.794968068600 1.546436905861 -0.324533700943 -0.163844 -0.986455 -0.007910
0.851102828979 1.531116247177 -0.214729532599 0.999777 0.019091 0.009043
0.871166884899 1.549312949181 -0.243348404765 -0.001279 -0.921899 -0.387428
0.882703959942 1.535500049591 -0.210484355688 -0.001279 -0.921899 -0.387428
0.762234449387 1.478826642036 -0.518578410149 -0.162637 -0.703746 0.691586
0.840542793274 1.481070518494 -0.507316172123 -0.001384 -0.709868 0.704333
0.825783908367 1.376240134239 -0.351474285126 -0.998078 -0.061533 0.007300
0.899426341057 1.536306262016 -0.498082369566 -0.999999 0.000978 -0.000978
0.899455308914 1.552677869797 -0.461230248213 -0.999999 0.000978 -0.000978
0.865131556988 1.407310366631 -0.500317156315 0.978930 0.124681 -0.161715
0.828163921833 1.498077988625 -0.112488634884 0.001371 0.604596 0.796531
0.720620393753 1.461907505989 -0.084883205593 0.001371 0.604596 0.796531
0.810833454132 1.523812294006 -0.303852170706 -0.000999 -0.022971 -0.999736
0.803229093552 1.305156350136 -0.090931758285 -0.975120 -0.025003 -0.220265
0.757215917110 1.370201826096 -0.083241984248 -0.163731 -0.342855 -0.925009
0.749692201614 1.406803965569 -0.096372745931 -0.150499 -0.372731 -0.915653
0.685616075993 1.074604034424 -0.155679747462 -0.142004 0.787748 -0.599406
0.877362608910 1.159056663513 -0.293746322393 0.991111 -0.127703 0.037294
0.864436209202 1.094566345215 -0.313823461533 0.001040 0.067624 -0.997710
0.874966144562 1.139133691788 -0.370372414589 0.989514 -0.140058 -0.035299
0.809896826744 1.254073381424 -0.546212434769 -0.980762 0.026950 0.193340
0.801759421825 1.241532444954 -0.325297296047 -0.001094 -0.992057 0.125785
0.802429914474 1.260409355164 -0.334536045790 0.999999 -0.000978 0.000978
0.848755002022 1.558773040771 -0.361569374800 0.001305 0.432009 0.901868
0.856893777847 1.152223944664 -0.097512401640 0.920706 0.120092 0.371319
0.858189940453 1.148823976517 -0.102746985853 0.919974 -0.123124 -0.372140
0.849133253098 1.016930580139 -0.330059766769 0.998923 0.013429 0.044420
0.727460801601 1.094982266426 -0.343535959721 -0.999999 0.000978 -0.000978
0.727437376976 1.081727504730 -0.208523780107 -0.999999 0.000978 0.000978
0.746459901333 1.099851608276 -0.390622466803 0.001273 0.925729 -0.378186
0.729104042053 1.110641598701 -0.364265382290 0.001273 0.925729 -0.378186
0.769595205784 1.139622688293 -0.243816494942 0.999999 -0.000978 0.000978
0.769454598427 1.060250997543 -0.399893462658 0.999999 -0.000978 -0.000978
0.745415091515 1.154904842377 -0.132367938757 -0.001370 -0.612421 0.790530
0.768816947937 1.318183064461 -0.251610010862 0.001273 0.378186 0.925729
0.814929187298 1.209385037422 -0.379657357931 -0.001370 -0.790530 -0.612421
0.822755515575 1.224145412445 -0.398317724466 -0.001371 -0.604596 -0.796531
0.825275957584 1.225007414818 -0.394379854202 0.999999 -0.000978 0.000978
