-0.020112797618 1.177570223808 0.105607211590 -0.000978 -0.000978 0.999999
-0.133253663778 1.450495958328 0.105775065720 -0.000978 -0.000978 0.999999
-0.100600920618 1.209668040276 0.105625294149 -0.000978 -0.000978 0.999999
-0.323334097862 1.448015213013 0.105768829584 -0.000978 -0.000978 0.999999
-0.339438498020 1.400727033615 0.105738870800 -0.000978 -0.000978 0.999999
-0.362196087837 1.381347179413 0.105726197362 -0.000978 -0.000978 0.999999
-0.001079849899 1.126751422882 0.105575904250 -0.000978 -0.000978 0.999999
-0.469718396664 1.276551008224 0.105658039451 -0.000978 -0.000978 0.999999
-0.313107132912 1.289909839630 0.105670243502 -0.000978 -0.000978 0.999999
-0.473456323147 1.363432765007 0.105712264776 -0.000978 -0.000978 0.999999
-0.490811139345 1.359262347221 0.105709232390 -0.000978 -0.000978 0.999999
-0.494347929955 1.389029979706 0.105727754533 -0.000978 -0.000978 0.999999
-0.182556599379 1.184872269630 0.105607777834 -0.000978 -0.000978 0.999999
-0.476434171200 1.227499723434 0.105627216399 -0.000978 -0.000978 0.999999
-0.193694427609 1.043342232704 0.105519041419 -0.000978 -0.000978 0.999999
-0.371746391058 1.094663500786 0.105546757579 -0.000978 -0.000978 0.999999
-0.383119523525 1.151729464531 0.105582140386 -0.000978 -0.000978 0.999999
-0.508193552494 1.179979443550 0.105596736073 -0.000978 -0.000978 0.999999
-0.511229872704 1.069570183754 0.105527646840 -0.000978 -0.000978 0.999999
-0.521807074547 1.191738247871 0.105603747070 -0.000978 -0.000978 0.999999
-0.378078818321 1.222209692001 0.105626322329 -0.000978 -0.000978 0.999999
-0.104960486293 1.094002246857 0.105552881956 -0.000978 -0.000978 0.999999
-0.283740401268 1.179916977882 0.105602197349 -0.000978 -0.000978 0.999999
-0.474114745855 1.032641172409 0.114077784121 0.029073 0.566231 0.823734
0.069400265813 0.999522984028 0.114996515214 0.005398 0.106875 0.994258
-0.073992855847 0.984598696232 0.110002405941 -0.022688 -0.449766 0.892858
-0.594575822353 1.009200215340 0.106076195836 -0.046613 -0.914947 0.400872
-0.537188410759 0.999561786652 0.090784274042 -0.046613 -0.914947 0.400872
-0.301192522049 0.977595210075 -0.102118358016 -0.050361 -0.997567 0.048218
-0.250828802586 0.974773406982 -0.107481904328 -0.050361 -0.997567 0.048218
0.110662668943 0.954198718071 -0.152681306005 -0.050361 -0.997567 0.048218
0.103084564209 0.957744538784 -0.086749807000 -0.050361 -0.997567 0.048218
-0.142125427723 0.961976766586 -0.258982688189 -0.050361 -0.997567 0.048218
-0.080548107624 0.953077316284 -0.379240930080 -0.050361 -0.997567 0.048218
-0.354643464088 0.986569583416 0.028337247670 -0.050361 -0.997567 0.048218
-0.270221352577 0.982453644276 0.032158970833 -0.050361 -0.997567 0.048218
0.095156788826 0.964074730873 0.036904025823 -0.050361 -0.997567 0.048218
-0.279713660479 0.974430143833 -0.145334661007 -0.050361 -0.997567 0.048218
-0.183974444866 0.976537525654 0.000357382378 -0.050361 -0.997567 0.048218
0.026003867388 0.960436880589 -0.112474963069 -0.050361 -0.997567 0.048218
-0.212001726031 0.972047984600 -0.123093560338 -0.050361 -0.997567 0.048218
-0.065381966531 0.955775618553 -0.306826919317 -0.050361 -0.997567 0.048218
0.085010558367 0.955541431904 -0.151921123266 -0.050361 -0.997567 0.048218
-0.016649544239 0.957872807980 -0.211292698979 -0.050361 -0.997567 0.048218
-0.499427855015 0.993536114693 0.019858857617 -0.050361 -0.997567 0.048218
-0.340573042631 0.984833002090 0.007055129390 -0.050361 -0.997567 0.048218
0.100803822279 0.960981845856 -0.021628167480 -0.050361 -0.997567 0.048218
-0.390660285950 0.986005246639 -0.021704716608 -0.050361 -0.997567 0.048218
-0.151655286551 0.966304540634 -0.178809866309 -0.050361 -0.997567 0.048218
-0.007783114910 0.968791127205 0.025935942307 -0.050361 -0.997567 0.048218
0.018556058407 0.966305613518 0.002061715815 -0.050361 -0.997567 0.048218
-0.275106579065 0.983638048172 0.051681246608 -0.050361 -0.997567 0.048218
-0.559876024723 0.977252125740 -0.384120494127 -0.050361 -0.997567 0.048218
-0.592374742031 0.983687281609 -0.284383416176 -0.050361 -0.997567 0.048218
-0.482564389706 0.976344525814 -0.320915639400 -0.050361 -0.997567 0.048218
-0.179157376289 0.957924306393 -0.382881015539 -0.050361 -0.997567 0.048218
-0.551308333874 0.976810336113 -0.384235292673 -0.050361 -0.997567 0.048218
-0.493350923061 0.969631373882 -0.472442179918 -0.050361 -0.997567 0.048218
-0.495063781738 0.967325508595 -0.522370457649 -0.050361 -0.997567 0.048218
-0.440392315388 0.971891105175 -0.369027405977 -0.050361 -0.997567 0.048218
-0.532621681690 0.980252861977 -0.292555063963 -0.050361 -0.997567 0.048218
0.004622161388 0.939759075642 -0.566627621651 -0.050361 -0.997567 0.048218
0.026750445366 0.940893411636 -0.519449412823 -0.050361 -0.997567 0.048218
-0.358524441719 0.974331557751 -0.231126070023 -0.050361 -0.997567 0.048218
-0.539205074310 0.984544813633 -0.210000604391 -0.050361 -0.997567 0.048218
-0.328585594893 0.970674574375 -0.275618910789 -0.050361 -0.997567 0.048218
-0.182186126709 0.951645493507 -0.517103195190 -0.050361 -0.997567 0.048218
-0.559877753258 0.971237123013 -0.509619832039 -0.050361 -0.997567 0.048218
-0.451074093580 0.980151355267 -0.208031937480 -0.050361 -0.997567 0.048218
-0.000724792480 0.941691756248 -0.531984388828 -0.050361 -0.997567 0.048218
-0.165605276823 0.954715728760 -0.435427784920 -0.050361 -0.997567 0.048218
-0.337997078896 0.972959995270 -0.237933829427 -0.050361 -0.997567 0.048218
-0.447277903557 0.966564297676 -0.487482607365 -0.050361 -0.997567 0.048218
-0.288575261831 0.955443501472 -0.550893962383 -0.050361 -0.997567 0.048218
-0.424900561571 0.975889205933 -0.269150078297 -0.050361 -0.997567 0.048218
-0.018945693970 0.943207383156 -0.519721567631 -0.050361 -0.997567 0.048218
-0.373628795147 0.959984958172 -0.546506404877 -0.050361 -0.997567 0.048218
-0.500513195992 0.908318400383 -0.583031177521 -0.000978 -0.000978 0.999999
-0.127332285047 0.820902943611 -0.583072721958 -0.000978 -0.000978 0.999999
-0.252065330744 0.708044826984 -0.583147525787 -0.000978 -0.000978 0.999999
-0.061067834496 0.504530012608 -0.583267986774 -0.000978 -0.000978 0.999999
-0.503609061241 0.892312109470 -0.583041250706 -0.000978 -0.000978 0.999999
-0.536814033985 0.914490938187 -0.583028614521 -0.000978 -0.000978 0.999999
0.100078001618 0.824810802937 -0.583062291145 -0.000978 -0.000978 0.999999
-0.369983375072 0.856720149517 -0.583058834076 -0.000978 -0.000978 0.999999
0.092578381300 0.646233856678 -0.583174109459 -0.000978 -0.000978 0.999999
-0.204824909568 0.798051893711 -0.583089709282 -0.000978 -0.000978 0.999999
-0.008833716623 0.656458497047 -0.583171308041 -0.000978 -0.000978 0.999999
-0.078599356115 0.941717803478 -0.582995593548 -0.000978 -0.000978 0.999999
0.074624449015 0.613648295403 -0.583195090294 -0.000978 -0.000978 0.999999
-0.184407889843 0.633758127689 -0.583191633224 -0.000978 -0.000978 0.999999
-0.132335752249 0.914010882378 -0.583014786243 -0.000978 -0.000978 0.999999
-0.539282858372 0.957536995411 -0.583001792431 -0.000978 -0.000978 0.999999
-0.060337349772 0.707412123680 -0.583141207695 -0.000978 -0.000978 0.999999
-0.106068402529 0.927968025208 -0.583005070686 -0.000978 -0.000978 0.999999
0.012140990235 0.862283945084 -0.583042025566 -0.000978 -0.000978 0.999999
-0.474955201149 0.845774829388 -0.583069324493 -0.000978 -0.000978 0.999999
-0.267165631056 0.696727395058 -0.583155155182 -0.000978 -0.000978 0.999999
-0.567420005798 0.558391809464 -0.583251714706 -0.000978 -0.000978 0.999999
-0.365815341473 0.547660171986 -0.583251535892 -0.000978 -0.000978 0.999999
-0.498607665300 0.453818917274 -0.583314597607 -0.000978 -0.000978 0.999999
-0.255190491676 0.579192519188 -0.583228051662 -0.000978 -0.000978 0.999999
-0.439197123051 0.531992256641 -0.583263814449 -0.000978 -0.000978 0.999999
-0.262326776981 0.602357745171 -0.583213865757 -0.000978 -0.000978 0.999999
-0.476631402969 0.648988246918 -0.583192110062 -0.000978 -0.000978 0.999999
-0.340928018093 0.637824237347 -0.583194434643 -0.000978 -0.000978 0.999999
-0.338245868683 0.624408364296 -0.583202719688 -0.000978 -0.000978 0.999999
-0.251280665398 0.477878600359 -0.583291172981 -0.000978 -0.000978 0.999999
-0.444523990154 0.697278618813 -0.583160936832 -0.000978 -0.000978 0.999999
-0.409757316113 0.565094828606 -0.583242118359 -0.000978 -0.000978 0.999999
-0.142627894878 0.388902515173 -0.583342909813 -0.000978 -0.000978 0.999999
-0.606327652931 0.851264595985 -0.583070397377 -0.000978 -0.000978 0.999999
-0.369489789009 0.668802559376 -0.583176136017 -0.000978 -0.000978 0.999999
-0.598018407822 0.865703642368 -0.583061099052 -0.000978 -0.000978 0.999999
-0.370265275240 0.717426240444 -0.583145856857 -0.000978 -0.000978 0.999999
-0.136501342058 0.450012624264 -0.583304584026 -0.000978 -0.000978 0.999999
-0.207746982574 0.568473517895 -0.583233177662 -0.000978 -0.000978 0.999999
-0.303076148033 0.655336439610 -0.583182275295 -0.000978 -0.000978 0.999999
-0.190175771713 0.540470719337 -0.583249986172 -0.000978 -0.000978 0.999999
-0.603842258453 0.643359541893 -0.583199977875 -0.000978 -0.000978 0.999999
-0.471776515245 0.731666386127 -0.583140373230 -0.000978 -0.000978 0.999999
-0.454419255257 0.165636822581 -0.583492994308 -0.000978 -0.000978 0.999999
-0.708615660667 -0.003685653210 -0.583607494831 -0.000978 -0.000978 0.999999
-0.397490978241 -0.088879048824 -0.583650052547 -0.000978 -0.000978 0.999999
-0.383286565542 -0.018003970385 -0.583605289459 -0.000978 -0.000978 0.999999
-0.635917842388 -0.449360042810 -0.583883404732 -0.000978 -0.000978 0.999999
-0.288707613945 -0.013200223446 -0.583599030972 -0.000978 -0.000978 0.999999
-0.317029029131 -0.055377334356 -0.583626389503 -0.000978 -0.000978 0.999999
-0.630026578903 0.058375895023 -0.583566069603 -0.000978 -0.000978 0.999999
-0.664201319218 -0.518895864487 -0.583927810192 -0.000978 -0.000978 0.999999
-0.523437678814 0.331517904997 -0.583391785622 -0.000978 -0.000978 0.999999
-0.657955706120 0.070570379496 -0.583559393883 -0.000978 -0.000978 0.999999
-0.507233619690 0.157118141651 -0.583500146866 -0.000978 -0.000978 0.999999
-0.512017667294 -0.398447036743 -0.583847343922 -0.000978 -0.000978 0.999999
0.004623219371 0.254586398602 -0.583421707153 -0.000978 -0.000978 0.999999
-0.489913374186 0.249795526266 -0.583441674709 -0.000978 -0.000978 0.999999
-0.366245210171 0.146869167686 -0.583501696587 -0.000978 -0.000978 0.999999
-0.264101535082 0.009217590094 -0.583584189415 -0.000978 -0.000978 0.999999
-0.375548958778 -0.041014462709 -0.583619415760 -0.000978 -0.000978 0.999999
-0.579058527946 -0.053664833307 -0.583634257317 -0.000978 -0.000978 0.999999
-0.589226126671 -0.311753720045 -0.583795905113 -0.000978 -0.000978 0.999999
-0.193320631981 0.207196071744 -0.583458065987 -0.000978 -0.000978 0.999999
-0.298519939184 0.220839425921 -0.583453178406 -0.000978 -0.000978 0.999999
-0.592799305916 -0.388381093740 -0.583843886852 -0.000978 -0.000978 0.999999
-0.344357192516 -0.006751507521 -0.583596944809 -0.000978 -0.000978 0.999999
-0.558169782162 -0.464840382338 -0.583890438080 -0.000978 -0.000978 0.999999
-0.670343935490 -0.451422303915 -0.583885908127 -0.000978 -0.000978 0.999999
-0.623741149902 -0.098132938147 -0.583663642406 -0.000978 -0.000978 0.999999
-0.415073692799 0.086379945278 -0.583541154861 -0.000978 -0.000978 0.999999
-0.508365213871 -0.329908668995 -0.583804428577 -0.000978 -0.000978 0.999999
-0.509834706783 0.300755321980 -0.583410501480 -0.000978 -0.000978 0.999999
-0.695659875870 -0.139034628868 -0.583691596985 -0.000978 -0.000978 0.999999
-0.109143085778 0.126008212566 -0.583505988121 -0.000978 -0.000978 0.999999
-0.624336361885 0.143152728677 -0.583512902260 -0.000978 -0.000978 0.999999
-0.519063889980 0.235558539629 -0.583451569080 -0.000978 -0.000978 0.999999
-0.246877104044 0.305495589972 -0.583398520947 -0.000978 -0.000978 0.999999
-0.459885448217 0.226551324129 -0.583455145359 -0.000978 -0.000978 0.999999
-0.388655573130 -0.101875096560 -0.583657920361 -0.000978 -0.000978 0.999999
-0.467328697443 -0.332353830338 -0.583804607391 -0.000978 -0.000978 0.999999
-0.390720397234 0.151552289724 -0.583499610424 -0.000978 -0.000978 0.999999
-0.329536080360 0.264437228441 -0.583427011967 -0.000978 -0.000978 0.999999
-0.559056162834 0.363977432251 -0.583372652531 -0.000978 -0.000978 0.999999
-0.171673163772 0.055643171072 -0.583552062511 -0.000978 -0.000978 0.999999
-0.378326833248 -0.258191734552 -0.583755195141 -0.000978 -0.000978 0.999999
-0.333537966013 -0.308765411377 -0.583785235882 -0.000978 -0.000978 0.999999
0.049132484943 0.033748358488 -0.583558142185 -0.000978 -0.000978 0.999999
-0.218267336488 -0.508319497108 -0.583905935287 -0.000978 -0.000978 0.999999
-0.267455339432 -0.228989556432 -0.583733141422 -0.000978 -0.000978 0.999999
-0.023969929665 -0.713249206543 -0.584027171135 -0.000978 -0.000978 0.999999
-0.257904022932 -0.282343864441 -0.583766162395 -0.000978 -0.000978 0.999999
-0.432509481907 -0.406447112560 -0.583849608898 -0.000978 -0.000978 0.999999
-0.078839570284 -0.431701004505 -0.583853244781 -0.000978 -0.000978 0.999999
-0.215871125460 -0.442721784115 -0.583864867687 -0.000978 -0.000978 0.999999
-0.209626749158 -0.278403490782 -0.583761990070 -0.000978 -0.000978 0.999999
-0.195846050978 -0.437769562006 -0.583861052990 -0.000978 -0.000978 0.999999
-0.391567468643 -0.522593855858 -0.583920776844 -0.000978 -0.000978 0.999999
-0.087981000543 -0.485424518585 -0.583887100220 -0.000978 -0.000978 0.999999
-0.016671143472 0.119153700769 -0.583507061005 -0.000978 -0.000978 0.999999
-0.561557531357 -0.657951414585 -0.584011197090 -0.000978 -0.000978 0.999999
-0.221169769764 -0.466667294502 -0.583879947662 -0.000978 -0.000978 0.999999
-0.195514932275 -0.619178950787 -0.583974361420 -0.000978 -0.000978 0.999999
-0.036261901259 -0.272405296564 -0.583752274513 -0.000978 -0.000978 0.999999
-0.280160486698 -0.210597425699 -0.583722054958 -0.000978 -0.000978 0.999999
-0.049418151379 0.136310756207 -0.583497464657 -0.000978 -0.000978 0.999999
0.065794527531 0.079684883356 -0.583528876305 -0.000978 -0.000978 0.999999
-0.238795861602 -0.572562217712 -0.583946704865 -0.000978 -0.000978 0.999999
-0.200851082802 -0.440228104591 -0.583862781525 -0.000978 -0.000978 0.999999
-0.123901277781 -0.096552878618 -0.583645462990 -0.000978 -0.000978 0.999999
-0.522566497326 -0.684925198555 -0.584026634693 -0.000978 -0.000978 0.999999
-0.086834989488 -0.374367117882 -0.583817660809 -0.000978 -0.000978 0.999999
-0.129945158958 -0.035041019320 -0.583607256413 -0.000978 -0.000978 0.999999
-0.296530395746 -0.171375468373 -0.583698153496 -0.000978 -0.000978 0.999999
0.057052068412 -0.030977278948 -0.583598256111 -0.000978 -0.000978 0.999999
-0.057497784495 -0.475547790527 -0.583879888058 -0.000978 -0.000978 0.999999
-0.051175642759 0.090068541467 -0.583526432514 -0.000978 -0.000978 0.999999
-0.433579146862 -0.325016289949 -0.583798825741 -0.000978 -0.000978 0.999999
-0.071871496737 -0.050966367126 -0.583615183830 -0.000978 -0.000978 0.999999
-0.169922083616 -0.470230579376 -0.583880424500 -0.000978 -0.000978 0.999999
-0.280971467495 -0.523658514023 -0.583917617798 -0.000978 -0.000978 0.999999
0.001222250983 -0.132533222437 -0.583663642406 -0.000978 -0.000978 0.999999
-0.543612360954 -0.495271742344 -0.583908915520 -0.000978 -0.000978 0.999999
-0.322470396757 -0.486088544130 -0.583895564079 -0.000978 -0.000978 0.999999
0.003752321005 -0.471504569054 -0.583875238895 -0.000978 -0.000978 0.999999
-0.419421821833 -0.703029215336 -0.583931922913 0.005326 0.090534 0.995879
-0.153796404600 -0.750236988068 -0.580844283104 0.005326 0.090534 0.995879
0.009913438000 -0.836848139763 -0.573669791222 0.005326 0.090534 0.995879
-0.331979244947 -0.780709922314 -0.577220201492 0.005326 0.090534 0.995879
-0.339025169611 -0.745736122131 -0.580392718315 0.005326 0.090534 0.995879
-0.654035449028 -0.697142064571 -0.583377122879 0.005326 0.090534 0.995879
-0.490194082260 -0.836838066578 -0.571336865425 0.005326 0.090534 0.995879
-0.450668931007 -0.777487099171 -0.576961755753 0.005326 0.090534 0.995879
-0.341163247824 -0.840591371059 -0.571688413620 0.005326 0.090534 0.995879
-0.449607253075 -0.812588572502 -0.573749065399 0.005326 0.090534 0.995879
-0.621802449226 -0.740835011005 -0.579522550106 0.005326 0.090534 0.995879
-0.284529507160 -0.942520618439 -0.551394701004 0.013111 0.237183 0.971377
-0.011750351638 -0.979813694954 -0.545711278915 0.013111 0.237183 0.971377
-0.148715034127 -1.014020204544 -0.535704255104 0.013111 0.237183 0.971377
-0.033971995115 -1.013849973679 -0.537166416645 0.013111 0.237183 0.971377
-0.091204784811 -0.915803849697 -0.560279786587 0.013111 0.237183 0.971377
-0.041405111551 -0.927218794823 -0.558122992516 0.013111 0.237183 0.971377
-0.204543173313 -1.037198901176 -0.529382824898 0.013111 0.237183 0.971377
-0.306239277124 -1.045217394829 -0.526177704334 0.013111 0.237183 0.971377
-0.531993746758 -1.052472591400 -0.521624267101 0.013111 0.237183 0.971377
-0.483065962791 -0.979579329491 -0.539936542511 0.013111 0.237183 0.971377
-0.546445608139 -1.042113661766 -0.523962020874 0.013111 0.237183 0.971377
-0.395321130753 -0.987091422081 -0.539196491241 0.013111 0.237183 0.971377
-0.142880856991 -1.066130518913 -0.523117005825 0.013111 0.237183 0.971377
-0.248314380646 -1.080319881439 -0.517821550369 0.040857 0.784732 0.618487
-0.262105971575 -1.079385161400 -0.518117606640 0.040857 0.784732 0.618487
0.209865421057 -1.105388641357 -0.515626788139 0.040857 0.784732 0.618487
0.010985980742 -1.132281780243 -0.468495219946 0.040857 0.784732 0.618487
0.483360409737 -1.141174197197 -0.487830668688 0.040857 0.784732 0.618487
0.434896558523 -1.151998639107 -0.470906406641 0.040857 0.784732 0.618487
0.050283584744 -1.136812925339 -0.361084908247 0.051229 0.998446 0.021955
0.259135067463 -1.147813200951 -0.344490259886 0.051229 0.998446 0.021955
0.313670277596 -1.151156306267 -0.317967712879 0.051229 0.998446 0.021955
0.472620368004 -1.157693862915 -0.391795337200 0.051229 0.998446 0.021955
0.218040123582 -1.146240353584 -0.319865912199 0.051229 0.998446 0.021955
0.124235607684 -1.139756679535 -0.400043725967 0.051229 0.998446 0.021955
0.329096078873 -1.149035573006 -0.454988062382 0.051229 0.998446 0.021955
0.065675064921 -1.135618805885 -0.454352110624 0.051229 0.998446 0.021955
0.124987252057 -1.142663359642 -0.264853984118 0.051229 0.998446 0.021955
0.186020836234 -1.145978331566 -0.255269914865 0.051229 0.998446 0.021955
0.488208591938 -1.157913088799 -0.418921709061 0.051229 0.998446 0.021955
0.021054627374 -1.142676472664 -0.014476091601 0.051229 0.998446 0.021955
0.505056917667 -1.157745599747 -0.467302262783 0.051229 0.998446 0.021955
0.450258493423 -1.157060742378 -0.367899417877 0.051229 0.998446 0.021955
0.532591640949 -1.160565972328 -0.400537848473 0.051229 0.998446 0.021955
0.293544948101 -1.152596592903 -0.201716080308 0.051229 0.998446 0.021955
0.317251324654 -1.156155228615 -0.090966030955 0.051229 0.998446 0.021955
0.562065601349 -1.169517517090 -0.049466103315 0.051229 0.998446 0.021955
0.352628171444 -1.158522367477 -0.064403817058 0.051229 0.998446 0.021955
0.515258610249 -1.168389916420 0.009862788953 0.051229 0.998446 0.021955
0.589509129524 -1.164089322090 -0.371251404285 0.051229 0.998446 0.021955
0.454032391310 -1.163181066513 -0.088507868350 0.051229 0.998446 0.021955
0.570429086685 -1.164946198463 -0.285021930933 0.051229 0.998446 0.021955
0.289517819881 -1.153253674507 -0.161073595285 0.051229 0.998446 0.021955
0.309263795614 -1.157630681992 -0.002231169492 0.051229 0.998446 0.021955
0.539635241032 -1.162579417229 -0.322568774223 0.051229 0.998446 0.021955
0.525548517704 -1.161309361458 -0.348580151796 0.051229 0.998446 0.021955
0.325848132372 -1.154895901680 -0.170972287655 0.051229 0.998446 0.021955
-0.110705599189 -1.130405783653 -0.276594430208 0.051229 0.998446 0.021955
-0.104214683175 -1.132220625877 -0.206628590822 0.051229 0.998446 0.021955
-0.247625470161 -1.120116353035 -0.432982146740 0.051229 0.998446 0.021955
-0.191321626306 -1.123810172081 -0.394001185894 0.051229 0.998446 0.021955
-0.310398161411 -1.118413329124 -0.362604230642 0.051229 0.998446 0.021955
-0.268614709377 -1.118783831596 -0.445414721966 0.051229 0.998446 0.021955
-0.525245189667 -1.105570673943 -0.452325165272 0.051229 0.998446 0.021955
0.007754330058 -1.135199308395 -0.334940791130 0.051229 0.998446 0.021955
-0.056733064353 -1.133710980415 -0.250327289104 0.051229 0.998446 0.021955
-0.011897876859 -1.137579679489 -0.175580248237 0.051229 0.998446 0.021955
-0.037896536291 -1.134876966476 -0.240577965975 0.051229 0.998446 0.021955
-0.251281261444 -1.120876669884 -0.388371407986 0.051229 0.998446 0.021955
-0.145823374391 -1.131691932678 -0.131694465876 0.051229 0.998446 0.021955
-0.077628023922 -1.135456800461 -0.117896839976 0.051229 0.998446 0.021955
-0.519774258137 -1.088805198669 -0.489428371191 0.040857 0.784732 0.618487
-0.506809055805 -1.102188706398 -0.473232120275 0.040857 0.784732 0.618487
-0.508961379528 -1.115263342857 -0.034571107477 0.051229 0.998446 0.021955
-0.420817553997 -1.114878535271 -0.264224171638 0.051229 0.998446 0.021955
-0.552208185196 -1.108238101006 -0.261902630329 0.051229 0.998446 0.021955
-0.504849851131 -1.115518212318 -0.032427575439 0.051229 0.998446 0.021955
-0.414052367210 -1.116797447205 -0.190021216869 0.051229 0.998446 0.021955
-0.533309757710 -1.109448313713 -0.250212877989 0.051229 0.998446 0.021955
-0.164434403181 -1.131272435188 -0.106803871691 0.051229 0.998446 0.021955
-0.534424304962 -1.113932728767 -0.036182709038 0.051229 0.998446 0.021955
-0.340118795633 -1.123631000519 -0.045365881175 0.051229 0.998446 0.021955
-0.119021460414 -1.134760141373 -0.051400169730 0.051229 0.998446 0.021955
-0.433165431023 -1.119428277016 -0.020159063861 0.051229 0.998446 0.021955
-0.426596701145 -1.114910721779 -0.248843550682 0.051229 0.998446 0.021955
-0.259253203869 -1.126731038094 -0.093306750059 0.051229 0.998446 0.021955
-0.288591057062 -1.126946449280 -0.012751897797 0.051229 0.998446 0.021955
0.390006363392 -0.995437800884 -0.546893596649 0.013111 0.237183 0.971377
0.451620131731 -1.058502554893 -0.532338261604 0.013111 0.237183 0.971377
0.412959247828 -1.014288544655 -0.542599081993 0.013111 0.237183 0.971377
0.388819634914 -1.072658061981 -0.528120577335 0.013111 0.237183 0.971377
0.514865994453 -1.055034637451 -0.533965229988 0.013111 0.237183 0.971377
0.566393077374 -0.984267115593 -0.551795244217 0.013111 0.237183 0.971377
0.486024022102 -1.085029840469 -0.526321053505 0.013111 0.237183 0.971377
0.142506733537 -0.938224613667 -0.557727158070 0.013111 0.237183 0.971377
0.187715739012 -1.011096239090 -0.540581822395 0.013111 0.237183 0.971377
0.277972042561 -1.010790824890 -0.541774392128 0.013111 0.237183 0.971377
0.241160914302 -0.964636564255 -0.552532255650 0.013111 0.237183 0.971377
0.086293429136 -1.039197921753 -0.532497406006 0.013111 0.237183 0.971377
0.355450540781 -0.987458288670 -0.548403441906 0.013111 0.237183 0.971377
0.592142045498 -0.873862981796 -0.573005974293 0.005326 0.090534 0.995879
0.646134138107 -0.792616665363 -0.580706357956 0.005326 0.090534 0.995879
0.405007988214 -0.841944992542 -0.575054645538 0.005326 0.090534 0.995879
0.330349862576 -0.863535821438 -0.572725653648 0.005326 0.090534 0.995879
0.641878485680 -0.873759269714 -0.573248565197 0.005326 0.090534 0.995879
0.255420684814 -0.770317316055 -0.580918252468 0.005326 0.090534 0.995879
0.268377661705 -0.760317921638 -0.581895411015 0.005326 0.090534 0.995879
0.101040631533 -0.731350302696 -0.583765745163 0.005326 0.090534 0.995879
0.734709978104 -0.766863167286 -0.583482086658 0.005326 0.090534 0.995879
0.154681921005 -0.790852546692 -0.578563809395 0.005326 0.090534 0.995879
0.492997050285 -0.795797586441 -0.579696893692 0.005326 0.090534 0.995879
0.498981535435 -0.505049943924 -0.583887994289 -0.000978 -0.000978 0.999999
0.483025640249 -0.390118420124 -0.583816349506 -0.000978 -0.000978 0.999999
0.400907158852 -0.237871825695 -0.583722352982 -0.000978 -0.000978 0.999999
0.583706200123 -0.562085330486 -0.583922386169 -0.000978 -0.000978 0.999999
0.504217267036 -0.726972222328 -0.584026753902 -0.000978 -0.000978 0.999999
0.385893136263 -0.738367021084 -0.584035634995 -0.000978 -0.000978 0.999999
0.519072771072 -0.598011255264 -0.583945810795 -0.000978 -0.000978 0.999999
0.487123578787 -0.565728068352 -0.583926141262 -0.000978 -0.000978 0.999999
0.093646332622 0.158561527729 -0.583479046822 -0.000978 -0.000978 0.999999
0.303083747625 -0.116755962372 -0.583648085594 -0.000978 -0.000978 0.999999
0.308996260166 -0.223212644458 -0.583714544773 -0.000978 -0.000978 0.999999
0.096753075719 0.012910784222 -0.583570122719 -0.000978 -0.000978 0.999999
0.095123112202 -0.471671432257 -0.583873271942 -0.000978 -0.000978 0.999999
0.275314569473 -0.703749716282 -0.584015727043 -0.000978 -0.000978 0.999999
0.452232778072 -0.712111115456 -0.584018290043 -0.000978 -0.000978 0.999999
0.380335092545 -0.470453590155 -0.583868145943 -0.000978 -0.000978 0.999999
0.574068009853 -0.715753734112 -0.584018647671 -0.000978 -0.000978 0.999999
0.043622791767 -0.474825084209 -0.583875954151 -0.000978 -0.000978 0.999999
0.123301535845 -0.225268393755 -0.583718657494 -0.000978 -0.000978 0.999999
0.639686048031 -0.606809496880 -0.583949565887 -0.000978 -0.000978 0.999999
0.289230048656 -0.239916935563 -0.583725333214 -0.000978 -0.000978 0.999999
0.610193252563 -0.701667487621 -0.584009349346 -0.000978 -0.000978 0.999999
0.629396617413 -0.512113392353 -0.583890497684 -0.000978 -0.000978 0.999999
0.117961227894 0.059252373874 -0.583540737629 -0.000978 -0.000978 0.999999
0.182468175888 -0.505071520805 -0.583892822266 -0.000978 -0.000978 0.999999
0.286616027355 -0.476605892181 -0.583873391151 -0.000978 -0.000978 0.999999
0.217578426003 0.033369950950 -0.583555519581 -0.000978 -0.000978 0.999999
0.132393002510 -0.581408739090 -0.583941340446 -0.000978 -0.000978 0.999999
0.039864540100 -0.587638795376 -0.583946645260 -0.000978 -0.000978 0.999999
0.149598598480 -0.222174376249 -0.583716332912 -0.000978 -0.000978 0.999999
0.204345107079 -0.350117266178 -0.583795547485 -0.000978 -0.000978 0.999999
0.114591836929 -0.638487994671 -0.583977282047 -0.000978 -0.000978 0.999999
0.258449792862 -0.232634186745 -0.583721280098 -0.000978 -0.000978 0.999999
0.451914101839 -0.611176311970 -0.583955109119 -0.000978 -0.000978 0.999999
0.217049866915 -0.015379843302 -0.583585977554 -0.000978 -0.000978 0.999999
0.337011456490 -0.323515176773 -0.583776950836 -0.000978 -0.000978 0.999999
0.431099712849 -0.537379384041 -0.583909273148 -0.000978 -0.000978 0.999999
0.212839066982 -0.641019761562 -0.583977401257 -0.000978 -0.000978 0.999999
0.193168476224 -0.169025585055 -0.583682477474 -0.000978 -0.000978 0.999999
0.643339514732 -0.620406448841 -0.583957970142 -0.000978 -0.000978 0.999999
0.273598849773 -0.382899940014 -0.583814978600 -0.000978 -0.000978 0.999999
0.861706972122 0.223282113671 -0.583426833153 -0.000978 -0.000978 0.999999
0.460719764233 -0.075531095266 -0.583619892597 -0.000978 -0.000978 0.999999
0.538296163082 -0.203070044518 -0.583698511124 -0.000978 -0.000978 0.999999
0.850768268108 0.147025346756 -0.583474695683 -0.000978 -0.000978 0.999999
0.534206032753 -0.149552941322 -0.583665072918 -0.000978 -0.000978 0.999999
0.766891062260 0.040254086256 -0.583542764187 -0.000978 -0.000978 0.999999
0.567697525024 -0.234395176172 -0.583717644215 -0.000978 -0.000978 0.999999
0.713127553463 -0.319363057613 -0.583768546581 -0.000978 -0.000978 0.999999
0.640020012856 -0.234010010958 -0.583716273308 -0.000978 -0.000978 0.999999
0.841129004955 0.199311986566 -0.583442091942 -0.000978 -0.000978 0.999999
0.780551731586 0.180616050959 -0.583454728127 -0.000978 -0.000978 0.999999
0.342570692301 -0.001941919327 -0.583575665951 -0.000978 -0.000978 0.999999
0.192483201623 0.248786330223 -0.583421111107 -0.000978 -0.000978 0.999999
0.296995848417 0.120439037681 -0.583499789238 -0.000978 -0.000978 0.999999
0.704138934612 0.221733152866 -0.583430171013 -0.000978 -0.000978 0.999999
0.483727753162 0.096701338887 -0.583511829376 -0.000978 -0.000978 0.999999
0.531673014164 -0.255325317383 -0.583731293678 -0.000978 -0.000978 0.999999
0.127455249429 0.296376585960 -0.583392322063 -0.000978 -0.000978 0.999999
0.578481376171 0.046541988850 -0.583541750908 -0.000978 -0.000978 0.999999
0.731957376003 -0.559301137924 -0.583918392658 -0.000978 -0.000978 0.999999
0.159357979894 0.299841791391 -0.583389639854 -0.000978 -0.000978 0.999999
0.390686720610 0.111957758665 -0.583503663540 -0.000978 -0.000978 0.999999
0.627810478210 0.124756172299 -0.583492040634 -0.000978 -0.000978 0.999999
0.782679498196 -0.060005843639 -0.583605229855 -0.000978 -0.000978 0.999999
0.745087206364 0.271639615297 -0.583398282528 -0.000978 -0.000978 0.999999
0.740531563759 -0.008074373007 -0.583573400974 -0.000978 -0.000978 0.999999
0.777660667896 -0.344068974257 -0.583783090115 -0.000978 -0.000978 0.999999
0.724537193775 -0.015502065420 -0.583578288555 -0.000978 -0.000978 0.999999
0.627942085266 -0.312308460474 -0.583765506744 -0.000978 -0.000978 0.999999
0.725974261761 -0.360254675150 -0.583793997765 -0.000978 -0.000978 0.999999
0.637852132320 -0.018673837185 -0.583581566811 -0.000978 -0.000978 0.999999
0.514195263386 -0.149356782436 -0.583665251732 -0.000978 -0.000978 0.999999
0.141540616751 0.258438318968 -0.583415865898 -0.000978 -0.000978 0.999999
0.523321390152 -0.104485511780 -0.583637058735 -0.000978 -0.000978 0.999999
0.454851537943 -0.206878989935 -0.583702206612 -0.000978 -0.000978 0.999999
0.395526260138 -0.059712290764 -0.583610951900 -0.000978 -0.000978 0.999999
0.160453900695 0.291003525257 -0.583395123482 -0.000978 -0.000978 0.999999
0.570645153522 -0.100912332535 -0.583634138107 -0.000978 -0.000978 0.999999
0.520898699760 0.201940715313 -0.583445370197 -0.000978 -0.000978 0.999999
0.829322397709 0.152866438031 -0.583471357822 -0.000978 -0.000978 0.999999
0.809344112873 -0.059108287096 -0.583604276180 -0.000978 -0.000978 0.999999
0.598126530647 0.063939124346 -0.583530545235 -0.000978 -0.000978 0.999999
0.823277175426 0.883244276047 -0.583015084267 -0.000978 -0.000978 0.999999
0.579542338848 0.429278105497 -0.583302319050 -0.000978 -0.000978 0.999999
0.315183520317 0.388326555490 -0.583331942558 -0.000978 -0.000978 0.999999
0.532008588314 0.664536178112 -0.583156108856 -0.000978 -0.000978 0.999999
0.472926557064 0.585652232170 -0.583206355572 -0.000978 -0.000978 0.999999
0.699469447136 0.318948298693 -0.583369433880 -0.000978 -0.000978 0.999999
0.615347504616 0.594484090805 -0.583198606968 -0.000978 -0.000978 0.999999
0.838437318802 0.580509245396 -0.583203911781 -0.000978 -0.000978 0.999999
0.774206399918 0.482792913914 -0.583265960217 -0.000978 -0.000978 0.999999
0.786425054073 0.666668832302 -0.583150923252 -0.000978 -0.000978 0.999999
0.614548683167 0.399467378855 -0.583320438862 -0.000978 -0.000978 0.999999
0.490086108446 0.433275371790 -0.583301186562 -0.000978 -0.000978 0.999999
0.761914670467 0.785404860973 -0.583077132702 -0.000978 -0.000978 0.999999
0.499384522438 0.578827142715 -0.583210170269 -0.000978 -0.000978 0.999999
0.510130405426 0.500714004040 -0.583258807659 -0.000978 -0.000978 0.999999
0.601522028446 0.360545396805 -0.583344936371 -0.000978 -0.000978 0.999999
0.210340023041 0.351763069630 -0.583356380463 -0.000978 -0.000978 0.999999
0.765616297722 0.436016291380 -0.583295285702 -0.000978 -0.000978 0.999999
0.859153687954 0.336337119341 -0.583356142044 -0.000978 -0.000978 0.999999
0.591895103455 0.632789731026 -0.583175003529 -0.000978 -0.000978 0.999999
0.164692223072 0.350000590086 -0.583358228207 -0.000978 -0.000978 0.999999
0.491209745407 0.580127835274 -0.583209514618 -0.000978 -0.000978 0.999999
0.582468271255 0.649658858776 -0.583164632320 -0.000978 -0.000978 0.999999
0.515612483025 0.359838515520 -0.583346724510 -0.000978 -0.000978 0.999999
0.313573509455 0.684412002563 -0.583146870136 -0.000978 -0.000978 0.999999
0.256093204021 0.478347986937 -0.583276629448 -0.000978 -0.000978 0.999999
0.257807523012 0.589675188065 -0.583206951618 -0.000978 -0.000978 0.999999
0.395865708590 0.669093132019 -0.583155274391 -0.000978 -0.000978 0.999999
0.304186522961 0.569395422935 -0.583218932152 -0.000978 -0.000978 0.999999
0.168282568455 0.841683149338 -0.583050668240 -0.000978 -0.000978 0.999999
0.146713092923 0.922642350197 -0.583000302315 -0.000978 -0.000978 0.999999
0.613423407078 0.894869506359 -0.583010852337 -0.000978 -0.000978 0.999999
0.114094674587 0.493166357279 -0.583269417286 -0.000978 -0.000978 0.999999
0.319071948528 0.799028158188 -0.583075165749 -0.000978 -0.000978 0.999999
0.338442862034 0.626739263535 -0.583182632923 -0.000978 -0.000978 0.999999
0.128994613886 0.648602128029 -0.583172023296 -0.000978 -0.000978 0.999999
0.167848140001 0.830448746681 -0.583057701588 -0.000978 -0.000978 0.999999
0.112157016993 0.613805234432 -0.583194017410 -0.000978 -0.000978 0.999999
0.108364641666 0.411023110151 -0.583320915699 -0.000978 -0.000978 0.999999
0.123603045940 0.474191695452 -0.583281159401 -0.000978 -0.000978 0.999999
0.350574880838 0.565998435020 -0.583220422268 -0.000978 -0.000978 0.999999
0.110218703747 0.361275553703 -0.583352029324 -0.000978 -0.000978 0.999999
0.294995248318 0.858022153378 -0.583038568497 -0.000978 -0.000978 0.999999
0.329504370689 0.842881619930 -0.583047509193 -0.000978 -0.000978 0.999999
0.671836197376 0.831137299538 -0.583049893379 -0.000978 -0.000978 0.999999
0.131218135357 0.562588214874 -0.583225786686 -0.000978 -0.000978 0.999999
0.575971662998 0.910113215446 -0.577607810497 -0.050361 -0.997567 0.048218
0.669889450073 0.925185382366 -0.163248255849 -0.050361 -0.997567 0.048218
0.824762761593 0.904561996460 -0.428817510605 -0.050361 -0.997567 0.048218
0.821400821209 0.913325369358 -0.249552652240 -0.050361 -0.997567 0.048218
0.705347895622 0.913351297379 -0.372443139553 -0.050361 -0.997567 0.048218
0.493543863297 0.917502284050 -0.511109471321 -0.050361 -0.997567 0.048218
0.628830015659 0.920166432858 -0.311635583639 -0.050361 -0.997567 0.048218
0.538696348667 0.916785120964 -0.478049367666 -0.050361 -0.997567 0.048218
0.791037261486 0.926150202751 -0.014266442508 -0.050361 -0.997567 0.048218
0.706593453884 0.914728462696 -0.342385590076 -0.050361 -0.997567 0.048218
0.795383214951 0.901624441147 -0.521355271339 -0.050361 -0.997567 0.048218
0.697078585625 0.923975467682 -0.159574404359 -0.050361 -0.997567 0.048218
0.723451972008 0.910055518150 -0.421951621771 -0.050361 -0.997567 0.048218
0.613079130650 0.913898944855 -0.459153413773 -0.050361 -0.997567 0.048218
0.327944934368 0.928017675877 -0.467842996120 -0.050361 -0.997567 0.048218
0.632128477097 0.917885363102 -0.355720072985 -0.050361 -0.997567 0.048218
0.775567591190 0.928379714489 0.015798047185 -0.050361 -0.997567 0.048218
0.682532787323 0.912949800491 -0.405085861683 -0.050361 -0.997567 0.048218
0.688943624496 0.926656126976 -0.112295210361 -0.050361 -0.997567 0.048218
0.661706268787 0.921375811100 -0.251435220242 -0.050361 -0.997567 0.048218
0.675912797451 0.917793393135 -0.311069726944 -0.050361 -0.997567 0.048218
0.816167950630 0.902218461037 -0.486856192350 -0.050361 -0.997567 0.048218
0.800759792328 0.899092733860 -0.568458497524 -0.050361 -0.997567 0.048218
0.331101506948 0.923280417919 -0.563324689865 -0.050361 -0.997567 0.048218
0.516316354275 0.926518201828 -0.298777520657 -0.050361 -0.997567 0.048218
0.522102355957 0.937082767487 -0.072199136019 -0.050361 -0.997567 0.048218
0.352081239223 0.944953322411 -0.088816724718 -0.050361 -0.997567 0.048218
0.310924679041 0.934211552143 -0.356714785099 -0.050361 -0.997567 0.048218
0.255482375622 0.937232851982 -0.352643013000 -0.050361 -0.997567 0.048218
0.217566341162 0.957064807415 0.020815961063 -0.050361 -0.997567 0.048218
0.413612186909 0.944668769836 -0.029310636222 -0.050361 -0.997567 0.048218
0.161067157984 0.957069098949 -0.039186373353 -0.050361 -0.997567 0.048218
0.216656893492 0.949091732502 -0.146506443620 -0.050361 -0.997567 0.048218
0.261180520058 0.947093069553 -0.140852421522 -0.050361 -0.997567 0.048218
0.223197579384 0.959719955921 0.082203887403 -0.050361 -0.997567 0.048218
0.172883808613 0.950471580029 -0.164273858070 -0.050361 -0.997567 0.048218
0.272284030914 0.938991069794 -0.298088818789 -0.050361 -0.997567 0.048218
0.463100314140 0.931858718395 -0.243952035904 -0.050361 -0.997567 0.048218
0.352103054523 0.949986159801 0.016214199364 -0.050361 -0.997567 0.048218
0.600746154785 0.930932998657 -0.116867363453 -0.050361 -0.997567 0.048218
0.275736033916 0.934575080872 -0.386554867029 -0.050361 -0.997567 0.048218
0.248474448919 0.958277046680 0.078982301056 -0.050361 -0.997567 0.048218
0.124634921551 0.941028475761 -0.412617594004 -0.050361 -0.997567 0.048218
0.128061205149 0.951050400734 -0.199868619442 -0.050361 -0.997567 0.048218
0.143817916512 0.962649881840 0.058908235282 -0.050361 -0.997567 0.048218
0.331529945135 0.945559084415 -0.098035983741 -0.050361 -0.997567 0.048218
0.227910727262 0.941601872444 -0.290811061859 -0.050361 -0.997567 0.048218
0.549699246883 0.935238242149 -0.081333421171 -0.050361 -0.997567 0.048218
0.393224358559 0.945399761200 -0.035742685199 -0.050361 -0.997567 0.048218
0.726877629757 0.929599344730 -0.010542310774 -0.050361 -0.997567 0.048218
0.430704832077 0.951454639435 0.093504793942 -0.046613 -0.914947 0.400872
0.343154847622 0.963029682636 0.109696604311 -0.046613 -0.914947 0.400872
0.152049988508 0.977375686169 0.112168587744 -0.022688 -0.449766 0.892858
0.255528777838 0.988016605377 0.115210816264 0.005398 0.106875 0.994258
0.640159726143 0.968182206154 0.115233138204 0.005398 0.106875 0.994258
0.128979414701 1.009862661362 0.108623474836 0.029073 0.566231 0.823734
0.521263122559 0.991487860680 0.107507072389 0.029073 0.566231 0.823734
0.473434001207 1.059945106506 0.105545945466 -0.000978 -0.000978 0.999999
0.659380853176 1.162049412727 0.105614416301 -0.000978 -0.000978 0.999999
0.504266858101 1.117039203644 0.105582401156 -0.000978 -0.000978 0.999999
0.761904478073 1.065252780914 0.105556480587 -0.000978 -0.000978 0.999999
0.774950623512 1.055563449860 0.105550751090 -0.000978 -0.000978 0.999999
0.374442994595 1.054170727730 0.105539858341 -0.000978 -0.000978 0.999999
0.736601352692 1.029351472855 0.105533406138 -0.000978 -0.000978 0.999999
0.507551670074 1.033345341682 0.105530172586 -0.000978 -0.000978 0.999999
0.766316235065 1.132118463516 0.105598382652 -0.000978 -0.000978 0.999999
0.727047622204 1.260347962379 0.105677552521 -0.000978 -0.000978 0.999999
0.762170970440 1.261262178421 0.105678997934 -0.000978 -0.000978 0.999999
0.769032239914 1.306311964989 0.105707332492 -0.000978 -0.000978 0.999999
0.560128808022 1.162792325020 0.105612397194 -0.000978 -0.000978 0.999999
0.427026987076 1.159976243973 0.105607308447 -0.000978 -0.000978 0.999999
0.574187755585 1.318585276604 0.105710141361 -0.000978 -0.000978 0.999999
0.592939436436 1.377391219139 0.105747371912 -0.000978 -0.000978 0.999999
0.210064351559 1.079943895340 0.105551861227 -0.000978 -0.000978 0.999999
0.478222608566 1.310091614723 0.105702437460 -0.000978 -0.000978 0.999999
0.478417336941 1.223807215691 0.105648495257 -0.000978 -0.000978 0.999999
0.541867017746 1.491630554199 0.105817526579 -0.000978 -0.000978 0.999999
0.228693842888 1.181598424911 0.105615876615 -0.000978 -0.000978 0.999999
0.440277904272 1.383133172989 0.105747155845 -0.000978 -0.000978 0.999999
0.240820080042 1.163898944855 0.105605117977 -0.000978 -0.000978 0.999999
0.584868609905 1.516775012016 0.105834320188 -0.000978 -0.000978 0.999999
0.401251018047 1.422859311104 0.105771027505 -0.000978 -0.000978 0.999999
-0.589512348175 -0.813586890697 -0.573886930943 0.802541 0.569789 0.176831
-0.612062513828 -0.849053204060 -0.369481593370 0.779116 0.594710 0.198237
-0.614615082741 -0.836059510708 -0.398442924023 0.779116 0.594710 0.198237
-0.638623774052 -0.775598227978 -0.490716248751 0.675026 0.706205 0.213576
-0.682591438293 -0.739923834801 -0.468809723854 0.701931 0.686504 0.189753
-0.676060497761 -0.819758236408 -0.321091055870 0.609843 0.596329 0.521999
-0.634465456009 -0.921597480774 -0.267362326384 0.711632 0.508309 0.484976
-0.671085238457 -0.935285449028 -0.207018941641 0.611311 0.434747 0.661282
-0.685085177422 -0.880881428719 -0.241815522313 0.369577 0.652098 0.661953
-0.605760037899 -1.055628538132 -0.201324075460 0.678276 0.344858 0.648857
-0.574403643608 -0.935754299164 -0.330422759056 0.779939 0.360096 0.511885
-0.588210523129 -0.989268600941 -0.271893084049 0.779939 0.360096 0.511885
-0.625183343887 -0.843051493168 -0.359174787998 0.647958 0.543612 0.533514
-0.576486527920 -1.097549438477 -0.228359803557 0.994870 0.011882 0.100459
-0.570584177971 -1.036356687546 -0.293769568205 0.994870 0.011882 0.100459
-0.564159631729 -0.920327603817 -0.367770373821 0.991388 0.016653 0.129891
-0.553421080112 -0.937902092934 -0.447532057762 0.991388 0.016653 0.129891
-0.554994642735 -1.073794364929 -0.433732420206 0.994980 -0.016276 0.098739
-0.555413901806 -1.087473034859 -0.431889921427 0.994980 -0.016276 0.098739
-0.559538006783 -1.091100573540 -0.391291826963 0.994980 -0.016276 0.098739
0.611903309822 -0.966253340244 -0.355520367622 -0.588786 0.609031 0.531426
0.641640603542 -0.911220490932 -0.422466099262 -0.712708 0.672512 0.199435
0.632903516293 -0.916732311249 -0.435251653194 -0.712708 0.672512 0.199435
0.602596163750 -0.942385792732 -0.466170042753 -0.739031 0.650286 0.175960
0.596483290195 -0.994475305080 -0.375495672226 -0.984498 0.116601 0.131026
0.580247461796 -0.983385562897 -0.508414328098 -0.984498 0.116601 0.131026
0.576603949070 -1.125897765160 -0.417844533920 -0.991452 0.083866 0.099949
0.577423632145 -1.088884115219 -0.440956681967 -0.991452 0.083866 0.099949
0.592048466206 -1.089861273766 -0.318187326193 -0.988759 0.111426 0.099697
0.624134838581 -1.013992786407 -0.291687697172 -0.738107 0.437580 0.513538
0.620294272900 -1.156461834908 -0.183654800057 -0.638915 0.413221 0.648873
0.688950777054 -1.035296559334 -0.197504386306 -0.563285 0.496027 0.660809
0.738619446754 -1.016959547997 -0.182015329599 -0.256187 0.586244 0.768561
0.756654739380 -0.915683627129 -0.265091121197 -0.300902 0.687086 0.661340
0.744905948639 -0.843186974525 -0.355672061443 -0.546495 0.654112 0.522954
0.763271450996 -0.800272881985 -0.423863917589 -0.628126 0.754059 0.191970
0.699928462505 -0.811733305454 -0.570458173752 -0.598516 0.771730 0.214971
0.691534101963 -0.840701520443 -0.489942878485 -0.598516 0.771730 0.214971
-0.520977616310 -0.950214087963 0.090838253498 0.019099 0.345052 0.938389
-0.541830003262 -0.790975272655 0.013260482810 0.009570 0.561910 0.827143
-0.254227161407 -0.826743602753 0.022799082100 0.094301 0.799385 0.593373
-0.234277054667 -0.811474740505 -0.000827552751 0.091320 0.795787 0.598652
-0.125596657395 -0.811996281147 -0.015769775957 0.082398 0.793622 0.602806
-0.089945875108 -0.843073964119 0.020405745134 0.058388 0.796064 0.602389
0.010056851432 -0.845236539841 0.013411345892 0.058287 0.794699 0.604199
0.041802074760 -0.829325020313 -0.009501848370 0.020846 0.796310 0.604529
0.065677680075 -0.889775454998 0.049297675490 0.014941 0.528352 0.848894
0.021418251097 -0.905574858189 0.059762816876 0.012196 0.527155 0.849682
0.001470463583 -0.881540656090 0.045767240226 0.037295 0.526274 0.849497
-0.105032823980 -0.874438405037 0.046487167478 0.051589 0.525654 0.849133
-0.194828271866 -0.854671478271 0.039868809283 0.057472 0.531263 0.845255
-0.232751250267 -0.870669186115 0.052375495434 0.051681 0.532175 0.845055
-0.219734251499 -0.905487895012 0.073564499617 0.060513 0.538984 0.840140
-0.438930481672 -0.809811413288 0.023834777996 0.023361 0.551056 0.834141
-0.460976749659 -0.858140707016 0.056959588081 0.040414 0.561622 0.826406
-0.485863715410 -0.937626361847 0.086599059403 0.011195 0.314715 0.949120
-0.437246829271 -1.051813602448 0.112361915410 -0.028816 0.167134 0.985513
-0.485509365797 -1.028787970543 0.107961237431 0.015036 0.188526 0.981953
-0.556966483593 -1.080861687660 0.118553064764 -0.007734 0.133679 0.990994
-0.610065162182 -0.888038158417 0.068497583270 0.051818 0.386644 0.920772
-0.597442328930 -0.775471508503 0.000754065346 0.078539 0.823947 0.561198
-0.151204839349 -0.796120107174 -0.041202690452 0.098656 0.928444 0.358133
-0.003442598507 -0.812476515770 -0.032272975892 0.067806 0.929335 0.362959
-0.003419991583 -0.798717617989 -0.067508347332 0.067806 0.929335 0.362959
0.039288818836 -0.821959376335 -0.019140405580 0.023611 0.798609 0.601387
0.244063809514 -0.947391748428 0.080526664853 0.003616 0.268823 0.963183
0.130073651671 -0.995695412159 0.094007715583 0.008435 0.261476 0.965173
-0.046405956149 -0.954105556011 0.084807358682 0.018222 0.258754 0.965771
-0.102999463677 -0.941784977913 0.082669444382 0.023173 0.262221 0.964730
-0.178354948759 -1.022604584694 0.106805562973 0.030754 0.266946 0.963221
-0.259007722139 -0.961283624172 0.091590695083 0.015837 0.266793 0.963624
-0.279433280230 -0.940825581551 0.086248897016 0.028441 0.275753 0.960808
-0.325923770666 -0.956505656242 0.091769918799 -0.003643 0.278086 0.960549
-0.358418822289 -1.028436779976 0.109273597598 -0.014654 0.149923 0.988589
-0.413894236088 -1.107369065285 0.122276112437 0.012513 0.164939 0.986224
-0.341652482748 -1.216526508331 0.134359836578 -0.007500 0.095363 0.995414
-0.412879586220 -1.222588658333 0.135755196214 0.025311 0.108947 0.993725
-0.329820781946 -1.279526114464 0.140385821462 0.018373 0.094028 0.995400
-0.273172080517 -1.176547288895 0.130287602544 0.003176 0.085761 0.996311
-0.264990866184 -1.110316038132 0.121189102530 0.016914 0.147713 0.988886
-0.205279245973 -1.171740651131 0.129336729646 0.016785 0.137640 0.990340
-0.045596864074 -1.144763112068 0.123330920935 0.012206 0.134261 0.990871
-0.015699082986 -1.138280153275 0.122146524489 0.009968 0.131794 0.991227
0.101500622928 -1.131126880646 0.120713368058 0.003307 0.133390 0.991058
0.152866721153 -1.194309949875 0.129298806190 -0.003307 0.133390 0.991058
0.189161062241 -1.081012964249 0.113776408136 0.003320 0.138321 0.990382
0.283438920975 -1.175214409828 0.126916915178 -0.001104 0.138020 0.990429
0.338896393776 -1.066980600357 0.110660314560 0.012345 0.149262 0.988721
0.258729934692 -0.967605292797 0.086149327457 0.001203 0.268202 0.963362
0.284685879946 -0.902508080006 0.056475054473 -0.004058 0.534243 0.845321
0.328294783831 -0.902297854424 0.056460887194 0.001353 0.542465 0.840077
0.300943315029 -0.841765820980 0.005129799247 -0.012420 0.801756 0.597522
0.372945487499 -0.901560962200 0.055744074285 0.006789 0.541774 0.840497
0.357367187738 -0.931165099144 0.074479363859 0.031247 0.291218 0.956146
0.425281465054 -1.054247260094 0.106570854783 0.028762 0.164518 0.985955
0.390399605036 -1.119333744049 0.118160977960 0.005587 0.148611 0.988880
0.423716872931 -1.239175677299 0.133124843240 0.014182 0.110181 0.993810
0.370175331831 -1.325334191322 0.141924381256 -0.009664 0.095565 0.995376
0.314194589853 -1.310285806656 0.140201926231 0.005347 0.093041 0.995648
0.291010379791 -1.346003055573 0.143139392138 -0.007443 0.086123 0.996257
0.128308430314 -1.304016590118 0.138764992356 -0.005285 0.081382 0.996669
0.092541880906 -1.243617415428 0.133841529489 0.001055 0.081212 0.996696
0.013602851890 -1.226833462715 0.132610037923 0.001053 0.078950 0.996878
-0.045939207077 -1.246521949768 0.134501576424 0.007400 0.079281 0.996825
-0.079604849219 -1.246468424797 0.134716525674 0.007415 0.079448 0.996811
-0.112289860845 -1.194917321205 0.130818784237 0.007415 0.079448 0.996811
-0.205498769879 -1.333700656891 0.143204122782 0.013883 0.084363 0.996338
0.488496989012 -1.138175129890 0.119694896042 0.010192 0.164207 0.986373
0.457940995693 -1.002335786819 0.093032851815 0.023622 0.292169 0.956075
0.522508323193 -0.919719040394 0.063989236951 0.049949 0.311219 0.949025
0.450700581074 -0.891179561615 0.047820094973 0.020567 0.549828 0.835025
0.591010332108 -0.844837963581 0.010121972300 0.006853 0.812787 0.582520
0.554410159588 -0.897949039936 0.049354743212 0.023468 0.561853 0.826904
