-0.912439703941 -1.485902547836 -0.076637178659 -0.438637 0.356293 0.825017
-0.924724400043 -1.330105662346 -0.188526853919 -0.551676 0.669054 0.498017
-0.951230943203 -1.633528351784 -0.134197488427 -0.999999 0.000978 0.000978
-0.951230943203 -1.899965047836 -0.303924977779 -0.999999 0.000978 0.000978
-0.951230943203 -1.880069375038 -0.221662893891 -0.999999 0.000978 0.000978
-0.951230943203 -1.845510005951 -0.230818077922 -0.999999 0.000978 0.000978
-0.951230943203 -1.816094875336 -0.191861569881 -0.999999 0.000978 0.000978
-0.951230943203 -1.649532914162 -0.171633750200 -0.999999 0.000978 0.000978
-0.951230943203 -1.929718852043 -0.507891654968 -0.999999 0.000978 0.000978
-0.951230943203 -1.914504170418 -0.575563967228 -0.999999 0.000978 0.000978
-0.951230943203 -1.486968040466 -0.767812490463 -0.999999 0.000978 0.000978
-0.951230943203 -1.330612063408 -0.492068558931 -0.999999 0.000978 0.000978
-0.951230943203 -1.402261853218 -0.710576772690 -0.999999 0.000978 0.000978
-0.920792579651 -1.970036029816 -0.693836390972 -0.551676 -0.669054 -0.498017
-0.892833828926 -2.049748659134 -0.487188279629 -0.065164 -0.991172 -0.115465
-0.842235207558 -2.041953325272 -0.557292759418 0.001083 -0.993261 -0.115898
-0.730148971081 -2.029418706894 -0.590863823891 0.193251 -0.911860 -0.362167
-0.778804898262 -2.039897203445 -0.569220423698 0.001268 -0.929435 -0.368984
-0.804758727551 -2.011016607285 -0.642014145851 0.001268 -0.929435 -0.368984
-0.740481317043 -1.799024701118 -0.846880912781 0.065881 -0.396630 -0.915611
-0.735665440559 -1.694931864738 -0.876627027988 0.192667 -0.141629 -0.970990
-0.723787486553 -1.778100013733 -0.852277636528 0.319665 -0.374727 -0.870284
-0.855251610279 -2.052598714828 -0.450740993023 0.001108 -0.989410 0.145143
-0.887386202812 -2.039488554001 -0.361592024565 -0.064255 -0.987191 0.146034
-0.901666104794 -2.030195236206 -0.335764855146 -0.192836 -0.900387 0.390023
-0.828373789787 -2.001305341721 -0.264482021332 0.001284 -0.917945 0.396706
-0.798155307770 -1.992958188057 -0.246134594083 0.001372 -0.783405 0.621510
-0.780548989773 -1.481519818306 -0.072888471186 0.001284 0.396706 0.917945
-0.886135160923 -1.489232540131 -0.069557368755 0.001284 0.396706 0.917945
-0.870096683502 -1.396385312080 -0.116429559886 0.001372 0.621510 0.783405
-0.747111618519 -1.621765375137 -0.042356349528 0.001108 0.145143 0.989410
-0.844083189964 -1.605776667595 -0.044705770910 0.001108 0.145143 0.989410
-0.839252352715 -1.654585361481 -0.045238077641 0.001083 -0.115898 0.993261
-0.745673894882 -1.779609680176 -0.072369568050 0.001268 -0.368984 0.929435
-0.810737550259 -1.799163818359 -0.080127604306 0.001268 -0.368984 0.929435
-0.773292481899 -1.893699407578 -0.137261688709 0.001366 -0.597153 0.802126
-0.847668707371 -1.875862598419 -0.123995319009 0.001366 -0.597153 0.802126
-0.854053974152 -1.932567000389 -0.169828757644 0.001372 -0.783405 0.621510
-0.938565373421 -1.952869534492 -0.236818164587 -0.829845 -0.436180 0.348000
-0.946745097637 -2.011039972305 -0.474380701780 -0.945980 -0.322117 -0.036922
-0.917501032352 -2.021421670914 -0.330361574888 -0.438637 -0.825017 0.356293
-0.929203748703 -2.027409791946 -0.546198010445 -0.656381 -0.749527 -0.085868
-0.924461066723 -2.034330129623 -0.519314706326 -0.551778 -0.828387 -0.096525
-0.940408349037 -1.933600068092 -0.711232960224 -0.829664 -0.448680 -0.332181
-0.951230943203 -1.493083238602 -0.778690576553 -0.999999 0.000978 0.000978
-0.951230943203 -1.530726313591 -0.790645182133 -0.999999 0.000978 0.000978
-0.680669307709 -1.824057102203 -0.225739181042 0.999999 0.000978 0.000978
-0.681592226028 -1.487908244133 -0.128183588386 0.980497 0.078585 0.180141
-0.685101032257 -1.436534643173 -0.136381536722 0.946702 0.127209 0.295928
-0.684123575687 -1.358694195747 -0.202316179872 0.946027 0.260738 0.192482
-0.690577507019 -1.506003260612 -0.094714410603 0.829904 0.221613 0.512003
-0.751121878624 -1.645279526711 -0.756340384483 0.001108 0.145143 0.989410
-0.733552455902 -1.702082514763 -0.747993588448 0.001108 0.145143 0.989410
-0.917032063007 -1.731513381004 -0.738107621670 0.001284 0.396706 0.917945
-0.937252879143 -1.815848946571 -0.689675152302 0.001372 0.621510 0.783405
-0.731287121773 -1.839060068130 -0.671305000782 0.001372 0.621510 0.783405
-0.744795560837 -1.392909526825 -0.609791159630 0.001372 0.783405 -0.621510
-0.698351919651 -1.337724924088 -0.468110471964 0.001083 -0.993261 -0.115898
-0.746932387352 -1.357432603836 -0.364613920450 0.001268 -0.929435 -0.368984
-0.761201798916 -1.396679639816 -0.291310220957 0.001366 -0.802126 -0.597153
-0.945517897606 -1.446532130241 -0.238573163748 0.001372 -0.621510 -0.783405
-0.802190959454 -1.462110877037 -0.226243555546 0.001372 -0.621510 -0.783405
-0.804203927517 -1.503191590309 -0.201755791903 0.001284 -0.396706 -0.917945
-0.829230010509 -1.583210229874 -0.176282107830 0.001108 -0.145143 -0.989410
-0.735272824764 -1.571552276611 -0.177995175123 0.001108 -0.145143 -0.989410
-0.925721704960 -1.691797137260 -0.177325159311 0.001083 0.115898 -0.993261
-0.906409561634 -1.669363617897 -0.174713373184 0.001083 0.115898 -0.993261
-0.782043695450 -1.670650005341 -0.174863129854 0.001083 0.115898 -0.993261
-0.836796641350 -1.640948653221 -0.185113444924 0.001083 -0.115898 0.993261
-0.712209761143 -1.566543340683 -0.192493632436 0.001108 0.145143 0.989410
-0.799855113029 -1.544338703156 -0.198816418648 0.001284 0.396706 0.917945
-0.815221250057 -1.472575783730 -0.235326007009 0.001372 0.621510 0.783405
-0.762540042400 -1.453271031380 -0.250604450703 0.001372 0.621510 0.783405
-0.836133837700 -1.390731453896 -0.322123527527 0.001366 0.802126 0.597153
-0.849590539932 -1.382181525230 -0.339156895876 0.001268 0.929435 0.368984
-0.680669307709 -1.469490647316 -0.692283451557 0.999999 0.000978 0.000978
-0.693854629993 -1.767868399620 -0.722406029701 0.001284 0.396706 0.917945
-0.787922739983 -1.476961255074 -0.711929321289 0.001366 -0.597153 0.802126
-0.723313391209 -1.435423254967 -0.681034743786 0.001366 -0.597153 0.802126
-0.868699848652 -1.660788059235 -0.740299046040 0.001108 -0.145143 -0.989410
-0.754454195499 -1.543250918388 -0.727587878704 0.001268 0.368984 -0.929435
-0.913763880730 -1.536476612091 -0.724900186062 0.001268 0.368984 -0.929435
-0.711749732494 -1.485162496567 -0.701059639454 0.001366 0.597153 -0.802126
-0.916976809502 -1.488604426384 -0.703619539738 0.001366 0.597153 -0.802126
-0.799793124199 -1.367218017578 -0.552215814590 0.001284 0.917945 -0.396706
-0.930703461170 -1.356298446655 -0.500942587852 0.001108 0.989410 -0.145143
-0.711476624012 -1.359336376190 -0.400226682425 0.001083 0.993261 0.115898
-0.874537408352 -1.376456618309 -0.353586405516 0.001268 0.929435 0.368984
-0.934756755829 -1.588036298752 -0.200053378940 0.894481 0.064381 0.442446
-0.958878397942 -1.521877527237 -0.293280750513 0.001339 0.858436 -0.512919
-0.951230943203 -1.519853949547 -0.208608299494 -0.999999 0.000978 0.000978
-0.893159270287 -1.416127324104 -0.265162646770 0.001366 -0.802126 -0.597153
-0.946086466312 -1.402894973755 -0.644348800182 0.001372 -0.783405 0.621510
-0.940058827400 -1.413731098175 -0.650435507298 0.999999 0.000978 0.000978
-0.806283175945 -1.616608500481 -0.755427956581 0.001083 -0.115898 0.993261
-0.846718847752 -1.585512161255 -0.751807630062 0.001083 -0.115898 0.993261
-0.924648225307 -1.552369475365 -0.745854437351 0.001268 -0.368984 0.929435
-0.700287044048 -1.528554558754 -0.736405849457 0.001268 -0.368984 0.929435
-0.951230943203 -1.508073806763 -0.713866174221 -0.999999 0.000978 0.000978
-0.936573863029 -1.540809631348 -0.719120919704 0.894116 0.165577 -0.416102
-0.939758777618 -1.417773365974 -0.640240252018 0.894532 0.349776 -0.278332
-0.929379940033 -1.383449435234 -0.393874943256 0.894116 0.416102 0.165577
-0.803028821945 -1.401135683060 -0.642125785351 0.001372 -0.783405 0.621510
-0.693701803684 -1.398334383965 -0.638586342335 0.001372 -0.783405 0.621510
-0.688471496105 -1.383125782013 -0.619369864464 0.001372 0.783405 -0.621510
-0.687835156918 -1.341768264771 -0.495718449354 0.001108 0.989410 -0.145143
-0.718839645386 -1.370502591133 -0.594162106514 0.001284 -0.917945 0.396706
-0.875252068043 -1.357023000717 -0.562952101231 0.001284 -0.917945 0.396706
-0.811064600945 -1.345751881599 -0.522827982903 0.001108 -0.989410 0.145143
-0.812769591808 -1.343264341354 -0.420529454947 0.001083 -0.993261 -0.115898
-0.840305566788 -1.358970165253 -0.360738486052 0.001268 -0.929435 -0.368984
-0.717941701412 -1.666231513023 -0.739499151707 0.001108 -0.145143 -0.989410
-0.834403395653 -1.716502070427 -0.729759097099 0.001284 -0.396706 -0.917945
-0.754486441612 -1.808675408363 -0.677987813950 0.001372 -0.621510 -0.783405
-0.807956099510 -1.841642260551 -0.646990001202 0.001366 -0.802126 -0.597153
-0.729680180550 -1.869703292847 -0.609261751175 0.001366 -0.802126 -0.597153
-0.784342169762 -1.887880921364 -0.571356475353 0.001268 -0.929435 -0.368984
-0.699470460415 -1.915616869926 -0.538370370865 0.001268 0.929435 0.368984
-0.724515378475 -1.875762343407 -0.623930990696 0.001366 0.802126 0.597153
-0.693327724934 -1.898463368416 -0.581605672836 0.001268 0.929435 0.368984
-0.680669307709 -1.892571449280 -0.563215374947 0.999999 0.000978 0.000978
-0.862549066544 -1.901108264923 -0.386877179146 0.001284 -0.917945 0.396706
-0.844500362873 -1.907934308052 -0.432765305042 0.001108 -0.989410 0.145143
-0.782090902328 -1.917142152786 -0.532009184361 0.001083 0.993261 0.115898
-0.860159516335 -1.907309532166 -0.559308826923 0.001268 0.929435 0.368984
-0.834667980671 -1.867139816284 -0.635524094105 0.001366 0.802126 0.597153
-0.935381472111 -1.820781588554 -0.668406486511 0.001372 -0.621510 -0.783405
-0.938819944859 -1.907714247704 -0.473818242550 0.894526 -0.443870 -0.052939
-0.926864981651 -1.885181903839 -0.460599213839 0.894526 -0.443870 -0.052939
-0.854712069035 -1.878265023232 -0.333986669779 0.001284 -0.917945 0.396706
-0.943686723709 -1.886370539665 -0.318412423134 0.001284 -0.917945 0.396706
-0.940058827400 -1.859829068184 -0.291649371386 0.999999 0.000978 0.000978
-0.906195819378 -1.844384670258 -0.262886643410 0.001372 0.783405 -0.621510
-0.719348907471 -1.909014463425 -0.370841503143 0.001284 0.917945 -0.396706
-0.772769987583 -1.923072934151 -0.442130237818 0.001108 0.989410 -0.145143
-0.700785994530 -1.922684073448 -0.484407812357 0.001083 0.993261 0.115898
-0.908955812454 -1.919911146164 -0.420613646507 0.001108 0.989410 -0.145143
-0.909466147423 -1.888582110405 -0.323533087969 0.001284 0.917945 -0.396706
-0.942122578621 -1.644323706627 -0.191903606057 0.001083 0.115898 -0.993261
-0.984884262085 -1.586655497551 -0.277976423502 -0.933538 0.051063 0.354823
-0.974137008190 -1.585360884666 -0.325690478086 0.001207 0.961751 -0.273924
-0.985271573067 -1.591586232185 -0.369174808264 -0.999999 0.000978 0.000978
-0.963921487331 -1.384992122650 -0.465184360743 -0.932921 0.357815 0.040335
-0.950808048248 -1.496821045876 -0.691641747952 0.001329 0.873026 0.487672
-0.963103055954 -1.497266769409 -0.612004399300 0.001381 -0.716707 -0.697373
-0.944511532784 -1.642255783081 -0.716667473316 0.000991 -0.999889 0.014865
-0.963051795959 -1.584678649902 -0.562002420425 0.001329 -0.873026 -0.487672
-0.970375120640 -1.641213536263 -0.646683037281 0.000991 -0.999889 0.014865
-0.985271573067 -1.568947196007 -0.586952745914 -0.999999 0.000978 0.000978
-0.977874398232 -1.709564328194 -0.607402384281 0.001339 0.858436 -0.512919
-0.975809812546 -1.685645461082 -0.628865778446 0.001207 -0.961751 0.273924
-0.955878794193 -1.788101434708 -0.625045537949 0.001381 0.697373 -0.716707
-0.982218146324 -1.729644179344 -0.526174843311 0.001329 0.487672 -0.873026
-0.972083210945 -1.733218908310 -0.552821695805 0.001381 -0.697373 0.716707
-0.947095751762 -1.907334446907 -0.498506724834 0.001083 0.993261 0.115898
-0.883149683475 -1.618680715561 -0.385608285666 -0.999999 0.000978 0.000978
-0.985271573067 -1.452223777771 -0.465670078993 -0.999999 0.000978 0.000978
-0.947432100773 -1.698550105095 -0.510706007481 -0.020777 0.801983 0.596986
-0.985271573067 -1.819167256355 -0.479014277458 -0.999999 0.000978 0.000978
-0.966549694538 -1.840613484383 -0.523408114910 0.001186 0.245605 -0.969369
-0.981531679630 -1.814918160439 -0.467812120914 0.000991 -0.014865 -0.999889
-0.930826902390 -1.706949114799 -0.432871967554 -0.019524 0.917618 -0.396984
-0.982399404049 -1.462915658951 -0.428259998560 0.001186 0.245605 -0.969369
-0.985271573067 -1.484199047089 -0.424331516027 -0.999999 0.000978 0.000978
-0.952226221561 -1.550238609314 -0.451203882694 -0.488224 -0.866847 -0.101061
-0.883149683475 -1.655141353607 -0.397992223501 -0.999999 0.000978 0.000978
-0.905281782150 -1.689519047737 -0.406578093767 -0.020861 0.783000 -0.621671
-0.923590242863 -1.564805150032 -0.417551428080 -0.020777 -0.801983 -0.596986
-0.974129855633 -1.512732505798 -0.458727180958 0.000991 0.014865 0.999889
-0.952647507191 -1.582331538200 -0.529958367348 -0.489606 -0.519684 0.700153
-0.937744379044 -1.702428221703 -0.505167186260 -0.020777 0.801983 0.596986
-0.967557966709 -1.743042230606 -0.439187139273 0.001207 -0.273924 -0.961751
-0.950485050678 -1.396267652512 -0.596483111382 0.001339 0.512919 0.858436
-0.985069930553 -1.725853800774 -0.376465976238 0.001381 -0.716707 -0.697373
-0.972371101379 -1.718384504318 -0.384162783623 0.001381 -0.716707 -0.697373
-0.954568028450 -1.822503685951 -0.271160900593 -0.933103 -0.282036 0.223103
-0.940565764904 -1.798111557961 -0.249204084277 0.001366 0.597153 -0.802126
-0.960493445396 -1.696099638939 -0.334189832211 0.001329 0.873026 0.487672
-0.985271573067 -1.631917834282 -0.328078508377 -0.999999 0.000978 0.000978
-0.946368217468 -1.880349755287 -0.338813573122 0.001284 0.917945 -0.396706
-0.848652362823 -1.832176089287 -0.269401550293 0.001372 -0.783405 0.621510
-0.935736238956 -1.816720962524 -0.265900194645 0.895196 -0.265738 0.357781
-0.712081134319 -1.746056795120 -0.210226505995 0.001268 -0.368984 0.929435
-0.912481963634 -1.672597289085 -0.188798055053 0.001083 -0.115898 0.993261
-0.708965122700 -1.720396518707 -0.185397088528 0.001268 0.368984 -0.929435
-0.946749866009 -1.719277620316 -0.184953153133 0.001268 0.368984 -0.929435
-0.935837686062 -1.752808809280 -0.221987739205 0.894116 -0.165577 0.416102
-0.951230943203 -1.737707972527 -0.204033702612 -0.999999 0.000978 0.000978
-0.837729930878 -1.782485842705 -0.212693527341 0.001366 0.597153 -0.802126
-0.693259358406 -1.797629475594 -0.223956882954 0.001366 0.597153 -0.802126
-0.685509979725 -1.880894064903 -0.309017151594 0.001372 0.783405 -0.621510
-0.694285511971 -1.815389037132 -0.250209629536 -0.999999 0.000978 0.000978
-0.684496879578 -1.817153573036 -0.255447775126 0.001366 -0.597153 0.802126
-0.781539440155 -1.854970335960 -0.298202633858 0.001372 -0.783405 0.621510
-0.682433664799 -1.741054773331 -0.208241939545 0.001268 -0.368984 0.929435
-0.685854315758 -1.761394023895 -0.201662778854 0.001268 0.368984 -0.929435
-0.694285511971 -1.761252284050 -0.206049680710 -0.999999 0.000978 0.000978
-0.853297114372 -1.911106586456 -0.466106593609 0.001083 -0.993261 -0.115898
-0.770617008209 -1.904523491859 -0.522650897503 0.001083 -0.993261 -0.115898
-0.911414027214 -1.889297604561 -0.567785561085 0.001268 -0.929435 -0.368984
-0.960369646549 -1.818446636200 -0.575675606728 0.001329 0.487672 -0.873026
-0.948355317116 -1.448370575905 -0.295356094837 0.001381 0.697373 -0.716707
-0.942418575287 -1.461015343666 -0.252579033375 0.001372 -0.621510 -0.783405
-0.694285511971 -1.440079569817 -0.668809533119 -0.999999 0.000978 0.000978
-0.789473116398 -1.543819427490 -0.184208795428 0.001284 -0.396706 -0.917945
-0.700848042965 -1.353309631348 -0.451992660761 0.001083 0.993261 0.115898
-0.862399458885 -1.352434515953 -0.474647104740 0.001108 0.989410 -0.145143
-0.757314682007 -1.378450751305 -0.578223586082 0.001284 0.917945 -0.396706
-0.804708540440 -1.528480529785 -0.499602913857 0.999999 -0.000978 0.000978
-0.804708480835 -1.563588976860 -0.480841308832 0.999999 0.000978 0.000978
-0.804708480835 -1.575821876526 -0.456138312817 0.999999 0.000978 0.000978
-0.804708480835 -1.599983334541 -0.478450119495 0.999999 0.000978 0.000978
-0.804708480835 -1.654092669487 -0.534343838692 0.999999 0.000978 0.000978
-0.815697252750 -1.709581851959 -0.492963582277 -0.999999 -0.000978 0.000978
-0.815697252750 -1.669831156731 -0.570483565331 -0.999999 0.000978 -0.000978
-0.815697193146 -1.615136146545 -0.363083720207 -0.999999 0.000978 0.000978
-0.815697193146 -1.566111683846 -0.569672465324 -0.999999 0.000978 0.000978
-0.815697252750 -1.721812367439 -0.440587043762 -0.999999 -0.000978 0.000978
-0.804708540440 -1.735789179802 -0.435889124870 0.999999 -0.000978 -0.000978
-0.804708540440 -1.711703896523 -0.547993123531 0.999999 -0.000978 -0.000978
-0.804708540440 -1.734220147133 -0.454772740602 0.999999 -0.000978 -0.000978
-0.766247510910 -1.484768033028 -0.482597500086 0.999999 0.000978 0.000978
-0.820453166962 -1.511232137680 -0.459481805563 0.000991 -0.999889 0.014865
-0.804193019867 -1.474836826324 -0.532577335835 0.181538 -0.268894 -0.945907
-0.680669307709 1.379992961884 -0.463117182255 0.999999 0.000978 0.000978
-0.680669307709 1.412782549858 -0.468194991350 0.999999 0.000978 0.000978
-0.680669307709 1.398856520653 -0.387190669775 0.999999 0.000978 0.000978
-0.680669307709 1.334162235260 -0.276562750340 0.999999 0.000978 0.000978
-0.701386749744 1.013523578644 -0.109177328646 0.656381 -0.085868 0.749527
-0.680669307709 1.023463487625 -0.180283278227 0.999999 0.000978 0.000978
-0.682544291019 1.454628586769 -0.561515808105 0.980607 0.193773 -0.029359
-0.680669307709 1.348947644234 -0.738423168659 0.999999 0.000978 0.000978
-0.680669307709 1.295859217644 -0.787783384323 0.999999 0.000978 0.000978
-0.680669307709 0.786731183529 -0.434651821852 0.999999 0.000978 0.000978
-0.680669307709 0.778452634811 -0.567476391792 0.999999 0.000978 0.000978
-0.680669307709 0.785157442093 -0.614624977112 0.999999 0.000978 0.000978
-0.680669307709 0.808559000492 -0.658324658871 0.999999 0.000978 0.000978
-0.680669307709 0.825406551361 -0.724705040455 0.999999 0.000978 0.000978
-0.680669307709 0.829582035542 -0.341735541821 0.999999 0.000978 0.000978
-0.706084072590 1.297241449356 -0.152711033821 0.552580 0.330259 0.765235
-0.700446784496 1.163174510002 -0.110458344221 0.657064 0.110741 0.745657
-0.802678585052 1.505466341972 -0.462172418833 0.001083 0.993261 0.115898
-0.838926553726 1.506307601929 -0.469398319721 0.001083 0.993261 0.115898
-0.841691732407 1.253068208694 -0.889639914036 0.001268 0.368984 -0.929435
-0.873253226280 1.301853299141 -0.867801487446 0.001366 0.597153 -0.802126
-0.762098550797 1.379548907280 -0.810014128685 0.001366 0.597153 -0.802126
-0.800411343575 1.502910733223 -0.566888928413 0.001108 0.989410 -0.145143
-0.859364211559 1.494709968567 -0.620838642120 0.001284 0.917945 -0.396706
-0.711710155010 1.207131385803 -0.898037850857 0.551383 0.308455 -0.775133
-0.683041572571 1.347774028778 -0.775736153126 0.946027 0.192482 -0.260738
-0.681039571762 0.860241472721 -0.783099770546 0.997774 -0.041530 -0.052178
-0.696262598038 0.742966234684 -0.306987851858 0.748025 -0.608858 0.264102
-0.713783681393 0.767863810062 -0.249297857285 0.439792 -0.705327 0.555964
-0.713292539120 1.298024058342 -0.147965610027 0.438637 0.356293 0.825017
-0.707703471184 1.372355222702 -0.210156559944 0.553108 0.516122 0.653979
-0.810915589333 1.467659235001 -0.323995679617 0.001268 0.929435 0.368984
-0.860265493393 1.486714124680 -0.372023552656 0.001268 0.929435 0.368984
-0.930886328220 1.423758029938 -0.282155722380 -0.656297 0.606198 0.449221
-0.934832453728 1.392290472984 -0.246622666717 -0.748723 0.532461 0.394841
-0.951155543327 1.377094745636 -0.295013844967 -0.997860 0.052183 0.039403
-0.874939680099 0.770444929600 -0.776979327202 0.001366 -0.802126 -0.597153
-0.872323870659 0.783985853195 -0.795185208321 0.001366 -0.802126 -0.597153
-0.743511855602 0.763851225376 -0.767988443375 0.064244 -0.800910 -0.595329
-0.825825691223 0.788074791431 -0.799757361412 0.001372 -0.621510 -0.783405
-0.831959247589 0.886498868465 -0.872720479965 0.001284 -0.396706 -0.917945
-0.825114250183 0.935413897038 -0.893846809864 0.001284 -0.396706 -0.917945
-0.825049996376 1.029941678047 -0.918705165386 0.001108 -0.145143 -0.989410
-0.787699818611 1.092225074768 -0.925398707390 0.001083 0.115898 -0.993261
-0.803986012936 1.161792993546 -0.917299449444 0.001083 0.115898 -0.993261
-0.837199747562 1.220454335213 -0.902579426765 0.001268 0.368984 -0.929435
-0.785585999489 1.450755953789 -0.721880793571 0.001372 0.783405 -0.621510
-0.840683937073 1.456405639648 -0.709527373314 0.001284 0.917945 -0.396706
-0.713040709496 1.204861402512 -0.899817049503 0.440154 0.330507 -0.834883
-0.689603865147 0.825374603271 -0.789502203465 0.829845 -0.348000 -0.436180
-0.712323188782 0.684076726437 -0.444098234177 0.552274 -0.824748 0.121588
-0.725207865238 0.671653747559 -0.490172505379 0.319751 -0.937483 0.137425
-0.737376987934 0.674160718918 -0.454799145460 0.064255 -0.987191 0.146034
-0.731413185596 1.229386210442 -0.111038252711 0.192836 0.390023 0.900387
-0.773296177387 1.331912040710 -0.163113892078 0.001372 0.621510 0.783405
-0.882902383804 1.407588243484 -0.231607869267 0.001366 0.802126 0.597153
-0.826568841934 1.451006889343 -0.289984792471 0.001366 0.802126 0.597153
-0.894543707371 1.049215435982 -0.088518187404 -0.065164 -0.115465 0.991172
-0.935750424862 1.125031232834 -0.109490767121 -0.749242 0.095305 0.655403
-0.951230943203 1.277197718620 -0.255578517914 -0.999999 0.000978 0.000978
-0.944513320923 1.223473310471 -0.145462393761 -0.894962 0.177836 0.409167
-0.937835633755 1.181723833084 -0.120204053819 -0.749242 0.095305 0.655403
-0.951230943203 0.872197329998 -0.279105782509 -0.999999 0.000978 0.000978
-0.951230943203 0.884854137897 -0.225752398372 -0.999999 0.000978 0.000978
-0.951230943203 0.779295206070 -0.571596503258 -0.999999 0.000978 0.000978
-0.951230943203 0.833488047123 -0.730880975723 -0.999999 0.000978 0.000978
-0.951230943203 0.907078087330 -0.798257708549 -0.999999 0.000978 0.000978
-0.951230943203 1.439954400063 -0.503323435783 -0.999999 0.000978 0.000978
-0.951230943203 1.282191276550 -0.745335578918 -0.999999 0.000978 0.000978
-0.949824213982 1.398412942886 -0.706024169922 -0.980662 0.153420 -0.121509
-0.931009352207 0.829669713974 -0.810615718365 -0.655934 -0.468045 -0.592186
-0.785999357700 0.668684959412 -0.510139822960 0.001083 -0.993261 -0.115898
-0.769891738892 0.672935605049 -0.546651065350 0.001083 -0.993261 -0.115898
-0.723109781742 0.671226561069 -0.498747199774 0.319980 -0.941197 -0.108445
-0.861514270306 0.707923889160 -0.677940487862 0.001268 -0.929435 -0.368984
-0.718126475811 0.901735305786 -0.872948944569 0.438637 -0.356293 -0.825017
-0.722188532352 1.250532388687 -0.886178970337 0.318903 0.349131 -0.881140
-0.740433514118 1.192818284035 -0.913248062134 0.065032 0.367628 -0.927696
-0.872394442558 0.672285258770 -0.464304417372 0.001108 -0.989410 0.145143
-0.826433598995 0.725345134735 -0.291933417320 0.001284 -0.917945 0.396706
-0.737348556519 1.216320753098 -0.104269459844 0.065881 0.396630 0.915611
-0.777713477612 1.262531042099 -0.123709656298 0.001284 0.396706 0.917945
-0.876430332661 1.226774811745 -0.108266651630 0.001284 0.396706 0.917945
-0.817575037479 1.306275725365 -0.142824396491 0.001372 0.621510 0.783405
-0.819934844971 1.168871283531 -0.093420229852 0.001108 0.145143 0.989410
-0.850249886513 1.106884360313 -0.084311686456 0.001108 0.145143 0.989410
-0.774999856949 1.084428787231 -0.083940371871 0.001083 -0.115898 0.993261
-0.832791805267 1.020587801933 -0.091372892261 0.001083 -0.115898 0.993261
-0.847136735916 0.985364794731 -0.095688477159 0.001268 -0.368984 0.929435
-0.849529325962 0.933115303516 -0.116418421268 0.001268 -0.368984 0.929435
-0.860927104950 0.870833158493 -0.145607694983 0.001366 -0.597153 0.802126
-0.869898796082 0.778586685658 -0.222931161523 0.001372 -0.783405 0.621510
-0.892384588718 0.980175554752 -0.098107330501 -0.065032 -0.367628 0.927696
-0.924963593483 0.897473275661 -0.143788695335 -0.551383 -0.308455 0.775133
-0.940538465977 1.083405256271 -0.112833328545 -0.829279 -0.063573 0.555207
-0.950038254261 1.016613006592 -0.144137814641 -0.980428 -0.022256 0.195617
-0.946082949638 0.872110903263 -0.192777886987 -0.895196 -0.265738 0.357781
-0.898233175278 0.672672450542 -0.468991637230 -0.192667 -0.970990 0.141629
-0.919231116772 0.810738027096 -0.200897127390 -0.439367 -0.535530 0.721224
-0.924926877022 0.687920331955 -0.442318290472 -0.552274 -0.824748 0.121588
-0.945401966572 0.852853000164 -0.803529918194 -0.895125 -0.277593 -0.348846
-0.951230943203 1.231292128563 -0.822870254517 -0.999999 0.000978 0.000978
-0.944964170456 1.468951582909 -0.462974816561 -0.894652 0.443932 0.050231
-0.909799337387 0.926002502441 -0.885227024555 -0.319665 -0.374727 -0.870284
-0.681052088737 1.299109220505 -0.210684359074 0.997774 0.041530 0.052178
-0.774054348469 1.036031961441 -0.791339695454 0.001108 0.145143 0.989410
-0.850588083267 1.046039819717 -0.792810261250 0.001108 0.145143 0.989410
-0.804531812668 0.948312819004 -0.761190474033 0.001284 0.396706 0.917945
-0.951230943203 0.947137355804 -0.751479268074 -0.999999 0.000978 0.000978
-0.763797819614 0.933585345745 -0.753088057041 0.001372 0.621510 0.783405
-0.728896915913 0.887307643890 -0.716462075710 0.001372 0.621510 0.783405
-0.694285511971 0.843623816967 -0.647293090820 -0.999999 0.000978 0.000978
-0.753166198730 1.305484890938 -0.679015219212 0.001372 0.783405 -0.621510
-0.832958221436 1.378403067589 -0.541350364685 0.001108 -0.989410 0.145143
-0.698602020741 1.377894520760 -0.463743686676 0.001083 -0.993261 -0.115898
-0.730341672897 1.366750717163 -0.413754820824 0.001268 -0.929435 -0.368984
-0.873462557793 1.345075249672 -0.360191047192 0.001366 -0.802126 -0.597153
-0.862867116928 1.296311140060 -0.296769618988 0.001372 -0.621510 -0.783405
-0.765837967396 1.279481172562 -0.283449769020 0.001372 -0.621510 -0.783405
-0.749939918518 1.194688439369 -0.232635974884 0.001284 -0.396706 -0.917945
-0.764834880829 1.166567087173 -0.221341997385 0.001108 -0.145143 -0.989410
-0.810496807098 1.118703961372 -0.214308857918 0.001108 -0.145143 -0.989410
-0.916205525398 1.062512040138 -0.214246734977 0.001083 0.115898 -0.993261
-0.723677515984 1.052160024643 -0.215451940894 0.001083 0.115898 -0.993261
-0.708616197109 1.037716746330 -0.230841666460 0.001083 -0.115898 0.993261
-0.776907682419 1.101610541344 -0.225559562445 0.001108 0.145143 0.989410
-0.777677059174 1.142322540283 -0.231541901827 0.001108 0.145143 0.989410
-0.800683259964 1.179532647133 -0.240922108293 0.001284 0.396706 0.917945
-0.733656406403 1.190363287926 -0.245599865913 0.001284 0.396706 0.917945
-0.809208929539 1.243362903595 -0.272229164839 0.001372 0.621510 0.783405
-0.719994187355 1.249877691269 -0.277385264635 0.001372 0.621510 0.783405
-0.937354087830 1.315230727196 -0.342880547047 0.001366 0.802126 0.597153
-0.757611513138 1.302194833755 -0.325353831053 0.001366 0.802126 0.597153
-0.791388452053 1.344083070755 -0.393543183804 0.001268 0.929435 0.368984
-0.694285511971 1.373684167862 -0.454056113958 -0.999999 0.000978 0.000978
-0.680669307709 1.372875094414 -0.530996143818 0.999999 0.000978 0.000978
-0.680902540684 1.357516169548 -0.584104061127 0.001284 0.917945 -0.396706
-0.680669307709 1.308027267456 -0.694064557552 0.999999 0.000978 0.000978
-0.680669307709 1.147221922874 -0.781919658184 0.999999 0.000978 0.000978
-0.680669307709 0.968825399876 -0.769122242928 0.999999 0.000978 0.000978
-0.851893305779 0.988380432129 -0.778495550156 0.001284 0.396706 0.917945
-0.782107889652 1.257909059525 -0.742337048054 0.001366 -0.597153 0.802126
-0.892790257931 1.253173708916 -0.745859026909 0.001366 -0.597153 0.802126
-0.809070169926 1.273901462555 -0.730442404747 0.001366 -0.597153 0.802126
-0.875785708427 1.035369992256 -0.777479946613 0.001108 -0.145143 -0.989410
-0.771488845348 1.104980349541 -0.782450735569 0.001083 0.115898 -0.993261
-0.889349162579 1.134124875069 -0.779057681561 0.001083 0.115898 -0.993261
-0.822177112103 1.186715483665 -0.764796197414 0.001268 0.368984 -0.929435
-0.933394730091 1.181204319000 -0.766982793808 0.001268 0.368984 -0.929435
-0.708018004894 1.256563186646 -0.726368427277 0.001366 0.597153 -0.802126
-0.854306399822 1.274842739105 -0.712772786617 0.001366 0.597153 -0.802126
-0.827922582626 1.288087010384 -0.700997769833 0.001372 0.783405 -0.621510
-0.802774250507 1.348249197006 -0.605560719967 0.001284 0.917945 -0.396706
-0.939642488956 1.363965272903 -0.545946002007 0.001108 0.989410 -0.145143
-0.874339818954 1.363440871239 -0.457340419292 0.001083 0.993261 0.115898
-0.861147105694 1.357348680496 -0.426979064941 0.001268 0.929435 0.368984
-0.940058827400 1.202754259109 -0.246380165219 0.999999 0.000978 0.000978
-0.809346735477 1.315691590309 -0.320684522390 0.001366 -0.802126 -0.597153
-0.951230943203 1.121717333794 -0.788953125477 -0.999999 0.000978 0.000978
-0.914436221123 1.110677361488 -0.795495688915 0.001083 -0.115898 0.993261
-0.711209475994 1.104264616966 -0.796242296696 0.001083 -0.115898 0.993261
-0.883576452732 1.206462383270 -0.771610438824 0.001268 -0.368984 0.929435
-0.692538738251 1.185686230659 -0.779853343964 0.001268 -0.368984 0.929435
-0.840467870235 1.311318874359 -0.693584620953 0.001372 -0.783405 0.621510
-0.912825345993 1.347031235695 -0.642722010612 0.001284 -0.917945 0.396706
-0.928071260452 1.373384952545 -0.575500667095 0.001108 -0.989410 0.145143
-0.941218376160 1.382463097572 -0.502985417843 0.001083 -0.993261 -0.115898
-0.935801982880 1.378758668900 -0.471166431904 0.001083 -0.993261 -0.115898
-0.892731010914 1.360476732254 -0.397941261530 0.001268 -0.929435 -0.368984
-0.821692705154 1.319428086281 -0.683338344097 0.001372 -0.783405 0.621510
-0.694285511971 1.273020863533 -0.730393648148 -0.999999 0.000978 0.000978
-0.730240643024 1.071325659752 -0.782763421535 0.001108 -0.145143 -0.989410
-0.792100191116 0.984343349934 -0.761920034885 0.001284 -0.396706 -0.917945
-0.701615631580 0.888420224190 -0.699977874756 0.001372 -0.621510 -0.783405
-0.838672280312 0.871292054653 -0.677121043205 0.001366 -0.802126 -0.597153
-0.753680765629 0.855664134026 -0.656109154224 0.001366 -0.802126 -0.597153
-0.779303431511 0.815772891045 -0.605674684048 0.001268 0.929435 0.368984
-0.734269440174 0.864926159382 -0.691377758980 0.001366 0.802126 0.597153
-0.772965967655 0.827386856079 -0.410057783127 0.001284 -0.917945 0.396706
-0.719899177551 0.816013455391 -0.452698707581 0.001108 -0.989410 0.145143
-0.892280340195 0.816068768501 -0.452322065830 0.001108 -0.989410 0.145143
-0.836305141449 0.800669014454 -0.546466886997 0.001083 0.993261 0.115898
-0.841127693653 0.870978593826 -0.699515342712 0.001366 0.802126 0.597153
-0.950797677040 0.922018706799 -0.743933737278 0.001372 -0.621510 -0.783405
-0.781032025814 0.944465279579 -0.744334042072 0.001372 -0.621510 -0.783405
-0.934848487377 0.989142537117 -0.763992786407 0.001284 -0.396706 -0.917945
-0.936463654041 0.924891769886 -0.719673156738 0.894532 -0.278332 -0.349776
-0.934384047985 0.893398880959 -0.687826514244 0.895196 -0.357781 -0.265738
-0.927970230579 0.872346401215 -0.638027250767 0.895196 -0.357781 -0.265738
-0.928553521633 0.837067723274 -0.467692881823 0.894481 -0.442446 0.064381
-0.918143212795 0.830446124077 -0.402974486351 0.001284 -0.917945 0.396706
-0.784566283226 0.846509754658 -0.341587185860 0.001372 0.783405 -0.621510
-0.702648878098 0.800405979156 -0.465255111456 0.001108 0.989410 -0.145143
-0.709763884544 0.797863841057 -0.522372186184 0.001083 0.993261 0.115898
-0.896546781063 0.804867267609 -0.434893876314 0.001108 0.989410 -0.145143
-0.806333839893 0.811258256435 -0.413060128689 0.001284 0.917945 -0.396706
-0.952734470367 0.880646467209 -0.387860596180 0.001339 -0.512919 -0.858436
-0.950906038284 1.041277885437 -0.286438554525 0.001186 0.969369 0.245605
-0.950600922108 1.086104750633 -0.258746892214 0.000991 -0.999889 0.014865
-0.959107518196 1.185155987740 -0.690609037876 0.001329 -0.873026 -0.487672
-0.947382688522 1.175078988075 -0.762576818466 0.001268 -0.368984 0.929435
-0.959425389767 1.031638503075 -0.732134044170 0.001207 0.961751 -0.273924
-0.985271573067 1.117831349373 -0.644681692123 -0.999999 0.000978 0.000978
-0.977645397186 1.120251536369 -0.655609786510 0.001186 -0.969369 -0.245605
-0.980202078819 1.127051711082 -0.682601153851 0.001186 -0.969369 -0.245605
-0.985271573067 1.089618563652 -0.637994229794 -0.999999 0.000978 0.000978
-0.981737792492 0.895877540112 -0.454776883125 -0.933538 -0.354823 0.051063
-0.968202948570 0.928133428097 -0.417181879282 0.001284 0.917945 -0.396706
-0.970691561699 1.309181451797 -0.442775607109 -0.932974 0.334669 0.132501
-0.898763775826 1.109967947006 -0.583174705505 -0.019280 -0.368883 0.929276
-0.960721969604 0.882786333561 -0.563586711884 0.001186 0.245605 -0.969369
-0.985271573067 0.927938520908 -0.503687858582 -0.999999 0.000978 0.000978
-0.872298777103 1.034146070480 -0.489863306284 0.001355 -0.830587 0.556887
-0.883149683475 1.147557377815 -0.453803867102 -0.999999 0.000978 0.000978
-0.977126836777 1.013558864594 -0.445036023855 -0.487518 0.685206 -0.541128
-0.910798072815 1.023548603058 -0.457084506750 -0.020861 0.783000 -0.621671
-0.891146481037 1.148869872093 -0.449765622616 -0.020777 -0.801983 -0.596986
-0.944727897644 1.162006855011 -0.466651916504 -0.019280 -0.929276 -0.368883
-0.869533598423 1.147980332375 -0.476305156946 0.999999 0.000978 0.000978
-0.970927536488 1.239675760269 -0.500013649464 0.000991 0.014865 0.999889
-0.985271573067 0.943874359131 -0.497370213270 -0.999999 0.000978 0.000978
-0.965834736824 1.299516558647 -0.622631430626 -0.933270 0.330276 -0.141155
-0.953497946262 0.907573580742 -0.300745218992 -0.933331 -0.214736 0.287719
-0.975165545940 0.935961902142 -0.405059844255 0.001339 0.512919 0.858436
-0.959515154362 1.172712802887 -0.351559877396 0.001339 -0.858436 0.512919
-0.860699474812 0.887924611568 -0.311199247837 0.001372 -0.783405 0.621510
-0.863823115826 0.894573569298 -0.303068608046 0.001366 -0.597153 0.802126
-0.771736621857 0.930886149406 -0.276060491800 0.001366 -0.597153 0.802126
-0.918758213520 0.984929144382 -0.247030347586 0.001268 -0.368984 0.929435
-0.732119858265 0.976932764053 -0.250202894211 0.001268 -0.368984 0.929435
-0.875427961349 1.065778136253 -0.227574706078 0.001083 -0.115898 0.993261
-0.947102010250 1.019040703773 -0.233496621251 0.001268 0.368984 -0.929435
-0.940058827400 0.927782833576 -0.265612840652 0.999999 0.000978 0.000978
-0.809767663479 0.979002058506 -0.234733134508 0.001268 0.368984 -0.929435
-0.857195496559 0.993584036827 -0.228947773576 0.001268 0.368984 -0.929435
-0.951230943203 1.094041466713 -0.217757955194 -0.999999 0.000978 0.000978
-0.884250998497 0.943008661270 -0.250074565411 0.001366 0.597153 -0.802126
-0.695037543774 0.894630193710 -0.286056905985 0.001366 0.597153 -0.802126
-0.698156118393 0.880966842175 -0.319990545511 0.001372 -0.783405 0.621510
-0.680669307709 0.833127677441 -0.394609063864 0.999999 0.000978 0.000978
-0.680669307709 0.959013879299 -0.255893230438 0.999999 0.000978 0.000978
-0.680669307709 1.307421088219 -0.320343881845 0.999999 0.000978 0.000978
-0.714502274990 0.881109833717 -0.297869116068 0.001372 0.783405 -0.621510
-0.799602746964 0.811400830746 -0.520901739597 0.001083 -0.993261 -0.115898
-0.711606621742 0.810647249222 -0.514428853989 0.001083 -0.993261 -0.115898
-0.903434872627 0.835025429726 -0.617278456688 0.001268 -0.929435 -0.368984
-0.956640601158 0.862326681614 -0.638849198818 0.001329 0.487672 -0.873026
-0.975347757339 0.966769993305 -0.632882177830 0.001381 0.697373 -0.716707
-0.980139076710 1.137393236160 -0.703008294106 -0.932921 0.040335 -0.357815
-0.956164479256 1.138633370399 -0.728541195393 0.001186 -0.969369 -0.245605
-0.950134932995 1.139412045479 -0.731632173061 0.001186 -0.969369 -0.245605
-0.965082824230 1.092914462090 -0.711615920067 0.000991 0.999889 -0.014865
-0.947716593742 1.305078983307 -0.339878827333 0.001366 -0.802126 -0.597153
-0.943771898746 0.804472684860 -0.437579423189 0.001108 0.989410 -0.145143
-0.934837341309 1.211887359619 -0.240064129233 0.001284 -0.396706 -0.917945
-0.702052474022 1.366713643074 -0.485451728106 0.001083 0.993261 0.115898
-0.915140986443 1.368455171585 -0.515390932560 0.001108 0.989410 -0.145143
-0.723090469837 1.355105638504 -0.589685440063 0.001284 0.917945 -0.396706
-0.815697193146 1.235388517380 -0.553693890572 -0.999999 0.000978 0.000978
-0.815697193146 1.191173791885 -0.608913242817 -0.999999 0.000978 0.000978
-0.804708540440 1.187995910645 -0.574532687664 0.999999 -0.000978 0.000978
-0.804708480835 1.245724320412 -0.523241937160 0.999999 -0.000978 0.000978
-0.810290157795 1.182183742523 -0.379890859127 0.842434 0.250122 0.477226
-0.804708540440 1.175157666206 -0.479646623135 0.999999 0.000978 0.000978
-0.804708480835 1.127309679985 -0.426070332527 0.999999 0.000978 0.000978
-0.804708480835 1.103299975395 -0.628960788250 0.999999 0.000978 0.000978
-0.804708480835 1.108835935593 -0.618752837181 0.999999 0.000978 0.000978
-0.804708480835 1.081349015236 -0.522209763527 0.999999 0.000978 0.000978
-0.815697193146 1.069437026978 -0.405867546797 -0.999999 -0.000978 0.000978
-0.815697252750 1.051803708076 -0.613679587841 -0.999999 0.000978 -0.000978
-0.815697193146 1.140814185143 -0.393853455782 -0.999999 0.000978 0.000978
-0.815697193146 1.145912408829 -0.606809079647 -0.999999 0.000978 0.000978
-0.815697193146 1.151145339012 -0.486096322536 -0.999999 0.000978 0.000978
-0.815697193146 1.199785828590 -0.524095773697 -0.999999 0.000978 0.000978
-0.812981009483 0.955151319504 -0.591876208782 0.001381 -0.716707 -0.697373
-0.815697252750 0.991958796978 -0.505543768406 -0.999999 -0.000978 0.000978
-0.815697252750 0.938654124737 -0.488855957985 -0.999999 -0.000978 -0.000978
-0.804708540440 1.019009113312 -0.548089265823 0.999999 -0.000978 -0.000978
-0.804969549179 0.945699453354 -0.436688899994 0.001209 -0.960928 0.276796
-0.837673783302 1.217355132103 -0.484671950340 -0.999999 0.000978 -0.000978
-0.816039144993 1.227477550507 -0.439269691706 0.001186 -0.245605 0.969369
-0.829183518887 1.209244251251 -0.527173161507 0.000991 -0.999889 0.014865
-0.792325377464 1.262031316757 -0.572286427021 -0.001325 0.478202 -0.878249
-0.805888235569 1.266401648521 -0.538222491741 0.030085 0.999030 -0.032160
-0.812829554081 1.267766475677 -0.467236340046 0.000991 0.999889 -0.014865
-0.133266344666 -1.439041018486 0.194281145930 0.001028 -0.054502 0.998513
-0.030358009040 -1.787472128868 0.177462399006 -0.001355 -0.556887 0.830587
0.246690288186 -1.625817298889 0.096386969090 0.068891 0.053582 -0.996184
0.246413573623 -1.574845433235 0.072530806065 0.999999 0.000978 0.000978
0.246413573623 -1.562317490578 0.085625559092 0.999999 0.000978 0.000978
0.246413573623 -1.594953775406 0.027017625049 0.999999 0.000978 0.000978
0.246413573623 -1.658488631248 -0.028393063694 0.999999 0.000978 0.000978
0.165874779224 -1.523359179497 0.035979766399 0.000979 0.999995 -0.002938
0.115803264081 -1.517998814583 0.082177646458 0.479313 0.877635 -0.003983
0.093356393278 -1.484946966171 0.097271881998 0.999941 0.010858 -0.000987
0.092043265700 -1.361050963402 0.051199033856 0.999941 0.010858 -0.000987
0.009496197104 -1.347186565399 0.105121552944 0.000979 0.999995 -0.002938
0.038400478661 -1.347512722015 0.014133358374 0.000979 0.999995 -0.002938
-0.166166961193 -1.347558856010 0.001285925508 0.000979 0.999995 -0.002938
-0.085471361876 -1.347456812859 0.029764115810 0.000979 0.999995 -0.002938
-0.192749261856 -1.347473502159 0.025076370686 0.000979 0.999995 -0.002938
-0.250567615032 -1.478048920631 -0.037645865232 -0.999999 0.000978 0.000978
-0.250567615032 -1.426718950272 -0.035880777985 -0.999999 0.000978 0.000978
-0.250567615032 -1.455534696579 0.067723669112 -0.999999 0.000978 0.000978
-0.249787375331 -1.534852623940 0.048359118402 -0.961569 -0.274561 0.001210
-0.245443329215 -1.550002574921 0.056393623352 -0.961569 -0.274561 0.001210
-0.221102669835 -1.632791638374 -0.019405677915 -0.959055 -0.283219 0.001216
-0.233259230852 -1.591824889183 -0.029014835134 -0.959055 -0.283219 0.001216
-0.187690317631 -1.745218515396 0.054510965943 -0.959055 -0.283219 0.001216
-0.053892619908 -1.783953309059 0.020202118903 0.000979 -0.999995 0.002938
-0.093085758388 -1.783845424652 0.050298728049 0.000979 -0.999995 0.002938
-0.029780134559 -1.784127593040 -0.028410755098 0.000979 -0.999995 0.002938
0.131958991289 -1.783796310425 0.064011491835 0.000979 -0.999995 0.002938
0.074888207018 -1.784191012383 -0.046137128025 0.000979 -0.999995 0.002938
0.224522769451 -1.762028217316 0.089965857565 0.059943 0.019981 -0.998002
0.022164359689 -1.798357963562 0.088006049395 0.000991 -0.014865 -0.999889
0.047962978482 -1.472278594971 0.192830681801 -0.510294 -0.045636 0.858788
-0.013082581572 -1.674293994904 0.183293089271 0.498524 0.065632 0.864388
0.100892893970 -1.641311645508 0.145313024521 0.027954 -0.032095 0.999094
0.077295102179 -1.674544215202 0.156631901860 -0.001028 -0.054502 0.998513
-0.070857167244 -1.802796959877 0.174490168691 0.001381 -0.711237 0.702951
-0.194502279162 -1.458401322365 0.195752233267 0.001028 -0.054502 0.998513
-0.203943163157 -1.495280146599 0.193746834993 0.001028 -0.054502 0.998513
-0.196715161204 -1.373103976250 0.200390800834 0.001028 -0.054502 0.998513
0.233505144715 -1.720935583115 0.181475624442 0.001028 -0.054502 0.998513
0.266117334366 -1.616126179695 0.128903776407 0.999999 0.000978 0.000978
0.224168464541 -1.775183558464 0.125233545899 0.866127 -0.499009 -0.028554
-0.184978753328 -1.800744414330 0.158876657486 -0.523315 -0.850907 -0.045807
-0.201327160001 -1.771762847900 0.150288507342 -0.958812 -0.283592 -0.015960
-0.219208240509 -1.709374547005 0.115537226200 -0.958812 -0.283592 -0.015960
-0.270271390676 -1.453584551811 0.132788091898 -0.999999 0.000978 0.000978
-0.259059667587 -1.339600801468 0.197693467140 -0.412350 0.490583 0.767656
-0.085361227393 -1.329419851303 0.148095071316 0.001028 0.998513 0.054502
0.061651915312 -1.327956557274 0.121184751391 0.001028 0.998513 0.054502
0.092538103461 -1.331890344620 0.193528473377 0.001028 0.998513 0.054502
0.112578183413 -1.440960407257 0.137523517013 0.999941 0.010858 0.000987
0.112650670111 -1.449852943420 0.174725681543 0.999941 0.010858 0.000987
0.218367129564 -1.504150390625 0.115932211280 0.001028 0.998513 0.054502
0.137943118811 -1.519360542297 0.192437082529 0.001028 -0.054502 0.998513
0.101421892643 -1.601161003113 0.187989071012 -0.001028 -0.054502 0.998513
0.089722439647 -1.538970351219 0.191370949149 -0.001028 -0.054502 0.998513
-0.005929758772 -1.565074443817 0.189951524138 0.001028 -0.054502 0.998513
-0.031347814947 -1.404051423073 0.198707953095 0.001028 -0.054502 0.998513
-0.039857137948 -1.385877251625 0.199696272612 0.001028 -0.054502 0.998513
-0.028939938173 -1.605022072792 0.187779054046 0.001028 -0.054502 0.998513
-0.091903656721 -1.644825458527 0.185614570975 -0.001028 -0.054502 0.998513
-0.089326635003 -1.671281576157 0.184175848961 -0.001028 -0.054502 0.998513
-0.068312905729 -1.721778273582 0.181489795446 0.001028 -0.054502 0.998513
0.016334401444 -1.716493725777 0.164799869061 0.733135 0.562562 0.382149
0.041940584779 -1.807480096817 0.161997988820 0.001028 -0.998513 -0.054502
0.145710155368 -1.807187795639 0.156621649861 0.001028 -0.998513 -0.054502
0.037357524037 -1.805022001266 0.116792507470 0.001028 -0.998513 -0.054502
-0.159296303988 -1.771408915520 0.178731009364 0.001028 -0.054502 0.998513
0.130113527179 -2.240629673004 -0.436177372932 0.000991 -0.999889 0.014865
0.297569245100 -2.239923715591 -0.389125734568 0.000991 -0.999889 0.014865
0.037484347820 -2.240732669830 -0.443049103022 0.000991 -0.999889 0.014865
0.148842096329 -2.238238334656 -0.276772409678 0.000991 -0.999889 0.014865
0.206377997994 -2.239825963974 -0.382615268230 0.000991 -0.999889 0.014865
-0.093938738108 -2.240025997162 -0.395948529243 0.000991 -0.999889 0.014865
0.085473999381 -2.240670442581 -0.438902974129 0.000991 -0.999889 0.014865
-0.228689759970 -2.240932464600 -0.456358969212 0.000991 -0.999889 0.014865
0.175689697266 -2.238674640656 -0.305862843990 0.000991 -0.999889 0.014865
-0.201389327645 -2.239731788635 -0.376324027777 0.000991 -0.999889 0.014865
-0.153648391366 -2.238533735275 -0.296479821205 0.000991 -0.999889 0.014865
-0.153042942286 -2.237074375153 -0.199186637998 0.000991 -0.999889 0.014865
-0.048451632261 -2.236765861511 -0.178614541888 0.000991 -0.999889 0.014865
0.112218946218 -2.236962080002 -0.191688418388 0.000991 -0.999889 0.014865
-0.215365931392 -2.240396499634 -0.420651972294 0.000991 -0.999889 0.014865
-0.029720813036 -2.239010334015 -0.328231096268 0.000991 -0.999889 0.014865
-0.291398584843 -2.239206314087 -0.341291815042 0.000991 -0.999889 0.014865
-0.148917049170 -2.237909078598 -0.254821479321 0.000991 -0.999889 0.014865
-0.086502417922 -2.226206541061 -0.171935096383 0.000991 0.014865 0.999889
0.052591025829 -2.219085454941 -0.172041907907 0.000991 0.014865 0.999889
0.313974708319 -2.232975006104 -0.414658635855 0.999298 -0.037461 0.001012
0.185788139701 -2.202078580856 -0.403030365705 0.000991 0.999889 -0.014865
0.193319424987 -2.199450492859 -0.227826908231 0.000991 0.999889 -0.014865
0.253877967596 -2.199174165726 -0.209410026670 0.000991 0.999889 -0.014865
0.037720978260 -2.199076414108 -0.202884227037 0.000991 0.999889 -0.014865
-0.014068424702 -2.199638366699 -0.240351855755 0.000991 0.999889 -0.014865
-0.231738328934 -2.198848962784 -0.187734931707 0.000991 0.999889 -0.014865
0.280417114496 -2.199961423874 -0.261899948120 0.000991 0.999889 -0.014865
0.063532739878 -2.200397491455 -0.290961802006 0.000991 0.999889 -0.014865
0.261447191238 -2.201988220215 -0.397008866072 0.000991 0.999889 -0.014865
-0.139546945691 -2.200752258301 -0.314604699612 0.000991 0.999889 -0.014865
-0.242341786623 -2.201026916504 -0.332933485508 0.000991 0.999889 -0.014865
0.100649207830 -2.202044248581 -0.400741040707 0.000991 0.999889 -0.014865
-0.201640918851 -2.200453758240 -0.294724583626 0.000991 0.999889 -0.014865
-0.031302332878 -2.201454401016 -0.361421048641 0.000991 0.999889 -0.014865
-0.193819433451 -2.199616909027 -0.238917902112 0.000991 0.999889 -0.014865
0.217525094748 -2.202936410904 -0.460228413343 0.000991 0.999889 -0.014865
0.088686972857 -2.202505350113 -0.431486099958 0.000991 0.999889 -0.014865
0.182265818119 -2.202367544174 -0.422301411629 0.000991 0.999889 -0.014865
0.004034727812 -2.219814538956 -0.473263800144 0.000991 -0.014865 -0.999889
-0.260037720203 -2.213991403580 -0.473351180553 0.000991 -0.014865 -0.999889
-0.300218582153 -2.203861713409 -0.336719036102 -0.668528 0.743581 -0.012509
-0.305042892694 -2.209324836731 -0.247622713447 -0.999298 -0.037461 0.001012
0.292122781277 -2.241934061050 -0.257967501879 0.000991 -0.999889 0.014865
0.293812513351 -2.242209434509 -0.276328325272 0.000991 -0.999889 0.014865
0.249359473586 -2.239971876144 -0.445037871599 -0.999999 0.000978 -0.000978
0.213069081306 -2.240841627121 -0.219146892428 -0.999999 0.000978 0.000978
0.215214982629 -2.241297960281 -0.215570807457 0.000991 -0.999889 0.014865
0.217780902982 -2.244178771973 -0.407617658377 0.000991 -0.999889 0.014865
0.225863292813 -2.238079071045 -0.388901501894 0.999999 0.000978 0.000978
0.203424721956 -2.241715431213 -0.243402764201 0.000991 -0.999889 0.014865
0.188220143318 -2.242238998413 -0.278305888176 0.000991 -0.999889 0.014865
0.168672472239 -2.243228673935 -0.344288468361 0.000991 -0.999889 0.014865
0.171172440052 -2.237756490707 -0.380166143179 0.999999 0.000978 0.000978
0.142460092902 -2.243114471436 -0.336658984423 0.000991 -0.999889 0.014865
0.131457820535 -2.241678953171 -0.240967616439 0.000991 -0.999889 0.014865
0.088848948479 -2.233488798141 -0.264663308859 -0.999999 0.000978 0.000978
0.089226476848 -2.244611978531 -0.436496138573 0.000991 -0.999889 0.014865
0.084280453622 -2.239450931549 -0.186132147908 0.999999 0.000978 0.000978
