0.794179677963 0.956414878368 -0.569368779659 0.001282 -0.921514 -0.388343
0.743273019791 0.949804008007 -0.552398979664 0.001098 -0.991141 -0.132811
0.812666475773 0.938241064548 -0.466211259365 0.001098 -0.991141 -0.132811
0.752413511276 0.940418541431 -0.439903020859 0.001098 -0.991141 0.132811
0.786848604679 0.944213807583 -0.411725401878 0.001098 -0.991141 0.132811
0.694332003593 1.080644726753 -0.189352020621 -0.400546 -0.562083 0.723620
0.749857187271 1.349187493324 -0.119074188173 0.001098 0.132811 0.991141
0.771652042866 1.451830267906 -0.153224602342 0.001282 0.388343 0.921514
0.842141509056 1.289199590683 -0.111037760973 0.001098 0.132811 0.991141
0.819184362888 1.155031085014 -0.140154898167 0.001282 -0.388343 0.921514
0.773235976696 1.100571036339 -0.166812598705 0.001370 -0.612421 0.790530
0.858293235302 1.191561460495 -0.125017270446 0.254333 -0.376294 0.890909
0.861828804016 1.023817896843 -0.237129539251 0.316583 -0.750479 0.580135
0.822935879230 1.030350685120 -0.226214453578 0.001370 -0.790530 0.612421
0.802676618099 0.974252104759 -0.310806155205 0.001282 -0.921514 0.388343
0.842282414436 0.965602993965 -0.331327795982 0.001282 -0.921514 0.388343
0.748371601105 0.978370010853 -0.621425271034 0.001282 -0.921514 -0.388343
0.758470237255 1.020957469940 -0.684092164040 0.001370 -0.790530 -0.612421
0.840446829796 1.005045413971 -0.663461744785 0.001370 -0.790530 -0.612421
0.773792803288 1.075664162636 -0.736381530762 0.001370 -0.612421 -0.790530
0.694942951202 1.303804636002 -0.805674433708 -0.293277 0.132577 -0.946790
0.761779665947 1.167911171913 -0.787734091282 0.001282 -0.388343 -0.921514
0.818700194359 1.098005414009 -0.753627479076 0.001370 -0.612421 -0.790530
0.880518674850 1.019491434097 -0.257950365543 0.613132 -0.623211 0.485466
0.877172827721 1.053029179573 -0.214061766863 0.617510 -0.482903 0.620875
0.886892616749 1.074968814850 -0.209018260241 0.861497 -0.311736 0.400803
0.897058606148 1.226307868958 -0.165768563747 0.983372 -0.024381 0.179956
0.895920276642 1.027536511421 -0.296809196472 0.985316 -0.135286 0.104159
0.898229718208 1.096233606339 -0.239594876766 0.999488 0.019358 -0.025471
0.897447943687 1.190710544586 -0.210369303823 0.999478 0.013218 -0.029486
0.897755444050 1.418466925621 -0.214437663555 0.999478 -0.013218 -0.029486
0.895808041096 1.446380376816 -0.195354625583 0.985316 0.104159 0.135286
0.897733390331 1.502137422562 -0.254566311836 0.985769 0.132310 0.103702
0.893495619297 1.237639188766 -0.220590829849 0.969835 0.032773 -0.241548
0.897643566132 1.025567770004 -0.547514915466 0.999478 0.029486 0.013218
0.897102594376 1.030756115913 -0.498552322388 0.971022 0.236391 0.035156
0.897542059422 1.081407904625 -0.636428475380 0.999488 0.025471 0.019358
0.897076070309 1.066475629807 -0.595679938793 0.964710 0.207003 0.162738
0.892823696136 1.113679528236 -0.630914747715 0.963819 0.210549 0.163470
0.893739461899 1.170553088188 -0.678204655647 0.966207 0.103385 0.236127
0.898163080215 1.110155344009 -0.690981507301 0.999488 0.019358 0.025471
0.898089408875 1.120173454285 -0.703100621700 0.985316 -0.104159 -0.135286
0.894649386406 1.106662631035 -0.717867374420 0.985769 -0.103702 -0.132310
0.876077234745 1.068895339966 -0.721787452698 0.617510 -0.482903 -0.620875
0.755622267723 1.265789151192 -0.808617949486 0.001098 -0.132811 -0.991141
0.718932747841 1.343091249466 -0.804190456867 0.001098 0.132811 -0.991141
0.829868793488 1.311479330063 -0.808409094810 0.001098 0.132811 -0.991141
0.891709804535 1.586769700050 -0.581364750862 0.876561 0.443437 -0.187098
0.801803648472 1.417271494865 -0.783788323402 0.001282 0.388343 -0.921514
0.835284292698 1.628933906555 -0.530793309212 0.001098 0.991141 -0.132811
0.752112150192 1.550522089005 -0.232674092054 0.001370 0.790530 0.612421
0.801576435566 1.591031908989 -0.285746574402 0.001282 0.921514 0.388343
0.781127333641 1.611474514008 -0.334174692631 0.001282 0.921514 0.388343
0.855043292046 1.635263919830 -0.438790619373 0.001098 0.991141 0.132811
0.769788980484 1.632968425751 -0.421540558338 0.001098 0.991141 0.132811
0.669407129288 1.441353440285 -0.681857585907 -0.997774 -0.041530 0.052178
0.681644320488 1.088317990303 -0.338754355907 -0.908465 0.331014 -0.255187
0.668465554714 1.053733706474 -0.302265733480 -0.997774 0.052178 -0.041530
0.669064283371 1.454497575760 -0.244337558746 -0.997774 -0.041530 -0.052178
0.669139444828 1.316099405289 -0.167004480958 -0.987570 0.021592 0.155693
0.672195732594 1.322327017784 -0.148767292500 -0.987160 0.021633 0.158264
0.668949663639 1.157726526260 -0.198103278875 -0.988111 -0.061684 0.140826
0.688518285751 1.587355494499 -0.303156226873 -0.660513 0.689441 0.297311
0.677244365215 1.569788932800 -0.297255516052 -0.853647 0.478583 0.205535
0.814696550369 1.529648423195 -0.713612437248 0.001370 0.612421 -0.790530
0.720291912556 1.550425767899 -0.689901649952 0.001370 0.790530 -0.612421
0.771991014481 1.622908830643 -0.561173498631 0.001282 0.921514 -0.388343
0.892927527428 1.067031264305 -0.561186850071 0.966044 0.238011 0.100550
-0.679298162460 -1.693749666214 -0.133077561855 0.874385 -0.065129 0.480842
-0.669618308544 -1.757117152214 -0.206859558821 0.997820 0.026510 -0.060442
-0.670174181461 -1.710244655609 -0.204267755151 0.917490 0.054756 -0.393973
-0.679347157478 -1.633974671364 -0.226596266031 0.916653 -0.052037 -0.396282
-0.681390047073 -1.445357561111 -0.419500112534 0.919414 -0.389853 -0.051892
-0.678658723831 -1.438307881355 -0.497353047132 0.916653 -0.396282 0.052037
-0.679750800133 -1.586569070816 -0.681255817413 0.915365 -0.156557 0.370941
-0.674715936184 -1.639927148819 -0.707584381104 0.917490 -0.054756 0.393973
-0.668838918209 -1.929025411606 -0.348662286997 0.997820 0.060442 -0.026510
-0.673057138920 -1.938312888145 -0.283994674683 0.845131 -0.421787 0.328403
-0.686600863934 -1.780937433243 -0.141028404236 0.654768 -0.300839 0.693379
-0.685236752033 -1.754399895668 -0.133609220386 0.654591 -0.104440 0.748734
-0.701992213726 -1.624962568283 -0.119119137526 0.292738 0.126987 0.947723
-0.708804905415 -1.469350576401 -0.181087538600 -0.001370 0.612421 0.790530
-0.841885387897 -1.419171214104 -0.224233061075 -0.001370 0.790530 0.612421
-0.742202043533 -1.395348072052 -0.255025863647 -0.001370 0.790530 0.612421
-0.771079182625 -1.369166612625 -0.292702287436 -0.001282 0.921514 0.388343
-0.792493820190 -1.350775480270 -0.336297035217 -0.001282 0.921514 0.388343
-0.693906307220 -1.345901727676 -0.360564649105 0.660513 0.689441 0.297311
-0.668841600418 -1.482810378075 -0.662178754807 0.997774 -0.041530 0.052178
-0.668629825115 -1.549556016922 -0.712784647942 0.997820 -0.026510 0.060442
-0.748526275158 -1.696857452393 -0.113750949502 -0.001098 -0.132811 0.991141
-0.821176290512 -1.593112587929 -0.121893495321 -0.001098 0.132811 0.991141
-0.852791428566 -1.575739741325 -0.126058787107 -0.001282 0.388343 0.921514
-0.733598887920 -1.531621932983 -0.144643098116 -0.001282 0.388343 0.921514
-0.765212118626 -1.331806063652 -0.409385353327 -0.001098 0.991141 0.132811
-0.717743098736 -1.325425148010 -0.465657413006 -0.001098 0.991141 -0.132811
-0.755788207054 -1.332906246185 -0.521258473396 -0.001098 0.991141 -0.132811
-0.749782025814 -1.340928554535 -0.562835276127 -0.001282 0.921514 -0.388343
-0.715372085571 -1.358391165733 -0.604238748550 -0.001282 0.921514 -0.388343
-0.672112762928 -1.883741140366 -0.696738660336 0.988944 -0.089904 -0.117926
-0.735531985760 -2.001170396805 -0.339860439301 -0.001282 -0.921514 0.388343
-0.716659843922 -1.974723100662 -0.280442655087 -0.001370 -0.790530 0.612421
-0.858910739422 -1.946751356125 -0.245147228241 -0.316583 -0.750479 0.580135
-0.860325157642 -1.851687788963 -0.159621626139 -0.302337 -0.583879 0.753444
-0.834452927113 -1.821228027344 -0.145694509149 -0.001282 -0.388343 0.921514
-0.755228996277 -1.809296250343 -0.140636861324 -0.001282 -0.388343 0.921514
-0.883395016193 -1.340218305588 -0.491928607225 -0.594047 0.796463 -0.112942
-0.873797237873 -1.331458687782 -0.480713069439 -0.599409 0.792861 -0.109916
-0.825915515423 -1.389575004578 -0.659903824329 -0.001370 0.790530 -0.612421
-0.743454337120 -1.420696973801 -0.700221002102 -0.001370 0.790530 -0.612421
-0.710204362869 -1.462550997734 -0.736096024513 -0.001370 0.612421 -0.790530
-0.775094568729 -1.511700034142 -0.769375443459 -0.001282 0.388343 -0.921514
-0.793245911598 -1.575907707214 -0.796466350555 -0.001282 0.388343 -0.921514
-0.678041577339 -1.830180764198 -0.748292028904 0.854171 -0.202659 -0.478876
-0.672846138477 -1.978141546249 -0.556796491146 0.864718 -0.462870 -0.194971
-0.695776820183 -2.019016027451 -0.483643412590 0.293277 -0.946790 -0.132577
-0.807492136955 -2.015308856964 -0.537609815598 -0.001098 -0.991141 -0.132811
-0.882160544395 -1.954159975052 -0.648952424526 -0.617510 -0.620875 -0.482903
-0.898024260998 -1.969254136086 -0.427350997925 -0.982742 -0.183026 0.026813
-0.776738882065 -1.891855716705 -0.732998549938 -0.001370 -0.612421 -0.790530
-0.749388039112 -1.858203768730 -0.759006857872 -0.001370 -0.612421 -0.790530
-0.745852470398 -1.797767758369 -0.786668121815 -0.001282 -0.388343 -0.921514
-0.805766344070 -1.794402480125 -0.788071453571 -0.001282 -0.388343 -0.921514
-0.890950620174 -1.662328362465 -0.785809755325 -0.886710 0.064613 -0.457790
-0.894852936268 -1.704157710075 -0.773010492325 -0.983449 -0.024326 -0.179546
-0.894501507282 -1.644365429878 -0.774745941162 -0.982880 0.024427 -0.182618
-0.875918149948 -1.574891686440 -0.789260745049 -0.601786 0.314607 -0.734082
-0.897573471069 -1.644739627838 -0.733551621437 -0.999496 -0.005053 0.031329
-0.891234993935 -1.673896670341 -0.699476361275 -0.971022 -0.035156 0.236391
-0.881425023079 -1.380024671555 -0.627066075802 -0.610761 0.726789 -0.314244
-0.895180463791 -1.377654075623 -0.556156277657 -0.984120 0.163028 -0.070209
-0.897224247456 -1.458201408386 -0.606474697590 -0.999488 -0.025471 0.019358
-0.896822214127 -1.416774034500 -0.440519303083 -0.971022 -0.236391 -0.035156
-0.897462069988 -1.923453092575 -0.357348710299 -0.999478 0.029486 -0.013218
-0.897205650806 -1.869880080223 -0.288441061974 -0.999488 0.025471 -0.019358
-0.776260197163 -2.021216392517 -0.428732395172 -0.001098 -0.991141 0.132811
-0.822237610817 -2.015267372131 -0.384546786547 -0.001098 -0.991141 0.132811
-0.748461186886 -2.003353595734 -0.345042854548 -0.001282 -0.921514 0.388343
-0.898136138916 -1.420142769814 -0.319186061621 -0.999478 -0.029486 -0.013218
-0.897399127483 -1.496115803719 -0.263632178307 -0.999488 -0.019358 -0.025471
-0.894926488400 -1.515032291412 -0.190242245793 -0.985316 0.104159 0.135286
-0.893222272396 -1.732297658920 -0.146923169494 -0.880540 -0.062010 0.469897
-0.891432642937 -1.388462185860 -0.311683297157 -0.866651 0.459340 0.194736
-0.686830282211 -2.004707813263 -0.385485291481 0.654591 -0.748734 0.104440
-0.824164986610 -1.639252781868 -0.806743025780 -0.001098 0.132811 -0.991141
-0.834782481194 -1.665658712387 -0.810288369656 -0.001098 0.132811 -0.991141
-0.755059719086 -1.690058469772 -0.809598267078 -0.001098 -0.132811 -0.991141
-0.843643188477 -1.974607229233 -0.642090678215 -0.001370 -0.790530 -0.612421
-0.847073197365 -2.006368637085 -0.570184290409 -0.001282 -0.921514 -0.388343
-0.732410430908 -1.997977256775 -0.590145409107 -0.001282 -0.921514 -0.388343
-0.683027565479 -1.938265323639 -0.663730442524 0.661781 -0.591414 -0.460734
-0.686241924763 -1.878167867661 -0.727532029152 0.661781 -0.460734 -0.591414
-0.897953093052 -1.950912356377 -0.541306078434 -0.999478 0.029486 0.013218
-0.897382318974 -1.925137758255 -0.555326342583 -0.999478 0.029486 0.013218
-0.683790802956 -1.519531250000 -0.757152795792 0.654768 0.300839 -0.693379
-0.757007956505 -1.910772085190 -0.204046964645 -0.001370 -0.612421 0.790530
-0.712938010693 -1.936530113220 -0.231006443501 -0.001370 -0.790530 0.612421
-0.669987440109 1.165163516998 -0.187582582235 0.988729 -0.058977 0.137613
-0.680036902428 1.211245417595 -0.139869868755 0.868012 -0.068271 0.491827
-0.677243769169 1.230872631073 -0.223793372512 0.917490 0.054756 -0.393973
-0.668915390968 1.534607887268 -0.335088849068 0.997820 -0.060442 -0.026510
-0.679272174835 1.479259610176 -0.319485485554 0.910515 -0.327785 -0.252031
-0.671679079533 1.519358992577 -0.353310674429 0.912172 -0.375934 -0.163141
-0.670526444912 1.584993600845 -0.391356170177 0.987570 0.155693 0.021592
-0.680525243282 1.511022329330 -0.384347468615 0.915365 -0.370941 -0.156557
-0.678357005119 1.489148616791 -0.593344151974 0.909843 -0.327544 0.254756
-0.679801464081 1.130233168602 -0.638666629791 0.908465 0.255187 0.331014
-0.669075369835 1.011362195015 -0.468946069479 0.997778 0.065960 0.009423
-0.668742477894 1.006315827370 -0.453184813261 0.997778 0.065960 -0.009423
-0.671887159348 1.050191521645 -0.258023589849 0.988944 -0.117926 0.089904
-0.673726320267 1.072468161583 -0.226268947124 0.849704 -0.321551 0.417862
-0.694077193737 1.238008975983 -0.121803082526 0.654591 -0.104440 0.748734
-0.779080629349 1.510321378708 -0.193881183863 -0.001370 0.612421 0.790530
-0.808298587799 1.545238018036 -0.225858449936 -0.001370 0.790530 0.612421
-0.751698911190 1.599003195763 -0.304602324963 -0.001282 0.921514 0.388343
-0.726555168629 1.622947573662 -0.361325174570 -0.001282 0.921514 0.388343
-0.668261229992 1.523195147514 -0.623774170876 0.997774 -0.052178 0.041530
-0.669889390469 1.063933014870 -0.598593354225 0.997774 0.052178 0.041530
-0.669719874859 1.029391765594 -0.526858031750 0.997778 0.065960 0.009423
-0.677637338638 1.021455764771 -0.276420116425 0.848852 -0.417443 0.324333
-0.752347290516 1.289289712906 -0.111026331782 -0.001098 0.132811 0.991141
-0.747856974602 1.379264354706 -0.123115114868 -0.001098 0.132811 0.991141
-0.758116126060 1.391333103180 -0.127690687776 -0.001282 0.388343 0.921514
-0.707235872746 1.427654266357 -0.143004059792 -0.001282 0.388343 0.921514
-0.744795382023 1.477201104164 -0.168281346560 -0.001370 0.612421 0.790530
-0.809875369072 1.630650758743 -0.404370963573 -0.001098 0.991141 0.132811
-0.718266546726 1.602093696594 -0.610534489155 -0.001282 0.921514 -0.388343
-0.696653008461 1.599623441696 -0.605943500996 0.385680 0.847872 -0.363820
-0.696207702160 1.558696508408 -0.671334564686 0.418730 0.716641 -0.557755
-0.690081357956 1.577929973602 -0.639237821102 0.661781 0.591414 -0.460734
-0.688219010830 0.967531323433 -0.352364510298 0.655400 -0.694047 0.297909
-0.757528305054 0.973315775394 -0.312994748354 -0.001282 -0.921514 0.388343
-0.822804570198 1.025068879128 -0.233050927520 -0.001370 -0.790530 0.612421
-0.866249918938 1.031331062317 -0.229821711779 -0.316583 -0.750479 0.580135
-0.853595852852 1.144978284836 -0.144406899810 -0.001282 -0.388343 0.921514
-0.707112133503 1.130478858948 -0.150484442711 -0.001282 -0.388343 0.921514
-0.833952307701 1.267020463943 -0.113674499094 -0.001098 -0.132811 0.991141
-0.874562621117 1.514115691185 -0.204709172249 -0.617510 0.482903 0.620875
-0.882237493992 1.627179861069 -0.454648166895 -0.594241 0.796723 0.110045
-0.880345404148 1.617505431175 -0.547154247761 -0.599409 0.792861 -0.109916
-0.839191973209 1.544193267822 -0.697918295860 -0.001370 0.790530 -0.612421
-0.708968222141 1.575027704239 -0.658063471317 -0.001370 0.790530 -0.612421
-0.734878003597 1.503078579903 -0.734166383743 -0.001370 0.612421 -0.790530
-0.832866132259 1.422532916069 -0.781559169292 -0.001282 0.388343 -0.921514
-0.679490327835 0.967103719711 -0.534734845161 0.868012 -0.491827 -0.068271
-0.715864300728 0.941838860512 -0.493175506592 -0.001098 -0.991141 -0.132811
-0.831062495708 0.948640584946 -0.543568909168 -0.001098 -0.991141 -0.132811
-0.898062646389 1.129337191582 -0.701849043369 -0.999488 0.019358 0.025471
-0.883756458759 1.187034964561 -0.782535195351 -0.602596 -0.318261 -0.731839
-0.856037199497 0.998371720314 -0.654817163944 -0.001370 -0.790530 -0.612421
-0.730574548244 1.098696589470 -0.754190504551 -0.001370 -0.612421 -0.790530
-0.732153832912 1.118342876434 -0.766824424267 -0.001282 -0.388343 -0.921514
-0.756912410259 1.186659455299 -0.795647382736 -0.001282 -0.388343 -0.921514
-0.859251737595 1.277155160904 -0.809650301933 -0.214540 -0.134890 -0.967356
-0.896329581738 1.281605958939 -0.768216252327 -0.982742 -0.026813 -0.183026
-0.876104116440 1.454998254776 -0.760362029076 -0.610761 0.314244 -0.726789
-0.885206580162 1.472939729691 -0.738824248314 -0.861497 0.311736 -0.400803
-0.896375060081 1.447608351707 -0.659613907337 -0.964710 -0.162738 0.207003
-0.895131826401 1.480240464211 -0.621448576450 -0.963819 -0.210549 0.163470
-0.892594218254 0.966358184814 -0.448944687843 -0.886864 -0.457869 0.061874
-0.887513637543 0.996224582195 -0.305652797222 -0.866146 -0.459072 0.197594
-0.890386819839 0.973806202412 -0.371091872454 -0.876561 -0.443437 0.187098
-0.894084155560 1.022842049599 -0.285452485085 -0.985769 -0.132310 0.103702
-0.876039981842 0.987029910088 -0.298137396574 -0.610761 -0.726789 0.314244
-0.813959956169 0.941266894341 -0.433709859848 -0.001098 -0.991141 0.132811
-0.723342478275 0.940041184425 -0.442654281855 -0.001098 -0.991141 0.132811
-0.832813799381 0.961570203304 -0.340877771378 -0.001282 -0.921514 0.388343
-0.883172214031 1.063223004341 -0.212073773146 -0.617510 -0.482903 0.620875
-0.898022234440 1.343474149704 -0.178349763155 -0.999496 -0.005053 -0.031329
-0.894685089588 1.222352623940 -0.153340727091 -0.982880 -0.024427 0.182618
-0.892843484879 1.499948024750 -0.220799699426 -0.862319 0.308959 0.401186
-0.897275269032 1.573148488998 -0.366420120001 -0.983736 0.165344 0.070182
-0.781456887722 1.360683679581 -0.801810204983 -0.001098 0.132811 -0.991141
-0.799825727940 0.988508045673 -0.642074167728 -0.001370 -0.790530 -0.612421
-0.810336828232 0.972021639347 -0.606340587139 -0.001282 -0.921514 -0.388343
-0.778263092041 0.967500507832 -0.595648527145 -0.001282 -0.921514 -0.388343
-0.675382196903 1.392526865005 -0.765063703060 0.864718 0.194971 -0.462870
-0.784849345684 1.070694446564 -0.189899042249 -0.001370 -0.612421 0.790530
0.886639118195 -1.867979407310 -0.361254483461 0.975866 0.201095 -0.085126
0.887359499931 -1.680587410927 -0.240437179804 0.975892 0.029862 -0.216201
0.888500869274 -1.458103418350 -0.397568017244 0.975866 -0.201095 -0.085126
0.819734573364 -1.871856451035 -0.526000559330 0.001279 0.921899 0.387428
0.846375107765 -1.853956937790 -0.567427098751 0.001370 0.790530 0.612421
0.885553956032 -1.883732318878 -0.497377604246 0.975892 0.216201 0.029862
0.775579869747 -1.713824868202 -0.664102137089 0.001098 0.132811 0.991141
0.737500905991 -1.712890744209 -0.664227664471 0.001098 0.132811 0.991141
0.851607978344 -1.622326374054 -0.662184059620 0.001098 -0.132811 0.991141
0.844913780689 -1.473199009895 -0.506301760674 0.001098 -0.991141 0.132811
0.817799806595 -1.469668626785 -0.480028241873 0.001098 -0.991141 0.132811
0.694458365440 -1.604720711708 -0.659860551357 -0.854979 -0.202140 0.477650
0.690592706203 -1.888639211655 -0.422647923231 -0.855706 0.512862 -0.068850
0.743124544621 -1.876437425613 -0.410261183977 0.001098 0.991141 -0.132811
0.805232048035 -1.807152271271 -0.302354305983 0.001370 0.612421 -0.790530
0.693385422230 -1.752831697464 -0.263659685850 -0.854979 0.202140 -0.477650
0.722757220268 -1.771521925926 -0.277879625559 0.001279 0.387428 -0.921899
0.778752148151 -1.744227409363 -0.266361206770 0.001279 0.387428 -0.921899
0.820196032524 -1.487352728844 -0.375623494387 0.001279 -0.921899 -0.387428
0.799301981926 -1.498604893684 -0.352245599031 0.001370 -0.790530 -0.612421
0.860728919506 -1.604334712029 -0.267147749662 0.001279 -0.387428 -0.921899
0.789952516556 -1.645327448845 -0.257162660360 0.001098 -0.132811 -0.991141
0.788199186325 -1.651941299438 -0.256273955107 0.001098 -0.132811 -0.991141
0.826710700989 -1.707604527473 -0.257499396801 0.001098 0.132811 -0.991141
0.733982861042 -1.876097440720 -0.514706254005 0.001098 0.991141 0.132811
0.750547528267 -1.844555735588 -0.579595386982 0.001370 0.790530 0.612421
0.709122478962 -1.763950347900 -0.647752940655 0.001279 0.387428 0.921899
0.839467942715 -1.482162237167 -0.534514605999 0.001279 -0.921899 0.387428
0.885847032070 -1.577433347702 -0.651068806648 0.975866 -0.085126 0.201095
0.889543056488 -1.658546328545 -0.690308630466 0.975892 -0.029862 0.216201
0.870901763439 -1.658424377441 -0.305732667446 0.167478 0.586929 0.792127
0.886419296265 -1.745642304420 -0.416885405779 0.993823 0.090755 -0.063865
0.877461433411 -1.855665326118 -0.353613942862 0.984271 -0.140610 0.106960
0.874847829342 -1.606752276421 -0.273169457912 0.145374 -0.447637 -0.882320
0.865504384041 -1.837031126022 -0.386588186026 0.147593 -0.375307 -0.915074
0.877649724483 -1.793904900551 -0.632318258286 0.984332 -0.112048 -0.136144
0.870507895947 -1.771945118904 -0.644731223583 0.240076 0.407086 0.881274
0.879407107830 -1.478417992592 -0.476407289505 0.988880 0.148611 -0.005587
0.886314511299 -1.698572278023 -0.539501845837 0.993923 0.018629 0.108488
0.887398838997 -1.630397439003 -0.541074156761 0.994384 -0.047775 0.094439
0.884274065495 -1.586472749710 -0.593472182751 0.995430 0.051696 -0.080294
0.881855010986 -1.713489055634 -0.629799783230 0.149390 0.975427 -0.161943
0.887476742268 -1.733970284462 -0.538941800594 0.999976 0.004936 0.004936
0.867572605610 -1.587154269218 -0.330342262983 0.165344 0.070182 0.983736
0.889562964439 1.099759697914 -0.329332768917 0.975573 0.174075 -0.134000
0.816893517971 1.099203228951 -0.544761717319 0.001279 0.921899 0.387428
0.820801258087 1.202663660049 -0.649218022823 0.001279 0.387428 0.921899
0.886952519417 1.282010078430 -0.680095553398 0.975892 0.029862 0.216201
0.789550185204 1.346567869186 -0.660454928875 0.001279 -0.387428 0.921899
0.862634062767 1.493890404701 -0.476928293705 0.001098 -0.991141 0.132811
0.742687582970 1.495186686516 -0.467281192541 0.001098 -0.991141 0.132811
0.696373403072 1.372115373611 -0.650645852089 -0.854979 -0.202140 0.477650
0.686514556408 1.068939924240 -0.413467973471 -0.855706 0.512862 -0.068850
0.776585042477 1.081639409065 -0.447958528996 0.001098 0.991141 -0.132811
0.774699151516 1.094650030136 -0.388465255499 0.001279 0.921899 -0.387428
0.773797929287 1.107847213745 -0.357192516327 0.001279 0.921899 -0.387428
0.730419516563 1.136816501617 -0.319246441126 0.001370 0.790530 -0.612421
0.684135913849 1.070956230164 -0.390281885862 -0.854979 0.477650 -0.202140
0.811595559120 1.169945001602 -0.291572809219 0.001370 0.612421 -0.790530
0.685963332653 1.347171425819 -0.242854550481 -0.855706 -0.068850 -0.512862
0.696736693382 1.438645958900 -0.318250983953 -0.855276 -0.409852 -0.317055
0.704844057560 1.488839626312 -0.407920777798 0.001098 -0.991141 -0.132811
0.837315380573 1.482658743858 -0.391900420189 0.001279 -0.921899 -0.387428
0.860238850117 1.464293599129 -0.351930022240 0.001370 -0.790530 -0.612421
0.755264341831 1.439926266670 -0.320390462875 0.001370 -0.790530 -0.612421
0.881128907204 1.429370164871 -0.309694975615 0.001370 -0.612421 -0.790530
0.794031023979 1.409714937210 -0.294509351254 0.001370 -0.612421 -0.790530
0.705221474171 1.369685053825 -0.271738022566 0.001279 -0.387428 -0.921899
0.803429007530 1.323932290077 -0.257984668016 0.001098 -0.132811 -0.991141
0.726057291031 1.316554427147 -0.256993293762 0.001098 -0.132811 -0.991141
0.754729866982 1.274978876114 -0.254887133837 0.001098 0.132811 -0.991141
0.820288836956 1.230931520462 -0.661147117615 0.001279 0.387428 0.921899
0.757661342621 1.363260030746 -0.653410792351 0.001279 -0.387428 0.921899
0.813561439514 1.420839190483 -0.619333386421 0.001370 -0.612421 0.790530
0.781545519829 1.482256293297 -0.531490802765 0.001279 -0.921899 0.387428
0.885526657104 1.331899285316 -0.323534667492 0.142051 0.389585 0.909970
0.887276351452 1.267398118973 -0.344346344471 0.998730 -0.003079 0.050296
0.886971056461 1.309209465981 -0.339490205050 0.998756 0.011361 0.048543
0.884020686150 1.291287660599 -0.395328849554 0.986312 0.010215 -0.164574
0.865777790546 1.164245963097 -0.352917909622 0.213033 -0.204994 0.955298
0.870499432087 1.132392406464 -0.323284387589 0.177102 0.846813 -0.501540
0.886323869228 1.152310848236 -0.480479627848 0.998751 -0.048644 -0.011385
0.863206386566 1.451370954514 -0.336624383926 0.239737 -0.750549 -0.615795
0.878220081329 1.480683565140 -0.425503671169 0.135260 -0.990011 0.039782
0.882176160812 1.339759945869 -0.483253747225 0.982812 -0.178157 0.048374
0.874199330807 1.356065392494 -0.611466407776 0.213293 -0.229595 -0.949627
-0.875828266144 -1.880248785019 -0.438625395298 0.001098 0.991141 -0.132811
-0.753257632256 -1.881693124771 -0.449374914169 0.001098 0.991141 -0.132811
-0.683633089066 -1.849782943726 -0.313694447279 0.855276 0.409852 -0.317055
-0.683307051659 -1.737545013428 -0.239126905799 0.854979 0.202140 -0.477650
-0.783310890198 -1.710103511810 -0.257835209370 0.001098 0.132811 -0.991141
-0.860270559788 -1.741280913353 -0.265117824078 0.001279 0.387428 -0.921899
-0.830684125423 -1.806021571159 -0.301480740309 0.001370 0.612421 -0.790530
-0.759961485863 -1.798414230347 -0.295603305101 0.001370 0.612421 -0.790530
-0.850562453270 -1.843958377838 -0.342068731785 0.001370 0.790530 -0.612421
-0.709438264370 -1.854028463364 -0.355102986097 0.001370 0.790530 -0.612421
-0.873590290546 -1.863939642906 -0.377676665783 0.001279 0.921899 -0.387428
-0.830854415894 -1.870733022690 -0.393774569035 0.001279 0.921899 -0.387428
-0.886870086193 -1.865818619728 -0.353482455015 -0.975866 0.201095 -0.085126
-0.842324137688 -1.683633565903 -0.254278421402 0.001098 0.132811 -0.991141
-0.807510316372 -1.537613391876 -0.306727379560 0.001370 -0.612421 -0.790530
-0.885895907879 -1.539157629013 -0.296953767538 -0.975573 -0.134000 -0.174075
-0.879786133766 -1.522309422493 -0.321564137936 0.001370 -0.790530 -0.612421
-0.829515755177 -1.485520124435 -0.379966259003 0.001279 -0.921899 -0.387428
-0.887257277966 -1.531950831413 -0.294843345881 -0.975573 -0.134000 -0.174075
-0.885408818722 -1.494356632233 -0.350194066763 -0.975573 -0.174075 -0.134000
-0.703577935696 -1.470930337906 -0.489417821169 0.001098 -0.991141 0.132811
-0.694860100746 -1.879962563515 -0.511433362961 0.855706 0.512862 0.068850
-0.763333797455 -1.864045023918 -0.544510900974 0.001279 0.921899 0.387428
-0.775743842125 -1.728089809418 -0.662185370922 0.001098 0.132811 0.991141
-0.760221242905 -1.704938054085 -0.665296316147 0.001098 0.132811 0.991141
-0.850752413273 -1.638756275177 -0.664391756058 0.001098 -0.132811 0.991141
-0.685274720192 -1.654422163963 -0.685897529125 0.855706 -0.068850 0.512862
-0.743975341320 -1.555156111717 -0.629263520241 0.001370 -0.612421 0.790530
-0.854179739952 -1.502086877823 -0.574698686600 0.001370 -0.790530 0.612421
-0.793427348137 -1.865962028503 -0.539968132973 0.001279 0.921899 0.387428
-0.855677008629 -1.495078682899 -0.565122127533 0.001279 -0.921899 0.387428
-0.708483636379 -1.520969748497 -0.599139392376 0.001370 -0.790530 0.612421
-0.830240547657 -1.479348540306 -0.527846932411 0.001279 -0.921899 0.387428
-0.879111170769 -1.665121197701 -0.483304262161 -0.375761 0.204565 -0.903857
-0.877561450005 -1.705729007721 -0.459002465010 -0.988772 0.145172 -0.035436
-0.886449396610 -1.657238602638 -0.542745292187 -0.993263 -0.023150 0.113547
-0.886685788631 -1.633548021317 -0.584262013435 -0.998756 0.011361 -0.048543
-0.873150765896 -1.523055315018 -0.585568189621 -0.136785 -0.698956 0.701962
-0.887018501759 -1.576362133026 -0.535032927990 -0.998725 0.038694 -0.032419
-0.887346744537 -1.575497984886 -0.521096646786 -0.998757 0.044783 -0.021871
-0.860914945602 -1.493303179741 -0.372728914022 -0.140335 -0.938749 -0.314733
-0.884653389454 -1.529547572136 -0.436693608761 -0.166559 0.811786 0.559697
-0.886152565479 -1.595429182053 -0.456908345222 -0.994546 -0.104293 0.001075
-0.886870503426 -1.692214965820 -0.586906492710 -0.998734 -0.001026 -0.050296
-0.864044725895 -1.838310003281 -0.554021239281 -0.153148 0.977407 0.145677
-0.879926025867 -1.848960757256 -0.547163307667 -0.988486 -0.138225 -0.061563
-0.875645577908 -1.880987763405 -0.474401950836 -0.125177 0.985920 -0.110871
-0.871944606304 -1.867151737213 -0.418241083622 -0.135430 0.934328 -0.329682
-0.887081980705 -1.792984604836 -0.490027308464 -0.998756 -0.048543 -0.011361
-0.887047946453 -1.593877673149 -0.368306219578 -0.998739 0.036527 0.034439
-0.885512053967 -1.550414562225 -0.383547157049 -0.996406 0.076813 0.035702
-0.879218578339 -1.601435303688 -0.331280738115 -0.165344 0.070182 0.983736
-0.869997620583 -1.664612174034 -0.253742396832 -0.177308 0.137068 -0.974564
-0.877904355526 -1.780263066292 -0.290289789438 -0.140688 0.413538 -0.899552
-0.877451598644 -1.574587583542 -0.278485417366 -0.986157 0.079319 0.145615
-0.886632442474 -1.706842064857 -0.332977086306 -0.998693 -0.007229 0.050606
-0.887163579464 -1.660257816315 -0.372601956129 -0.993340 -0.027685 -0.111848
-0.888503015041 1.061682581902 -0.458222210407 -0.975892 0.216201 -0.029862
-0.831151902676 1.191206932068 -0.278054177761 0.001279 0.387428 -0.921899
-0.798812985420 1.154822945595 -0.303256124258 0.001370 0.612421 -0.790530
-0.854467630386 1.122926235199 -0.337225228548 0.001370 0.790530 -0.612421
-0.717160105705 1.130425930023 -0.327518016100 0.001370 0.790530 -0.612421
-0.739782273769 1.356206178665 -0.266049921513 0.001279 -0.387428 -0.921899
-0.725037395954 1.434681653976 -0.313798755407 0.001370 -0.612421 -0.790530
-0.843107640743 1.450749754906 -0.334399580956 0.001370 -0.790530 -0.612421
-0.867388784885 1.480433583260 -0.386627674103 0.001279 -0.921899 -0.387428
-0.888873875141 1.447446703911 -0.624154031277 -0.975573 -0.134000 0.174075
-0.887001335621 1.247860312462 -0.675726532936 -0.975892 0.029862 0.216201
-0.887585937977 1.118480086327 -0.602901160717 -0.975573 0.174075 0.134000
-0.733028411865 1.085937023163 -0.415976494551 0.001098 0.991141 -0.132811
-0.714978456497 1.085965394974 -0.415764838457 0.001098 0.991141 -0.132811
-0.720720708370 1.095303177834 -0.535520136356 0.001279 0.921899 0.387428
-0.788831353188 1.133768081665 -0.599245190620 0.001370 0.790530 0.612421
-0.861609578133 1.141542315483 -0.608920693398 0.001370 0.612421 0.790530
-0.762636065483 1.178763866425 -0.637678027153 0.001370 0.612421 0.790530
-0.871360778809 1.191224336624 -0.644390523434 0.001279 0.387428 0.921899
-0.850261151791 1.227415680885 -0.659663438797 0.001279 0.387428 0.921899
-0.793718695641 1.319346904755 -0.665068864822 0.001098 -0.132811 0.991141
-0.696586668491 1.331630825996 -0.663966000080 0.855706 -0.068850 0.512862
-0.695570588112 1.209113597870 -0.654351949692 0.854979 0.202140 0.477650
-0.684409856796 1.109347581863 -0.601449549198 0.855276 0.409852 0.317055
-0.766296088696 1.424224615097 -0.616717755795 0.001370 -0.612421 0.790530
-0.801144301891 1.445914030075 -0.594296932220 0.001370 -0.790530 0.612421
-0.870687425137 1.080282330513 -0.464378505945 0.001098 0.991141 0.132811
-0.843561232090 1.471874475479 -0.556092023849 0.001279 -0.921899 0.387428
-0.786537587643 1.441710233688 -0.322699457407 0.001370 -0.790530 -0.612421
-0.863711237907 1.488892912865 -0.408316940069 0.001098 -0.991141 -0.132811
-0.858136534691 1.494059562683 -0.446768224239 0.001098 -0.991141 -0.132811
-0.775917053223 1.490387678146 -0.502996385098 0.001098 -0.991141 0.132811
-0.885889112949 1.311559438705 -0.600875675678 -0.996417 0.018234 -0.082588
-0.870243191719 1.489696264267 -0.507672369480 -0.257963 -0.910886 -0.322089
-0.872814238071 1.457760691643 -0.495884478092 -0.275662 0.457383 -0.845465
-0.886272609234 1.362821936607 -0.577029287815 -0.996311 0.037944 -0.076973
-0.886308431625 1.378861904144 -0.565667986870 -0.996072 0.066843 -0.058077
-0.868785321712 1.420798063278 -0.357616990805 -0.214872 0.971324 -0.101782
-0.885947763920 1.219461202621 -0.423231840134 -0.993805 0.103267 -0.041085
-0.881182968616 1.254488468170 -0.499582886696 -0.979814 0.158590 0.121708
-0.885363698006 1.213705301285 -0.589503526688 -0.996406 -0.035702 -0.076813
-0.878319203854 1.204292058945 -0.589690685272 -0.168477 -0.833439 -0.526304
-0.865335822105 1.195415735245 -0.645281732082 -0.240076 0.407086 0.881274
-0.868437409401 1.096360445023 -0.418635308743 -0.135430 0.934328 -0.329682
-0.877029955387 1.142115950584 -0.451987326145 -0.145819 -0.972553 0.181323
-0.885833501816 1.147064208984 -0.436459124088 -0.996101 -0.085257 0.022663
-0.887101948261 1.194211363792 -0.385112851858 -0.998796 -0.038616 0.030267
-0.886648595333 1.402658343315 -0.400070220232 -0.998762 0.044690 0.021825
-0.870993435383 1.342878818512 -0.325588971376 -0.141986 0.230565 0.962642
-0.866603732109 1.283415555954 -0.258073508739 -0.301404 0.402382 -0.864433
-0.867933094501 1.276494145393 -0.266713976860 -0.293956 0.902548 -0.314636
0.585583686829 -0.431583940983 0.558371901512 -0.443629 0.306649 -0.842116
0.649150371552 -0.639097630978 0.438177794218 -0.551383 0.308455 -0.775133
0.689594864845 -0.744367837906 0.360054433346 -0.681831 0.273052 -0.678638
0.614872634411 -0.409714818001 0.556662380695 0.263219 0.395581 -0.879904
0.730088233948 -0.863791763783 0.270994424820 -0.711632 0.255173 -0.654574
0.752377152443 -1.006233334541 0.193890273571 -0.739276 0.229754 -0.632996
0.741866827011 -0.846167743206 0.275841891766 0.417664 0.627328 -0.657280
0.644079208374 -0.728812634945 0.415224909782 -0.586086 -0.552306 0.592842
-0.643316805363 -0.736384391785 0.407419145107 0.586086 -0.552306 0.592842
-0.682673573494 -0.859582602978 0.321152925491 0.673633 0.265950 -0.689558
-0.724669218063 -0.804473996162 0.304779231548 -0.417664 0.627328 -0.657280
-0.747159421444 -0.920094013214 0.231406956911 0.739276 0.229754 -0.632996
-0.631270110607 -0.584762096405 0.472878694534 0.555791 0.312332 -0.770419
0.597562611103 0.156021267176 0.540337324142 -0.861237 0.009435 -0.508116
0.584268569946 0.172447547317 0.563335299492 -0.862359 0.014845 -0.506079
0.734341442585 0.156597450376 0.251046985388 -0.927487 0.006379 -0.373801
0.757336497307 0.031472507864 0.190923303366 -0.929206 0.011503 -0.369382
0.649330615997 0.104042410851 0.441287070513 -0.887154 0.006611 -0.461426
0.672896623611 0.178143069148 0.391907125711 -0.907291 0.006509 -0.420452
0.722961246967 0.125763207674 0.277745872736 -0.919790 0.006432 -0.392358
-0.575117230415 0.100437551737 0.599966466427 0.001176 -0.972780 0.231726
-0.623173236847 0.079517789185 0.511990308762 0.012926 -0.976518 0.215046
-0.711111783981 0.044178180397 0.360656797886 0.069101 -0.978330 0.195181
-0.714020848274 0.033846139908 0.307309806347 0.066151 -0.980239 0.186426
-0.765855252743 0.070588856936 0.170534908772 0.929206 0.011503 -0.369382
-0.743929743767 0.103838957846 0.226445466280 0.927487 0.006379 -0.373801
-0.723829150200 0.140905424953 0.275944858789 0.919790 0.006432 -0.392358
-0.693694412708 0.067614428699 0.345528870821 0.919802 0.003859 -0.392363
-0.672663867474 0.096827864647 0.391282498837 0.905843 0.003910 -0.423596
-0.656455695629 0.126263603568 0.426551163197 0.907291 0.006509 -0.420452
-0.646282315254 0.069690257311 0.446652859449 0.887154 0.006611 -0.461426
-0.579979419708 0.140722200274 0.569838881493 0.861237 0.009435 -0.508116
-0.560633182526 0.158254221082 0.603328227997 0.862359 0.014845 -0.506079
-0.698719501495 0.175680369139 0.353286147118 -0.036496 0.994253 -0.100642
-0.751062691212 0.165170550346 0.271975398064 -0.047765 0.994173 -0.096640
-0.067422866821 -0.536483883858 0.461930096149 0.001147 -0.193909 -0.981019
0.043525725603 -0.519514799118 0.526072859764 0.001147 0.193909 0.981019
-0.002840113826 -0.483813345432 0.567817807198 -0.324567 0.522824 -0.788233
-0.058031339198 -0.522403478622 0.461805701256 0.001147 0.981019 -0.193909
0.628187358379 1.307974100113 0.504890203476 -0.557384 0.450899 0.697146
0.638242304325 1.349154710770 0.485893905163 -0.650408 0.443080 0.616968
0.622740030289 1.360046982765 0.459378898144 -0.748417 0.455630 0.481948
0.651291131973 1.459207892418 0.415350615978 -0.778506 0.433948 0.453451
0.671586632729 1.532077431679 0.383556872606 -0.808362 0.424190 0.408183
0.668227851391 1.542426705360 0.367924392223 -0.789924 0.408693 0.457154
0.674732208252 1.572172641754 0.349666655064 -0.857753 0.408087 0.312610
0.682368934155 1.640568494797 0.276420503855 -0.865207 -0.131442 -0.483880
0.752193152905 1.315011858940 0.236346274614 -0.924498 -0.142764 -0.353444
0.695975959301 1.496035814285 0.289338529110 -0.838065 -0.120973 -0.531989
0.702661514282 1.420411229134 0.296734690666 -0.865015 -0.137649 -0.482496
0.779610037804 1.195045471191 0.264617592096 -0.528412 -0.791825 -0.306257
0.663414895535 1.551533341408 0.327326834202 -0.826714 -0.124373 -0.548704
0.626780927181 0.946294248104 0.541053473949 -0.303347 -0.452688 -0.838483
0.635223388672 1.114087343216 0.475968927145 -0.785885 -0.168079 -0.595092
0.627842068672 1.156834244728 0.473632961512 -0.768409 -0.139302 -0.624613
0.662726819515 1.152064919472 0.429126620293 -0.802497 -0.164113 -0.573642
0.654675781727 1.225481629372 0.421228826046 -0.786666 -0.138823 -0.601568
0.675488114357 1.228110432625 0.389468997717 -0.822565 -0.162722 -0.544893
0.665102839470 1.263549447060 0.395227521658 -0.802728 -0.137992 -0.580160
0.566185772419 1.125859737396 0.572789371014 -0.415165 0.415165 0.809491
-0.594168543816 1.030402779579 0.546566843987 0.744002 -0.182549 -0.642757
-0.681947648525 1.100016713142 0.427977025509 0.350148 -0.524415 -0.776135
-0.808450162411 1.177016496658 0.213338419795 0.551929 -0.828614 0.093669
-0.741964876652 1.392126202583 0.232041284442 0.924498 -0.142764 -0.353444
-0.699033021927 1.592756271362 0.259467273951 0.865207 -0.131442 -0.483880
-0.711848795414 1.727038621902 0.276061147451 0.891275 0.328049 0.313070
-0.636245608330 1.419899106026 0.427034527063 0.778506 0.433948 0.453451
-0.623502612114 1.288137197495 0.513937354088 0.557384 0.450899 0.697146
-0.633842587471 1.085606575012 0.484923243523 0.749372 -0.139662 -0.647253
-0.623727798462 1.271217107773 0.451040327549 0.786666 -0.138823 -0.601568
-0.643543362617 1.330859422684 0.409067600965 0.802728 -0.137992 -0.580160
-0.643221974373 1.448479652405 0.380980581045 0.811304 -0.134478 -0.568947
-0.695658802986 1.278131961823 0.345480740070 0.855428 -0.154065 -0.494476
-0.665628194809 1.424017429352 0.353512227535 0.818605 -0.127861 -0.559944
-0.728012025356 1.271268963814 0.293202519417 0.826714 -0.124373 -0.548704
-0.733052909374 1.250323534012 0.290211468935 0.865015 -0.137649 -0.482496
-0.732532501221 1.326192378998 0.270945400000 0.838065 -0.120973 -0.531989
-0.730139493942 1.376667141914 0.261909753084 0.863587 -0.128743 -0.487486
0.816738903522 -0.267842113972 0.170258700848 0.001003 -0.027071 0.999633
0.802072048187 -0.260628521442 0.170216217637 -0.017286 -0.025420 0.999527
0.793407320976 -0.224984928966 0.170939937234 -0.017252 -0.023340 0.999579
0.789239048958 -0.091096401215 0.174189314246 0.001001 -0.025017 0.999686
0.789798796177 0.428884714842 0.186650037766 0.000999 -0.022971 0.999736
0.803384304047 0.357263147831 0.185065060854 -0.025625 -0.023575 0.999394
0.782044529915 0.674125134945 0.192274749279 -0.025625 -0.023575 0.999394
0.793079316616 1.076596498489 0.201518967748 0.000997 -0.020933 0.999780
0.760968327522 1.095163464546 0.186036661267 -0.981685 -0.008075 0.190339
0.756980061531 0.798556447029 0.153097376227 -0.980100 -0.008119 0.198340
0.753057956696 1.086858034134 0.142916932702 -0.990315 -0.007763 0.138622
0.754375398159 0.738757014275 0.135225743055 -0.990315 -0.007763 0.138622
0.749266088009 0.720749795437 0.076868340373 -0.995771 -0.011791 0.091109
0.747071862221 0.904789566994 0.077334135771 -0.995771 -0.011791 0.091109
0.749805212021 0.914158105850 0.032659690827 -0.991164 0.012209 -0.132081
0.754936039448 1.093662977219 0.011234567501 -0.991164 0.012209 -0.132081
0.754192054272 0.799980878830 -0.063382588327 -0.998646 0.026143 -0.044965
0.753499388695 0.802721917629 -0.046417683363 -0.998646 0.026143 -0.044965
0.751059055328 0.742610573769 -0.028505388647 -0.998646 0.026143 -0.044965
0.757431030273 1.012583971024 -0.074130333960 -0.998488 0.005163 0.054726
0.752990603447 0.747283279896 -0.151878699660 -0.999721 0.005014 0.023063
0.753317654133 0.871286332607 -0.165582343936 -0.999721 0.005014 0.023063
0.753187537193 0.736741304398 -0.140632674098 -0.999721 0.005014 0.023063
0.753302991390 0.972027659416 -0.189292415977 -0.999721 0.005014 0.023063
0.750330567360 0.771454215050 -0.254882901907 -0.998687 0.028176 0.042786
0.753117442131 0.673741281033 -0.125931769609 -0.998687 0.028176 0.042786
0.752416908741 0.704290628433 -0.162226423621 -0.998687 0.028176 0.042786
0.740853071213 0.702381730080 -0.384037256241 -0.994160 0.027463 0.104359
0.744308352470 0.704986155033 -0.351602256298 -0.994160 0.027463 0.104359
0.742843151093 0.466190755367 -0.406250715256 -0.996181 -0.020418 0.084896
0.739764034748 0.608737289906 -0.409612894058 -0.996181 -0.020418 0.084896
0.750599324703 0.261991441250 -0.361871570349 -0.996181 -0.020418 0.084896
0.741070389748 0.319287538528 -0.469163388014 -0.996853 -0.022485 0.076022
0.736380159855 0.446788489819 -0.492605954409 -0.996853 -0.022485 0.076022
0.731706321239 0.615579128265 -0.503438413143 -0.996853 -0.022485 0.076022
0.746001422405 0.060313548893 -0.418275266886 -0.997132 0.009517 0.075076
0.737388610840 -0.071204572916 -0.516040265560 -0.997132 0.009517 0.075076
0.739854574203 0.068267494440 -0.499763727188 -0.997132 0.009517 0.075076
0.739724636078 0.018971579149 -0.495794683695 -0.997132 0.009517 0.075076
0.747661352158 -0.095318615437 -0.387625664473 -0.996466 0.005306 0.083835
0.743801891804 -0.156066030264 -0.429250806570 -0.996466 0.005306 0.083835
0.747395873070 -0.138668447733 -0.387906521559 -0.996466 0.005306 0.083835
0.739839732647 -0.424287825823 -0.456535339355 -0.996452 0.007428 0.083834
0.745003461838 -0.263332605362 -0.407669782639 -0.996452 0.007428 0.083834
0.739148974419 -0.487702131271 -0.459903180599 -0.996452 0.007428 0.083834
0.736120879650 -0.402593106031 -0.502136886120 -0.996452 0.007428 0.083834
0.747121274471 -0.508429229259 -0.374416083097 -0.995252 0.003207 0.097280
0.740308582783 -0.661114096642 -0.440870642662 -0.995252 0.003207 0.097280
0.746486306190 -0.697254538536 -0.376144170761 -0.995252 0.003207 0.097280
0.735224545002 -0.699233174324 -0.492403268814 -0.995252 0.003207 0.097280
0.741427838802 -0.884750962257 -0.422825753689 -0.995252 0.003207 0.097280
0.739859580994 -0.898060977459 -0.438594877720 -0.995252 0.003207 0.097280
0.741784811020 -0.803560256958 -0.421725273132 -0.995252 0.003207 0.097280
0.730860173702 -0.943014860153 -0.522592484951 -0.993960 0.007587 0.109477
0.736340522766 -1.096926093102 -0.462680369616 -0.993960 0.007587 0.109477
0.736279368401 -1.142270803452 -0.460244774818 -0.993960 0.007587 0.109477
0.754288673401 -0.800059497356 -0.260196805000 -0.997687 0.003134 0.067905
0.750425457954 -0.920173048973 -0.310833871365 -0.997687 0.003134 0.067905
0.746923744678 -1.025535464287 -0.356899023056 -0.997687 0.003134 0.067905
0.746567368507 -1.153416991234 -0.356031566858 -0.997687 0.003134 0.067905
0.747368335724 -1.125245690346 -0.345687031746 -0.997687 0.003134 0.067905
0.752519845963 -0.921746671200 -0.280219197273 -0.997687 0.003134 0.067905
0.750440895557 -1.123528480530 -0.302127093077 -0.997389 0.001047 0.072214
0.747488796711 -1.174057126045 -0.341719388962 -0.997389 0.001047 0.072214
0.758294343948 -1.152596950531 -0.194186031818 -0.997389 0.001047 0.072214
0.756582200527 -1.022382259369 -0.219696730375 -0.997389 0.001047 0.072214
0.759477734566 -0.965777277946 -0.180975481868 -0.997389 0.001047 0.072214
0.760735571384 -0.929769873619 -0.157491013408 -0.999206 0.003056 -0.039724
0.760135054588 -0.908341586590 -0.140605270863 -0.999206 0.003056 -0.039724
0.758312165737 -0.831381261349 -0.088302932680 -0.999206 0.003056 -0.039724
0.759379744530 -0.898208916187 -0.120837733150 -0.999206 0.003056 -0.039724
0.757149875164 -1.107037663460 -0.082230627537 -0.999209 0.003049 -0.039643
0.755408108234 -1.040963172913 -0.032022073865 -0.999209 0.003049 -0.039643
0.756316423416 -0.956844747066 0.029568657279 -0.999040 0.001018 0.043791
0.755347669125 -0.818486690521 0.004366123118 -0.999040 0.001018 0.043791
0.756837606430 -0.790054917336 0.038249082863 -0.999040 0.001018 0.043791
0.758796691895 -0.886501669884 0.086477771401 -0.999209 0.003049 0.039643
0.757830321789 -1.044455766678 0.070352867246 -0.999209 0.003049 0.039643
0.784617483616 -0.890031874180 0.150345981121 -0.511873 -0.028665 0.858582
0.778096914291 -0.570770382881 0.155235290527 -0.511593 -0.020355 0.858987
0.784910976887 -0.086712405086 0.174116224051 -0.626049 -0.023703 0.779424
0.759809017181 0.508262217045 0.153949454427 -0.980079 -0.010439 0.198335
0.759733438492 0.246772110462 0.139953419566 -0.981580 -0.010405 0.190766
0.747987508774 0.643787264824 0.053777556866 -0.995830 -0.007487 0.090919
0.753157258034 0.659689366817 0.112147763371 -0.995830 -0.007487 0.090919
0.752734303474 0.550603806973 0.097888782620 -0.995830 -0.007487 0.090919
0.749455988407 0.547115981579 0.061190474778 -0.997711 -0.013667 0.066234
0.749772191048 0.528108835220 0.062218554318 -0.997711 -0.013667 0.066234
0.751913249493 0.297366946936 0.048882141709 -0.997711 -0.013667 0.066234
0.748253107071 0.648527979851 -0.003326550126 -0.998978 -0.009259 -0.044239
0.752422928810 0.555557012558 -0.074632033706 -0.998978 -0.009259 -0.044239
0.750991463661 0.396735846996 -0.007224928588 -0.998978 -0.009259 -0.044239
0.747429430485 0.643513321877 0.016021028161 -0.998978 -0.009259 -0.044239
0.755569338799 0.504302263260 -0.115232780576 -0.997957 -0.015741 -0.061913
0.754725098610 0.355957627296 -0.064796462655 -0.997957 -0.015741 -0.061913
0.755645871162 0.216661304235 -0.045058958232 -0.997957 -0.015741 -0.061913
0.758437037468 0.273235321045 -0.104099169374 -0.997957 -0.015741 -0.061913
0.757408618927 0.313819736242 -0.167279139161 -0.998948 -0.017562 0.042355
0.749687016010 0.529543519020 -0.262780666351 -0.998948 -0.017562 0.042355
0.755002200603 0.376356035471 -0.198920682073 -0.998948 -0.017562 0.042355
0.749500989914 0.657186746597 -0.216112270951 -0.998948 -0.017562 0.042355
0.756647765636 0.427539527416 -0.139710903168 -0.998948 -0.017562 0.042355
0.745148718357 0.592713057995 -0.348819792271 -0.999080 -0.019590 0.038149
0.752694427967 0.366012752056 -0.264787375927 -0.999080 -0.019590 0.038149
0.749571979046 0.436092168093 -0.311930239201 -0.999080 -0.019590 0.038149
0.758282542229 0.231530010700 -0.185141026974 -0.999080 -0.019590 0.038149
0.751538097858 0.285299509764 -0.337849527597 -0.999080 -0.019590 0.038149
0.752549588680 0.026233620942 -0.318109095097 -0.999264 0.007130 0.037689
0.754017770290 0.097920611501 -0.291237831116 -0.999264 0.007130 0.037689
0.758946537971 0.134815558791 -0.167896285653 -0.999264 0.007130 0.037689
0.753489673138 0.037272792310 -0.295233905315 -0.999264 0.007130 0.037689
0.755152285099 0.145794153214 -0.269250750542 -0.999264 0.007130 0.037689
0.757714211941 -0.006970666349 -0.198161259294 -0.998375 -0.003104 0.056902
0.754718780518 -0.114584915340 -0.257652282715 -0.998375 -0.003104 0.056902
0.757120549679 -0.059107363224 -0.212103560567 -0.998375 -0.003104 0.056902
0.758350729942 -0.054396234453 -0.190427482128 -0.998375 -0.003104 0.056902
0.755892515182 -0.235766887665 -0.245747596025 -0.998375 -0.003104 0.056902
0.752633929253 -0.316672146320 -0.297423213720 -0.998375 0.003104 0.056902
0.751528382301 -0.567192077637 -0.301386833191 -0.998375 0.003104 0.056902
0.750014960766 -0.481614679098 -0.332635611296 -0.998375 0.003104 0.056902
0.753772318363 -0.346879214048 -0.275977164507 -0.998375 0.003104 0.056902
0.751788258553 -0.485176414251 -0.301848769188 -0.998375 0.003104 0.056902
0.756579458714 -0.665140748024 -0.226537153125 -0.997701 -0.001043 0.067764
0.758123099804 -0.392421036959 -0.199988141656 -0.997701 -0.001043 0.067764
0.759430944920 -0.550531506538 -0.183150738478 -0.997701 -0.001043 0.067764
0.759069800377 -0.428652763367 -0.186663106084 -0.997701 -0.001043 0.067764
0.755863964558 -0.449339270592 -0.233869776130 -0.997701 -0.001043 0.067764
0.759969770908 -0.432109117508 -0.121013142169 -0.998503 0.003091 -0.054614
