0.101174384356 1.167724370956 -0.279517441988 0.000997 0.020933 -0.999780
0.495674520731 0.961517453194 -0.283788293600 0.000997 0.020933 -0.999780
0.418334066868 0.962717413902 -0.283767819405 0.000997 0.020933 -0.999780
0.404312759638 1.085113406181 -0.281219989061 0.000997 0.020933 -0.999780
0.035896446556 1.213657140732 -0.278567820787 0.000997 0.020933 -0.999780
0.021181350574 1.145748376846 -0.236406803131 -0.990076 0.003319 -0.140491
0.016821617261 1.146457672119 -0.199174180627 -0.991746 0.001096 -0.128215
0.008554547094 1.215230822563 -0.134459942579 -0.991746 0.001096 -0.128215
0.556716084480 1.067806124687 -0.142129957676 -0.242354 0.172728 0.954688
0.285349458456 0.783350765705 -0.118758633733 -0.001034 0.061026 0.998136
0.105379104614 0.768522143364 -0.117852687836 -0.001034 0.061026 0.998136
0.364122599363 0.850589394569 -0.122909352183 -0.001034 0.061026 0.998136
0.202761054039 0.843600511551 -0.122486822307 -0.001034 0.061026 0.998136
0.387927532196 0.893390357494 -0.125553041697 -0.001034 0.061026 0.998136
0.423213869333 0.897703886032 -0.125817552209 -0.001034 0.061026 0.998136
0.360812455416 0.755615592003 -0.123612478375 -0.001381 -0.691755 0.722131
0.550602495670 0.740091085434 -0.149271845818 -0.000997 -0.999780 -0.020933
0.549898564816 0.958761572838 -0.124056838453 -0.242354 0.172728 0.954688
0.571182489395 1.196224451065 -0.146699249744 0.999999 -0.000978 0.000978
0.571189522743 1.258336544037 0.008127927780 0.999999 -0.000978 0.000978
0.571182847023 1.208463072777 0.149346932769 0.999999 -0.000978 0.000978
0.571187555790 1.185878753662 0.069186538458 0.999999 -0.000978 0.000978
0.571181952953 1.304386377335 0.161850586534 0.999999 0.000978 0.000978
0.571174144745 1.325533151627 0.230299219489 0.999999 0.000978 0.000978
0.571151077747 1.302820086479 0.363718152046 0.999999 -0.000978 0.000978
0.536311328411 1.364395380020 0.295394092798 -0.001162 0.977134 -0.212622
0.548456072807 1.356291532516 0.258248418570 0.001162 0.977134 -0.212622
0.569531798363 1.342423796654 0.199984282255 0.705958 0.690776 -0.156373
0.533851861954 1.270481586456 -0.135079443455 0.001162 0.977134 -0.212622
0.443667560816 1.189492225647 0.082716301084 -0.001264 -0.931838 0.362873
0.470917910337 1.183047890663 0.066238462925 -0.001264 -0.931838 0.362873
0.427814871073 1.223861336708 0.170603990555 -0.001264 -0.931838 0.362873
0.402293652296 1.204286098480 0.120544672012 -0.001264 -0.931838 0.362873
0.192285016179 1.216671943665 0.152205348015 -0.001264 -0.931838 0.362873
0.316642194986 1.226776480675 0.178051948547 -0.001264 -0.931838 0.362873
0.275298178196 1.208173274994 0.130477622151 -0.001264 -0.931838 0.362873
0.271759003401 1.205553174019 0.123777270317 -0.001264 -0.931838 0.362873
0.256455481052 1.247576594353 0.234083861113 -0.001236 -0.948187 0.317711
0.347928792238 1.274476051331 0.314564555883 -0.001236 -0.948187 0.317711
0.317264288664 1.246278047562 0.230202257633 -0.001236 -0.948187 0.317711
0.473195344210 1.286455035210 0.350409179926 -0.001236 -0.948187 0.317711
0.147283047438 1.269588112831 0.299924165010 -0.001236 -0.948187 0.317711
0.263952761889 1.284593105316 0.344821423292 -0.001236 -0.948187 0.317711
0.293785512447 1.272807240486 0.309568166733 -0.001236 -0.948187 0.317711
0.202116027474 1.273212075233 0.310770273209 -0.001236 -0.948187 0.317711
0.139538720250 1.305971622467 0.392320096493 -0.001355 -0.556887 0.830587
0.269412755966 1.313572883606 0.395848453045 -0.001131 -0.173011 0.984919
0.160719990730 1.321645736694 0.393792390823 -0.001219 0.291258 0.956644
0.215200170875 1.354528665543 0.383744478226 -0.001219 0.291258 0.956644
0.206499293447 1.376210093498 0.376815259457 -0.001380 0.686096 0.727510
0.159281402826 1.378398418427 0.373925894499 -0.001289 0.913864 0.406019
0.484040826559 1.367047786713 0.307551354170 0.001162 0.977134 -0.212622
0.375549107790 1.360313415527 0.276675045490 0.001162 0.977134 -0.212622
0.344863653183 1.365522146225 0.300549328327 0.001162 0.977134 -0.212622
0.507114648819 1.347119688988 0.216203391552 0.001162 0.977134 -0.212622
0.546446561813 1.317528009415 0.080569855869 0.001162 0.977134 -0.212622
0.435463041067 1.132115840912 -0.100915029645 -0.001209 -0.960928 0.276796
0.350766927004 1.138989090919 -0.076979473233 -0.001209 -0.960928 0.276796
0.322054684162 1.141844868660 -0.067033842206 -0.001209 -0.960928 0.276796
0.385313957930 1.156293630600 -0.016703350469 -0.001209 -0.960928 0.276796
0.276996374130 1.153310298920 -0.027101211250 -0.001209 -0.960928 0.276796
0.349423557520 1.165092825890 0.013943457976 -0.001209 -0.960928 0.276796
0.240630403161 1.170089244843 0.031339973211 -0.001209 -0.960928 0.276796
0.091402411461 1.152620911598 -0.029513414949 -0.001209 -0.960928 0.276796
0.266612172127 1.128939628601 -0.118622623384 0.001022 -0.998844 -0.048051
0.007476568688 1.192050576210 -0.047982595861 -0.999999 0.000978 -0.000978
0.007471417077 1.188951373100 -0.071425817907 -0.999999 0.000978 -0.000978
0.007478210609 1.202848792076 -0.148331925273 -0.999999 0.000978 -0.000978
0.035223364830 1.242382764816 -0.169100522995 0.001162 -0.212622 -0.977134
0.042397934943 1.190160512924 -0.157710164785 0.001162 -0.212622 -0.977134
0.353216886520 1.201511025429 -0.160164684057 0.001162 -0.212622 -0.977134
0.338579475880 1.208959817886 -0.161790564656 0.001162 -0.212622 -0.977134
0.225467696786 1.156779885292 -0.150413379073 0.001162 -0.212622 -0.977134
0.185596466064 1.185977101326 -0.156785473228 0.001162 -0.212622 -0.977134
0.470710933208 1.287900924683 -0.055234812200 0.001162 0.977134 -0.212622
0.334874331951 1.285973310471 -0.064078181982 0.001162 0.977134 -0.212622
0.364194214344 1.302032351494 0.009535202757 0.001162 0.977134 -0.212622
0.264872521162 1.286312460899 -0.062528476119 0.001162 0.977134 -0.212622
0.279877781868 1.280486464500 -0.089232340455 0.001162 0.977134 -0.212622
0.114716537297 1.290710210800 -0.042378414422 0.001162 0.977134 -0.212622
0.110327020288 1.267584681511 -0.148380979896 0.001162 0.977134 -0.212622
0.221610099077 1.274417996407 -0.117052249610 0.001162 0.977134 -0.212622
0.063379488885 1.299995899200 0.000182677060 0.001162 0.977134 -0.212622
0.206232756376 1.309942483902 0.045782007277 0.001162 0.977134 -0.212622
0.111177779734 1.318939924240 0.087016493082 0.001162 0.977134 -0.212622
0.286661326885 1.304605007172 0.021322734654 0.001162 0.977134 -0.212622
0.325606256723 1.317440271378 0.080155439675 0.001162 0.977134 -0.212622
0.403342485428 1.314488887787 0.066632784903 0.001162 0.977134 -0.212622
0.354763031006 1.338208913803 0.175351649523 0.001162 0.977134 -0.212622
0.471278876066 1.305106997490 0.023634245619 0.001162 0.977134 -0.212622
0.436740309000 1.339954137802 0.183356836438 0.001162 0.977134 -0.212622
0.081228107214 1.345142960548 0.207118406892 0.001162 0.977134 -0.212622
0.168378248811 1.352589845657 0.241259470582 0.001162 0.977134 -0.212622
0.318121463060 1.355837702751 0.256156146526 0.001162 0.977134 -0.212622
0.143655687571 1.349451661110 0.226872801781 0.001162 0.977134 -0.212622
0.014795985073 1.377815127373 0.356877267361 0.001162 0.977134 -0.212622
0.007489448413 1.271308779716 -0.110786944628 -0.999999 -0.000978 -0.000978
0.007480567321 1.196835517883 -0.034744367003 -0.999999 0.000978 -0.000978
0.007479495835 1.225764513016 0.059757843614 -0.999999 0.000978 -0.000978
0.007478368934 1.181761980057 0.079197287560 -0.999999 0.000978 -0.000978
0.007467866875 1.316014409065 0.260154128075 -0.999999 -0.000978 -0.000978
0.007480187807 1.302253603935 0.047795690596 -0.999999 -0.000978 -0.000978
0.007458588574 1.320795536041 0.372615009546 -0.999999 0.000978 -0.000978
0.032232828438 1.285551667213 0.375561654568 0.163823 -0.937505 0.306995
0.009120655246 1.268278121948 0.336038291454 -0.463018 -0.840865 0.280288
0.571175456047 1.143265724182 -0.033396404237 0.999999 0.000978 0.000978
0.552684009075 1.204516649246 0.147538185120 -0.205943 -0.911620 0.355719
0.526314616203 1.241236329079 0.227925062180 -0.207636 -0.928008 0.309336
0.513800680637 1.128408312798 -0.108791500330 -0.209024 -0.939918 0.269932
0.544235944748 1.184646964073 0.091812029481 -0.205943 -0.911620 0.355719
0.566414833069 1.255768299103 0.298380106688 -0.207636 -0.928008 0.309336
0.157733544707 1.315566897392 0.483913809061 -0.999999 0.000978 -0.000978
0.157730877399 1.315506935120 0.529823720455 -0.999999 0.000978 -0.000978
0.157736957073 1.380271673203 0.426119208336 -0.999999 0.000978 -0.000978
0.286759316921 1.397399544716 0.457121938467 -0.001149 0.980491 0.196558
0.205633103848 1.397241950035 0.452371120453 0.001028 0.998513 -0.054502
0.215042293072 1.335708975792 0.537205874920 -0.001127 0.167869 0.985809
0.330984085798 1.291921496391 0.528009355068 -0.001362 -0.813364 0.581753
0.199311047792 1.305881500244 0.538292348385 -0.001201 -0.265352 0.964151
0.361491948366 1.348802566528 0.530966222286 -0.001320 0.468736 0.883337
0.167396575212 1.377457261086 0.508150398731 -0.001381 0.691755 0.722131
0.380660295486 1.364126682281 0.520951867104 -0.001381 0.691755 0.722131
0.216927573085 1.285971760750 0.495654374361 -0.000989 -0.999917 -0.012857
0.272855281830 1.303220391273 0.406349122524 0.001381 -0.702951 -0.711237
0.245874032378 1.321950674057 0.394954562187 0.001268 -0.368984 -0.929435
0.181092441082 1.339638113976 0.392121523619 0.001055 -0.083307 -0.996523
0.307725995779 1.329697966576 0.392960488796 0.001055 -0.083307 -0.996523
0.175902307034 1.352195620537 0.392258256674 0.001093 0.127937 -0.991782
0.147975459695 0.821474969387 -0.323442131281 0.993503 -0.113760 -0.003250
0.148191943765 0.903315663338 -0.264519274235 0.999999 -0.000978 0.000978
0.148191452026 0.975134134293 -0.255630373955 0.999999 -0.000978 0.000978
0.148192405701 0.889647305012 -0.272666215897 0.999999 -0.000978 0.000978
0.148193791509 1.079623103142 -0.294758260250 0.999999 -0.000978 0.000978
0.148196190596 1.189794540405 -0.335007190704 0.999999 -0.000978 0.000978
0.148192688823 1.119678735733 -0.275279909372 0.999999 -0.000978 0.000978
0.098056294024 1.069568276405 -0.271758437157 -0.999999 0.000978 -0.000978
0.098054833710 0.961102306843 -0.247523501515 -0.999999 0.000978 -0.000978
0.098055019975 1.168221354485 -0.249010503292 -0.999999 0.000978 -0.000978
0.098056629300 0.881117641926 -0.279137641191 -0.999999 0.000978 -0.000978
0.098057284951 0.928715705872 -0.289931416512 -0.999999 0.000978 -0.000978
0.507166683674 1.379169106483 0.372218966484 -0.001289 0.913864 0.406019
-0.659100234509 0.311070919037 0.244873404503 0.001203 0.963362 -0.268202
-0.542568564415 0.313988447189 0.255361139774 0.001203 0.963362 -0.268202
-0.413899153471 0.315395325422 0.260422766209 0.001203 0.963362 -0.268202
-0.690377712250 0.086817368865 -0.182113572955 -0.999999 0.000978 -0.000978
-0.690378606319 0.045815154910 -0.166191756725 -0.999999 0.000978 -0.000978
-0.690384864807 0.114265263081 -0.059815667570 -0.999999 0.000978 -0.000978
-0.690395295620 0.244900003076 0.122907452285 -0.999999 0.000978 -0.000978
-0.690391004086 0.168485701084 0.046342298388 -0.999999 0.000978 -0.000978
-0.690388202667 0.171092972159 -0.000719274394 -0.999999 0.000978 -0.000978
-0.690401792526 0.215479493141 0.232600376010 -0.999999 0.000978 -0.000978
-0.690397202969 0.156998589635 0.149929225445 -0.999999 0.000978 -0.000978
-0.665516853333 0.105075150728 0.049988329411 -0.001311 -0.893111 0.449834
-0.483350753784 -0.017294785008 -0.284826099873 0.001376 -0.645448 -0.763803
-0.309054344893 -0.001443356276 -0.201422125101 -0.001346 -0.846861 0.531813
-0.417294025421 0.005802661646 -0.189865231514 -0.001346 -0.846861 0.531813
-0.498912334442 0.000917993486 -0.197665125132 -0.001346 -0.846861 0.531813
-0.533103048801 0.031155359000 -0.149413883686 -0.001346 -0.846861 0.531813
-0.367818444967 0.060220539570 -0.098090752959 -0.001322 -0.881656 0.471891
-0.274810165167 0.058425791562 -0.101438350976 -0.001322 -0.881656 0.471891
-0.487365245819 0.109959498048 -0.005170880351 -0.001322 -0.881656 0.471891
-0.493332564831 0.094429828227 -0.034185227007 -0.001322 -0.881656 0.471891
-0.619690835476 0.035017214715 -0.091649778187 0.907366 -0.367851 0.203400
-0.615419924259 0.072112254798 -0.044388681650 0.741660 -0.551743 0.381472
-0.609933018684 0.292273849249 0.280991405249 -0.004984 -0.014953 0.999876
-0.646013736725 0.207114905119 0.272438496351 0.138823 -0.601568 0.786666
-0.639741182327 -0.032547783107 -0.205503150821 0.364396 -0.908830 0.203083
-0.632530570030 0.002305012196 -0.112993612885 0.718949 -0.570882 0.396492
-0.643577456474 0.071678854525 -0.012262334116 0.389590 -0.728222 0.563838
-0.623840868473 0.109447583556 0.029279433191 0.563535 -0.748674 0.349164
-0.632831692696 0.228986829519 0.279924452305 0.141532 -0.295196 0.944896
-0.561757504940 0.267993181944 0.280642062426 -0.000991 -0.014865 0.999889
-0.198596283793 0.301796317101 0.281151503325 -0.000993 -0.016879 0.999857
-0.279242247343 0.295908570290 0.281078785658 -0.000991 -0.014865 0.999889
-0.524854302406 0.177302300930 0.152550503612 -0.001279 -0.921899 0.387428
-0.535014331341 0.169693320990 0.134466022253 -0.001279 -0.921899 0.387428
-0.471405625343 0.198699563742 0.203407526016 -0.001279 -0.921899 0.387428
-0.464007884264 0.144236922264 0.073969297111 -0.001279 -0.921899 0.387428
-0.421644002199 0.146188527346 0.078610122204 -0.001279 -0.921899 0.387428
-0.367502927780 0.154173955321 0.097591936588 -0.001279 -0.921899 0.387428
-0.332797110081 0.124004453421 0.027385124937 -0.001287 -0.915238 0.402911
-0.564329028130 0.119914583862 0.017805233598 -0.001275 -0.924466 0.381263
-0.285293459892 0.113057665527 -0.002583693014 -0.001289 -0.406019 0.913864
-0.282200992107 0.227007776499 0.263859391212 -0.001369 -0.792878 0.609379
-0.269824057817 0.081465706229 -0.058027781546 -0.211426 -0.862199 0.460339
-0.262130796909 -0.017267204821 -0.217478722334 -0.628626 -0.665116 0.403050
-0.186163291335 0.129933297634 0.088279359043 0.921057 -0.360898 0.146310
-0.189959838986 0.148118346930 0.147780537605 0.706721 -0.655900 0.265219
-0.206101089716 0.103247746825 0.046393305063 -0.001311 -0.893111 0.449834
-0.221361503005 0.115409851074 0.070261649787 -0.190592 -0.909967 0.368286
-0.185626119375 0.222797244787 0.194107219577 0.999999 0.000978 0.000978
-0.185614109039 0.102166615427 -0.011406675912 0.999999 0.000978 0.000978
-0.185606092215 0.041700735688 -0.150038957596 0.999999 -0.000978 0.000978
-0.185603007674 0.019134052098 -0.203171193600 0.999999 -0.000978 0.000978
-0.185601115227 0.017387313768 -0.235599756241 0.999999 0.000978 0.000978
-0.185628652573 0.285462588072 0.239863157272 0.999999 -0.000978 0.000978
-0.196775928140 0.043440643698 -0.288381576538 0.000997 0.020933 -0.999780
-0.239661365747 0.046579964459 -0.288318693638 0.000997 0.020933 -0.999780
-0.423630297184 0.062257051468 -0.288002967834 0.000997 0.020933 -0.999780
-0.510342657566 0.027059691027 -0.288740903139 0.000997 0.020933 -0.999780
-0.400201469660 0.008601616137 -0.289118856192 0.000997 0.020933 -0.999780
-0.609535098076 0.014429838397 -0.289009690285 0.000997 0.020933 -0.999780
-0.671474099159 0.125856593251 -0.215784698725 0.001272 0.926978 -0.375114
-0.577671825886 0.116847306490 -0.238071531057 0.001272 0.926978 -0.375114
-0.599384546280 0.138516232371 -0.184455692768 0.001272 0.926978 -0.375114
-0.508610367775 0.137142598629 -0.187849149108 0.001272 0.926978 -0.375114
-0.329130530357 0.131686508656 -0.201338768005 0.001272 0.926978 -0.375114
-0.242828264832 0.117753513157 -0.235809057951 0.001272 0.926978 -0.375114
-0.189059555531 0.160905659199 -0.120299398899 0.706721 0.655900 -0.265219
-0.213041335344 0.144429281354 -0.169801399112 0.001272 0.926978 -0.375114
-0.442789971828 0.172920987010 -0.099316075444 0.001272 0.926978 -0.375114
-0.298683881760 0.166992560029 -0.113976560533 0.001272 0.926978 -0.375114
-0.566866457462 0.161625236273 -0.127273455262 0.001272 0.926978 -0.375114
-0.393793642521 0.149153485894 -0.158122748137 0.001272 0.926978 -0.375114
-0.651981949806 0.166814118624 -0.114439167082 0.001272 0.926978 -0.375114
-0.503795504570 0.190969094634 -0.054661985487 0.001272 0.926978 -0.375114
-0.415840804577 0.184757322073 -0.070026949048 0.001272 0.926978 -0.375114
-0.201055780053 0.208755612373 -0.010633323342 0.001272 0.926978 -0.375114
-0.239695116878 0.235187754035 0.054767586291 0.001272 0.926978 -0.375114
-0.248867243528 0.227061644197 0.034659944475 0.001272 0.926978 -0.375114
-0.266455829144 0.281098455191 0.168366223574 0.001272 0.926978 -0.375114
-0.361901074648 0.235965743661 0.056685294956 0.001272 0.926978 -0.375114
-0.321328759193 0.240554019809 0.068040743470 0.001272 0.926978 -0.375114
-0.311052918434 0.265155553818 0.128914877772 0.001272 0.926978 -0.375114
-0.513770520687 0.295240670443 0.203344941139 0.001272 0.926978 -0.375114
-0.295580029488 0.256605714560 0.107760265470 0.001272 0.926978 -0.375114
-0.555651664734 0.274956285954 0.153151184320 0.001272 0.926978 -0.375114
-0.479543775320 0.243920430541 0.076361149549 0.001272 0.926978 -0.375114
-0.364258736372 0.230466350913 0.043077580631 0.001272 0.926978 -0.375114
-0.594762265682 0.260569393635 0.117550171912 0.001272 0.926978 -0.375114
-0.663780629635 0.304189443588 0.225478574634 0.001272 0.926978 -0.375114
-0.690367281437 -0.018001593649 -0.365027576685 -0.999999 0.000978 -0.000978
-0.690369784832 -0.182316303253 -0.324642688036 -0.999999 0.000978 -0.000978
-0.690369367599 -0.045844323933 -0.330349236727 -0.999999 -0.000978 -0.000978
-0.690370738506 -0.297197341919 -0.309007823467 -0.999999 0.000978 -0.000978
-0.690372109413 -0.430678158998 -0.286012470722 -0.999999 0.000978 -0.000978
-0.185597300529 -0.159946799278 -0.305634677410 0.999999 -0.000978 0.000978
-0.185597881675 -0.311789840460 -0.297024995089 0.999999 -0.000978 0.000978
-0.185599923134 -0.349659532309 -0.262171089649 0.999999 -0.000978 0.000978
-0.185597658157 -0.483943700790 -0.303417921066 0.999999 -0.000978 0.000978
-0.185595646501 -0.391235172749 -0.337370961905 0.999999 -0.000978 0.000978
-0.185613453388 -0.444827139378 -0.352307766676 0.916683 -0.009050 -0.399513
-0.186373770237 -0.202210813761 -0.362378388643 0.919853 -0.014231 -0.392005
-0.643005132675 -0.039093606174 -0.301544249058 0.139254 0.144183 0.979704
-0.641893267632 -0.502356410027 -0.245712041855 0.162760 -0.001122 0.986665
-0.612541496754 -0.384062170982 -0.282815665007 0.863666 0.074430 0.498539
-0.626759052277 -0.380743265152 -0.258900642395 0.860348 0.059959 0.506169
-0.644720017910 -0.541872262955 -0.336896985769 0.001118 -0.987489 -0.157685
-0.683591902256 -0.311919510365 -0.365715295076 -0.372663 -0.040535 -0.927081
-0.659420430660 -0.314470231533 -0.367276996374 0.001018 -0.043791 -0.999040
-0.610981404781 -0.419812977314 -0.280161589384 0.837491 0.023378 0.545951
-0.573868095875 -0.240802034736 -0.309184372425 -0.001038 0.065416 0.997858
-0.284932464361 -0.207311868668 -0.311262488365 -0.001022 0.048051 0.998844
-0.420170068741 -0.200122773647 -0.311613440514 -0.001022 0.048051 0.998844
-0.331486850977 -0.187878727913 -0.312192559242 -0.001022 0.048051 0.998844
-0.546255886555 -0.154648035765 -0.313790857792 -0.001022 0.048051 0.998844
-0.510998964310 -0.148872315884 -0.314064383507 -0.001022 0.048051 0.998844
-0.396766304970 -0.071079544723 -0.317770004272 -0.001022 0.048051 0.998844
-0.495134979486 -0.024076770991 -0.321003735065 -0.001158 0.207235 0.978290
-0.336144238710 -0.017460800707 -0.322706639767 -0.001234 0.314746 0.949175
-0.487235695124 -0.262169092894 -0.308096706867 -0.001014 0.039563 0.999217
-0.258472174406 -0.090609341860 -0.306079864502 -0.535357 0.102454 0.838389
-0.233417645097 -0.043703395873 -0.300921231508 -0.138967 0.141426 0.980146
-0.258033275604 -0.246050521731 -0.293560534716 -0.834146 0.040384 0.550063
-0.430852830410 -0.547003984451 -0.304489284754 0.001118 -0.987489 -0.157685
-0.453824222088 -0.540463924408 -0.345775514841 0.001118 -0.987489 -0.157685
-0.679773747921 -0.190407276154 -0.371480941772 -0.358413 -0.034936 -0.932909
-0.684044420719 -0.540979087353 -0.331239461899 -0.644981 -0.754702 -0.120100
-0.655617654324 0.000576771447 -0.327759474516 -0.001255 0.937612 0.347682
-0.232064783573 -0.171885937452 -0.281964182854 -0.221472 0.141172 0.964894
-0.195606887341 -0.182747915387 -0.280455142260 0.355232 0.136840 0.924708
-0.571369349957 -0.545846819878 -0.279900938272 -0.001381 -0.713977 0.700167
-0.226690754294 -0.343531996012 -0.250123262405 -0.001116 0.155160 0.987889
-0.222862288356 -0.450272083282 -0.244959071279 -0.000979 -0.002938 0.999995
-0.213396355510 -0.456383258104 -0.244979843497 -0.000979 -0.002938 0.999995
-0.221520066261 -0.470300287008 -0.360626161098 0.001016 -0.041673 -0.999131
-0.248548448086 -0.445995092392 -0.361644566059 0.001016 -0.041673 -0.999131
-0.422034442425 -0.476133823395 -0.360393792391 0.001016 -0.041673 -0.999131
-0.386770784855 -0.510163486004 -0.358968019485 0.001016 -0.041673 -0.999131
-0.529876887798 -0.403403192759 -0.363442897797 0.001016 -0.041673 -0.999131
-0.374187022448 -0.428915530443 -0.362366467714 0.001016 -0.041673 -0.999131
-0.261354655027 -0.409119516611 -0.363188117743 0.001016 -0.041673 -0.999131
-0.370670914650 -0.354751855135 -0.365526348352 0.001018 -0.043791 -0.999040
-0.356458842754 -0.310383796692 -0.367435336113 0.001018 -0.043791 -0.999040
-0.468993663788 -0.393694579601 -0.363855779171 0.001018 -0.043791 -0.999040
-0.360435098410 -0.393022656441 -0.363878399134 0.001018 -0.043791 -0.999040
-0.395829498768 -0.291655600071 -0.368056714535 0.001007 -0.031203 -0.999513
-0.508631408215 -0.262082517147 -0.369011312723 0.001007 -0.031203 -0.999513
-0.220452323556 -0.286406695843 -0.368214726448 0.001007 -0.031203 -0.999513
-0.430680155754 -0.034780122340 -0.377366602421 0.001012 -0.037461 -0.999298
-0.418463677168 -0.131183385849 -0.373790264130 0.001012 -0.037461 -0.999298
-0.327404081821 -0.201758101583 -0.371167302132 0.001012 -0.037461 -0.999298
-0.284213066101 -0.163271263242 -0.372592270374 0.001012 -0.037461 -0.999298
-0.485476613045 -0.218762412667 -0.370545804501 0.001012 -0.037461 -0.999298
-0.497536689043 -0.121341288090 -0.374159902334 0.001012 -0.037461 -0.999298
-0.531941294670 -0.179069727659 -0.372020751238 0.001012 -0.037461 -0.999298
-0.577534973621 -0.168246597052 -0.372424811125 0.001012 -0.037461 -0.999298
-0.614698529243 -0.026780366898 -0.377674013376 0.001012 -0.037461 -0.999298
-0.534001827240 0.012128057890 -0.372558116913 0.001373 0.627537 -0.778585
-0.233332335949 -0.039937008172 -0.377163797617 0.001012 -0.037461 -0.999298
-0.468861252069 0.004573566839 -0.336338698864 -0.001381 0.716707 0.697373
-0.567552685738 -0.005504054017 -0.327855885029 -0.001347 0.534955 0.844879
-0.513770937920 -0.364016473293 -0.293900907040 -0.001110 0.147635 0.989041
-0.332882940769 -0.340276092291 -0.297452121973 -0.001110 0.147635 0.989041
-0.562585711479 -0.330574929714 -0.298920959234 -0.001110 0.147635 0.989041
-0.357920229435 -0.291559278965 -0.304762482643 -0.001110 0.147635 0.989041
-0.443082511425 -0.467723131180 -0.273473769426 -0.001168 0.220763 0.975327
-0.297069489956 -0.446029126644 -0.278350919485 -0.001168 0.220763 0.975327
-0.525445103645 -0.423560291529 -0.283424377441 -0.001168 0.220763 0.975327
-0.552120923996 -0.443522214890 -0.278930366039 -0.001168 0.220763 0.975327
-0.605857253075 -0.397281467915 -0.288671135902 0.253272 0.185553 0.949433
-0.137753635645 -0.095094613731 -0.054300699383 0.999999 -0.000978 0.000978
-0.137749806046 -0.038617718965 -0.047852840275 0.999999 -0.000978 0.000978
-0.170931518078 0.135453969240 -0.026427758858 -0.000997 -0.020933 0.999780
-0.144386619329 0.000002622604 -0.096466712654 0.001055 -0.083307 -0.996523
-0.181524068117 0.060125529766 -0.101550795138 0.001055 -0.083307 -0.996523
-0.185850888491 -0.123788714409 -0.085274696350 -0.607985 -0.067236 -0.791096
-0.188189953566 0.075413800776 -0.034693356603 -0.999999 0.000978 -0.000978
-0.188177183270 0.099049434066 -0.064293168485 -0.999999 0.000978 -0.000978
-0.185232132673 -0.185948878527 -0.033515576273 -0.302688 -0.018684 0.952907
-0.141191929579 0.091586060822 -0.103936210275 0.302732 -0.079256 -0.949774
-0.498230397701 0.320385098457 0.326968967915 0.001028 0.998513 -0.054502
-0.560317218304 0.316700488329 0.364733129740 -0.001149 0.980491 0.196558
-0.571465969086 0.229676052928 0.396874845028 -0.999999 -0.000978 -0.000978
-0.550046265125 0.244013845921 0.281086862087 0.001268 -0.368984 -0.929435
-0.302649855614 0.262591511011 0.396536171436 0.999999 0.000978 0.000978
-0.302647978067 0.286510974169 0.365204453468 0.999999 0.000978 0.000978
-0.425446927547 0.292529582977 0.280791133642 0.001305 0.437266 -0.899331
-0.459178805351 0.305361211300 0.287648677826 0.001372 0.783405 -0.621510
-0.483113586903 0.312393724918 0.375121086836 -0.001334 0.865851 0.500299
-0.420129776001 0.212737619877 0.325189024210 0.001087 -0.992690 -0.120688
-0.452829807997 0.285905599594 0.408292621374 -0.001381 0.691755 0.722131
-0.445223957300 0.301089376211 0.393726527691 -0.001381 0.691755 0.722131
-0.505545616150 0.210343658924 0.355617284775 0.001014 -0.999217 -0.039563
-0.331341266632 0.086623370647 -0.278663128614 -0.001331 0.493986 0.869469
-0.299198269844 0.098676458001 -0.285508871078 -0.001331 0.493986 0.869469
-0.321981728077 0.112363822758 -0.310371279716 -0.001296 0.908224 0.418483
-0.333320379257 0.064995542169 -0.271634995937 -0.001083 0.115898 0.993261
-0.562662661076 0.061109680682 -0.271195054054 -0.001083 0.115898 0.993261
-0.262190580368 0.081511750817 -0.399267166853 0.001329 0.873026 -0.487672
-0.396156221628 0.087577179074 -0.388397693634 0.001329 0.873026 -0.487672
-0.654935121536 0.113345228136 -0.342202037573 0.001329 0.873026 -0.487672
-0.204193904996 0.104550860822 -0.357946783304 0.001329 0.873026 -0.487672
-0.174930512905 0.052610091865 -0.437334507704 0.923651 0.334206 -0.187550
-0.358178019524 0.031546447426 -0.272193640471 -0.001108 -0.145143 0.989410
-0.376207739115 0.038738772273 -0.271143615246 -0.001108 -0.145143 0.989410
-0.402089715004 0.050046272576 -0.455703765154 0.001329 0.873026 -0.487672
-0.404026746750 0.065022468567 -0.428846448660 0.001329 0.873026 -0.487672
-0.620923757553 0.049260307103 -0.457126200199 0.001329 0.873026 -0.487672
-0.622573196888 0.044168606400 -0.466257452965 0.001329 0.873026 -0.487672
-0.485979735851 -0.026385037228 -0.467882454395 0.000997 0.020933 -0.999780
-0.358498632908 -0.298654228449 -0.473833709955 0.000997 0.020933 -0.999780
-0.317716538906 -0.316541761160 -0.474222838879 0.000997 0.020933 -0.999780
-0.315083801746 -0.161662638187 -0.470833122730 0.000997 0.020933 -0.999780
-0.494467496872 -0.066094569862 -0.468752026558 0.000997 0.020933 -0.999780
-0.299694508314 -0.027929123491 -0.467905402184 0.000997 0.020933 -0.999780
-0.539355337620 0.018192982301 -0.466909945011 0.000997 0.020933 -0.999780
-0.329249680042 -0.152469903231 -0.470632731915 0.000997 0.020933 -0.999780
-0.195760115981 -0.445778995752 -0.477044135332 0.000997 0.020933 -0.999780
-0.474257528782 -0.129171952605 -0.470131278038 0.000997 0.020933 -0.999780
-0.249497443438 -0.066951222718 -0.468756496906 0.000997 0.020933 -0.999780
-0.307459920645 -0.017718654126 -0.467682421207 0.000997 0.020933 -0.999780
-0.281198829412 -0.306272834539 -0.473995953798 0.000997 0.020933 -0.999780
-0.208747878671 -0.246297150850 -0.472679167986 0.000997 0.020933 -0.999780
-0.174574822187 -0.086643859744 -0.445159047842 0.999999 -0.000978 0.000978
-0.174578934908 -0.440894603729 -0.430708497763 0.999999 -0.000978 0.000978
-0.174578562379 -0.297233700752 -0.430103212595 0.999999 -0.000978 0.000978
-0.174585655332 -0.392428010702 -0.372971534729 0.999999 -0.000978 -0.000978
-0.174585491419 -0.387424707413 -0.374133020639 0.999999 -0.000978 -0.000978
-0.174572169781 0.005790831521 -0.427321076393 0.999999 -0.000978 -0.000978
-0.174582436681 0.000826835283 -0.343939155340 0.999999 0.000978 0.000978
-0.174466967583 0.002934698015 -0.310931295156 0.999995 0.000981 -0.002944
-0.222250506282 0.008744599298 -0.280877202749 -0.001373 -0.624527 0.781002
-0.704074561596 0.043301649392 -0.373487502337 -0.999999 -0.000978 -0.000978
-0.704065203667 -0.502641797066 -0.393872529268 -0.999999 0.000978 -0.000978
-0.704064726830 -0.314076721668 -0.436277866364 -0.999999 0.000978 -0.000978
-0.704059779644 -0.086812824011 -0.354201048613 -0.999999 0.000978 0.000978
-0.704059839249 -0.078891262412 -0.422623693943 -0.999999 0.000978 0.000978
-0.704062521458 -0.373496294022 -0.379773527384 -0.999999 0.000978 0.000978
-0.416227549314 -0.017404438928 -0.313218653202 -0.001350 -0.840871 0.541234
-0.511210381985 -0.023878276348 -0.323269635439 -0.001350 -0.840871 0.541234
-0.451410859823 -0.025706069544 -0.326102256775 -0.001350 -0.840871 0.541234
-0.245487332344 -0.016138948500 -0.311244964600 -0.001350 -0.840871 0.541234
-0.476614922285 -0.108312405646 -0.352146744728 -0.001018 -0.043791 0.999040
-0.542121112347 -0.074913710356 -0.350670963526 -0.001018 -0.043791 0.999040
-0.395986557007 -0.178770050406 -0.355263411999 -0.001018 -0.043791 0.999040
-0.661127328873 -0.169580072165 -0.354871690273 -0.001018 -0.043791 0.999040
-0.471027910709 -0.266121596098 -0.359137505293 -0.001018 -0.043791 0.999040
-0.663237035275 -0.061977852136 -0.350104957819 -0.001018 -0.043791 0.999040
-0.501874923706 -0.163640409708 -0.354599297047 -0.001018 -0.043791 0.999040
-0.695459008217 -0.091682836413 -0.351422756910 -0.001018 -0.043791 0.999040
-0.635460853577 -0.280747950077 -0.359795063734 -0.001018 -0.043791 0.999040
-0.663533747196 -0.158074095845 -0.354362130165 -0.001018 -0.043791 0.999040
-0.591641604900 -0.131286382675 -0.353171199560 -0.001018 -0.043791 0.999040
-0.388604372740 -0.219980806112 -0.357088655233 -0.001018 -0.043791 0.999040
-0.668415546417 -0.498448640108 -0.369441777468 -0.001018 -0.043791 0.999040
-0.597025811672 -0.477026641369 -0.368478953838 -0.001018 -0.043791 0.999040
-0.451564729214 -0.487189888954 -0.368924438953 -0.001018 -0.043791 0.999040
-0.246980041265 -0.260981708765 -0.358895808458 -0.001018 -0.043791 0.999040
-0.439658522606 -0.498836398125 -0.369440048933 -0.001018 -0.043791 0.999040
-0.557982981205 -0.507224559784 -0.369815558195 -0.001018 -0.043791 0.999040
-0.225804656744 -0.403096139431 -0.365191340446 -0.001018 -0.043791 0.999040
-0.591358363628 -0.469446957111 -0.368142992258 -0.001018 -0.043791 0.999040
-0.251734524965 -0.432390838861 -0.366490036249 -0.001018 -0.043791 0.999040
-0.543722212315 -0.490342974663 -0.369067192078 -0.001018 -0.043791 0.999040
-0.578447103500 -0.517075181007 -0.370252668858 -0.001018 -0.043791 0.999040
-0.216076493263 -0.260693460703 -0.358882009983 -0.001018 -0.043791 0.999040
-0.627173066139 -0.527900159359 -0.373552739620 -0.001380 -0.732842 0.680398
-0.549220204353 -0.531679809093 -0.378471940756 -0.001259 -0.935342 0.353743
-0.627088069916 -0.530103981495 -0.436958730221 0.001003 -0.999633 -0.027071
-0.503633737564 -0.530574142933 -0.419528812170 0.001003 -0.999633 -0.027071
-0.596933066845 -0.529649078846 -0.453814893961 0.001003 -0.999633 -0.027071
-0.363515973091 -0.529215574265 -0.469873279333 0.001003 -0.999633 -0.027071
-0.269660770893 -0.530104517937 -0.436925083399 0.001003 -0.999633 -0.027071
-0.576631426811 -0.390312016010 -0.475850522518 0.000997 0.020933 -0.999780
-0.319241732359 -0.495492666960 -0.478131234646 0.000997 0.020933 -0.999780
-0.666579484940 -0.213153302670 -0.471980392933 0.000997 0.020933 -0.999780
-0.596462905407 -0.214671522379 -0.472007751465 0.000997 0.020933 -0.999780
-0.416260421276 -0.310300469398 -0.474085837603 0.000997 0.020933 -0.999780
-0.440330594778 -0.289043813944 -0.473622590303 0.000997 0.020933 -0.999780
-0.471333801746 -0.500271737576 -0.478248536587 0.000997 0.020933 -0.999780
-0.576020240784 -0.424904465675 -0.476607620716 0.000997 0.020933 -0.999780
-0.512146472931 -0.237853884697 -0.472508132458 0.000997 0.020933 -0.999780
-0.486659914255 -0.291840553284 -0.473687678576 0.000997 0.020933 -0.999780
-0.544929563999 -0.445704281330 -0.477060317993 0.000997 0.020933 -0.999780
-0.586229801178 -0.157295256853 -0.470751047134 0.000997 0.020933 -0.999780
-0.593591332436 -0.257136285305 -0.472936987877 0.000997 0.020933 -0.999780
-0.179967150092 -0.519754409790 -0.396984606981 0.706990 -0.706990 -0.018200
-0.704044401646 0.057137157768 -0.288327902555 -0.999991 0.002944 0.002944
-0.283213108778 0.013643715531 -0.507882237434 -0.000997 0.999780 0.020933
-0.307621419430 0.014199181460 -0.534558773041 -0.000997 0.999780 0.020933
-0.209803909063 0.006677812431 -0.522626578808 0.999999 -0.000978 0.000978
-0.209806859493 -0.020896101370 -0.472236961126 0.999999 -0.000978 0.000978
-0.209805786610 -0.479079186916 -0.496963173151 0.999999 -0.000978 0.000978
-0.209803134203 -0.074047178030 -0.536995887756 0.999999 -0.000978 0.000978
-0.516427814960 -0.491418987513 -0.475235968828 0.000997 -0.999780 -0.020933
-0.325353890657 -0.491400867701 -0.476099252701 0.000997 -0.999780 -0.020933
-0.466604799032 -0.490515798330 -0.518608152866 0.000997 -0.999780 -0.020933
-0.490089267492 -0.490918636322 -0.499262958765 0.000997 -0.999780 -0.020933
-0.664952337742 -0.246285691857 -0.498925715685 -0.999999 0.000978 -0.000978
-0.664953112602 -0.384894847870 -0.486599504948 -0.999999 0.000978 -0.000978
-0.664950609207 -0.268897235394 -0.528842806816 -0.999999 0.000978 -0.000978
-0.664953827858 -0.055989116430 -0.471117138863 -0.999999 0.000978 -0.000978
-0.663539052010 0.014224912040 -0.535806477070 -0.000997 0.999780 0.020933
-0.237316191196 0.012562558055 -0.455959171057 -0.000997 0.999780 0.020933
0.709215581417 0.108505390584 0.022864956409 0.999999 -0.000978 0.000978
0.709211766720 0.162388727069 0.090156182647 0.999999 -0.000978 0.000978
0.632102668285 0.139235645533 0.075539901853 -0.691581 -0.666026 0.279507
0.488659739494 0.201249510050 0.209525018930 -0.001279 -0.921899 0.387428
0.522020161152 0.209322139621 0.228712782264 -0.001279 -0.921899 0.387428
0.444963425398 0.197001934052 0.199427396059 -0.001279 -0.921899 0.387428
0.459041595459 0.173897549510 0.144517213106 -0.001279 -0.921899 0.387428
0.448955506086 0.165995761752 0.125736832619 -0.001279 -0.921899 0.387428
0.471546888351 0.150718897581 0.089430384338 -0.001279 -0.921899 0.387428
0.323120832443 0.166232168674 0.126291155815 -0.001279 -0.921899 0.387428
0.374705106020 0.316037058830 0.278173744678 -0.001353 0.550634 0.834745
0.438915491104 0.300684601068 0.281186670065 -0.000991 -0.014865 0.999889
0.510739624500 0.292555809021 0.281067371368 -0.000991 -0.014865 0.999889
0.509832382202 0.269125759602 0.280711442232 -0.000991 -0.014865 0.999889
0.352005243301 0.222302213311 0.256952702999 -0.001343 -0.852716 0.522373
0.656541705132 0.235592290759 0.280090838671 -0.000993 -0.016879 0.999857
0.709207057953 0.240018293262 0.170260667801 0.999999 -0.000978 0.000978
0.709204316139 0.222412034869 0.219186082482 0.999999 0.000978 0.000978
0.709219336510 0.175647825003 -0.039911802858 0.999999 0.000978 0.000978
0.709231436253 0.049795608968 -0.247162386775 0.999999 -0.000978 0.000978
0.433684766293 0.131505146623 0.044484533370 -0.001287 -0.915238 0.402911
0.204438433051 0.209185510874 0.088712096214 -0.999999 0.000978 -0.000978
0.204433992505 0.247709378600 0.165424779058 -0.999999 -0.000978 -0.000978
0.261873483658 0.310531854630 0.242992654443 0.001203 0.963362 -0.268202
0.498261332512 0.315472424030 0.260754734278 0.001203 0.963362 -0.268202
0.669798851013 0.237973883748 0.061715543270 0.001272 0.926978 -0.375114
0.708599567413 0.291912615299 0.215511798859 0.920633 0.361827 -0.146687
0.708709836006 0.211334049702 0.017148062587 0.924093 0.354352 -0.143130
0.662964224815 -0.028293827549 -0.171409785748 -0.543818 -0.823922 0.159421
0.320934265852 0.033442676067 -0.145713254809 -0.001346 -0.846861 0.531813
0.408091008663 -0.001906758174 -0.202119365335 -0.001346 -0.846861 0.531813
0.335542023182 0.002931097522 -0.194403290749 -0.001346 -0.846861 0.531813
0.277031004429 0.040832251310 -0.089497327805 0.907366 -0.367851 0.203400
0.232325106859 0.078842751682 0.003593098605 -0.001353 -0.834745 0.550634
0.223876684904 0.307704061270 0.234228253365 0.001272 0.926978 -0.375114
0.271656900644 0.269398808479 0.139449208975 0.001272 0.926978 -0.375114
0.292164027691 0.231758117676 0.046312965453 0.001272 0.926978 -0.375114
0.334609866142 0.237554892898 0.060658827424 0.001272 0.926978 -0.375114
0.430081754923 0.284663558006 0.177229151130 0.001272 0.926978 -0.375114
0.387137711048 0.250466644764 0.092610478401 0.001272 0.926978 -0.375114
0.615610539913 0.227399185300 0.035546302795 0.001272 0.926978 -0.375114
0.465152919292 0.235999882221 0.056818805635 0.001272 0.926978 -0.375114
0.462556421757 0.207504302263 -0.013690158725 0.001272 0.926978 -0.375114
0.414057731628 0.216211691499 0.007852345705 0.001272 0.926978 -0.375114
0.635570049286 0.223709195852 0.026417151093 0.001272 0.926978 -0.375114
0.683023810387 0.186204865575 -0.066379949450 0.001272 0.926978 -0.375114
0.706871092319 0.165299996734 -0.106438644230 0.706721 0.655900 -0.265219
0.206600338221 -0.035920284688 -0.217038005590 -0.696503 -0.708384 0.114351
0.298428237438 0.067290499806 -0.287856131792 0.000997 0.020933 -0.999780
0.470745950937 0.064000897110 -0.287914603949 0.000997 0.020933 -0.999780
0.415995687246 0.014049013145 -0.288957923651 0.000997 0.020933 -0.999780
0.624561548233 0.057982116938 -0.288030982018 0.000997 0.020933 -0.999780
0.352609783411 -0.017705436796 -0.284431666136 0.001376 -0.645448 -0.763803
0.621281206608 -0.021261170506 -0.281419008970 0.001376 -0.645448 -0.763803
0.687349259853 -0.005325801671 -0.289345592260 0.000997 0.020933 -0.999780
0.663829863071 0.070771917701 -0.287762403488 0.000997 0.020933 -0.999780
0.300027340651 0.129515677691 -0.206672996283 0.001272 0.926978 -0.375114
0.371253013611 0.118788398802 -0.233212128282 0.001272 0.926978 -0.375114
0.550328314304 0.106572031975 -0.263429462910 0.001272 0.926978 -0.375114
0.665622413158 0.108052119613 -0.259760290384 0.001272 0.926978 -0.375114
0.637428462505 0.147425502539 -0.162337481976 0.001272 0.926978 -0.375114
0.459619402885 0.156460687518 -0.139991462231 0.001272 0.926978 -0.375114
0.538304924965 0.178462639451 -0.085545718670 0.001272 0.926978 -0.375114
0.294316798449 0.153099283576 -0.148318573833 0.001272 0.926978 -0.375114
0.283844351768 0.172056078911 -0.101413011551 0.001272 0.926978 -0.375114
0.229270562530 0.146840050817 -0.163809955120 0.001272 0.926978 -0.375114
0.204454302788 0.112141415477 -0.185817137361 -0.999999 0.000978 -0.000978
0.508147478104 0.185805842280 -0.067377664149 0.001272 0.926978 -0.375114
0.383575916290 0.200099825859 -0.032016288489 0.001272 0.926978 -0.375114
0.204453766346 0.080967947841 -0.176722139120 -0.999999 0.000978 -0.000978
0.433406352997 -0.025846127421 -0.252476900816 -0.001050 -0.996891 0.078785
0.662968218327 -0.036877956241 -0.237154275179 -0.106560 -0.985384 -0.132901
0.536458790302 -0.017715621740 -0.228468209505 -0.001294 -0.909655 0.415362
0.381907463074 -0.024262910709 -0.242768898606 -0.001294 -0.909655 0.415362
0.237159729004 0.041995540261 -0.045395903289 0.239174 -0.764418 0.598716
0.243372410536 0.072829991579 -0.007899093442 0.197983 -0.775048 0.600087
0.326830208302 0.038240976632 -0.137665957212 -0.001338 -0.860313 0.509765
0.618523538113 0.039608102292 -0.135333836079 -0.001338 -0.860313 0.509765
0.383641809225 0.103381693363 -0.017408639193 -0.001322 -0.881656 0.471891
0.510618150234 0.097997024655 -0.027461333200 -0.001322 -0.881656 0.471891
0.578030169010 0.113204278052 0.000989557244 -0.001059 -0.996132 0.087863
0.566283404827 0.114414229989 0.004554169253 -0.001275 -0.924466 0.381263
0.309272199869 0.104604773223 -0.015127930790 -0.001322 -0.881656 0.471891
0.444006472826 0.053041413426 -0.111455529928 -0.001322 -0.881656 0.471891
0.499757170677 0.067010477185 -0.085353948176 -0.001322 -0.881656 0.471891
0.674875617027 0.008978388272 -0.087875775993 -0.198087 -0.772386 0.603474
0.220046848059 0.229119256139 0.279956817627 -0.000993 -0.016879 0.999857
0.205945074558 0.225614026189 0.275252670050 -0.902805 -0.019827 0.429593
0.241213217378 0.201125323772 0.268799632788 0.181628 -0.776880 0.602883
0.656036198139 0.174193933606 0.201855972409 -0.399375 -0.850032 0.343432
0.699725925922 0.179207935929 0.231080353260 -0.001272 -0.926978 0.375114
0.709234118462 -0.488424420357 -0.296395689249 0.999999 0.000978 0.000978
0.709233283997 -0.439697623253 -0.282770365477 0.999999 -0.000978 0.000978
0.709234356880 -0.406501770020 -0.300493985415 0.999999 -0.000978 0.000978
0.709235131741 -0.161446392536 -0.310472488403 0.999999 -0.000978 0.000978
0.204462945461 -0.434896856546 -0.335008978844 -0.999999 0.000978 -0.000978
0.204464092851 -0.042832423002 -0.351183116436 -0.999999 0.000978 -0.000978
0.204462736845 -0.377023786306 -0.330719947815 -0.999999 0.000978 -0.000978
0.709236025810 -0.025566093624 -0.324006199837 0.999999 -0.000978 0.000978
0.705074787140 -0.514603614807 -0.355589121580 0.576361 -0.023497 -0.816857
0.438069403172 -0.548892915249 -0.292517185211 0.001118 -0.987489 -0.157685
0.495982050896 -0.263491988182 -0.307986050844 -0.001014 0.039563 0.999217
0.464457273483 -0.257917076349 -0.308213293552 -0.001014 0.039563 0.999217
0.322610169649 -0.236317709088 -0.309425592422 -0.001038 0.065416 0.997858
0.450562417507 -0.231620877981 -0.309725463390 -0.001038 0.065416 0.997858
0.579654514790 -0.202609866858 -0.311436653137 -0.001022 0.048051 0.998844
0.325965583324 -0.197489231825 -0.311695724726 -0.001022 0.048051 0.998844
0.323388695717 -0.161851420999 -0.313396483660 -0.001022 0.048051 0.998844
0.615563273430 -0.168967559934 -0.313039988279 -0.001022 0.048051 0.998844
0.544385075569 -0.080800622702 -0.317251354456 -0.001022 0.048051 0.998844
0.609666109085 -0.172569766641 -0.312868416309 -0.001022 0.048051 0.998844
0.645505726337 -0.539625942707 -0.348524510860 0.001353 -0.550634 -0.834745
0.513363361359 -0.538848459721 -0.349046945572 0.001353 -0.550634 -0.834745
0.429336607456 -0.541977167130 -0.336173295975 0.001118 -0.987489 -0.157685
0.416300445795 -0.490609943867 -0.359739422798 0.001016 -0.041673 -0.999131
0.574972808361 -0.491567194462 -0.359690129757 0.001016 -0.041673 -0.999131
0.367316752672 -0.425032675266 -0.362485826015 0.001016 -0.041673 -0.999131
0.501991808414 -0.404090881348 -0.363354116678 0.001016 -0.041673 -0.999131
0.225265800953 -0.490032374859 -0.359774619341 0.001016 -0.041673 -0.999131
0.344354748726 -0.330733448267 -0.366518646479 0.001018 -0.043791 -0.999040
0.400211811066 -0.320687949657 -0.366947799921 0.001018 -0.043791 -0.999040
0.599601745605 -0.385932385921 -0.364127784967 0.001018 -0.043791 -0.999040
0.459177076817 -0.384377300739 -0.364202886820 0.001018 -0.043791 -0.999040
0.690710067749 -0.316342145205 -0.367117911577 0.001018 -0.043791 -0.999040
0.688944935799 -0.096665494144 -0.375006079674 0.001012 -0.037461 -0.999298
0.532836437225 -0.281419456005 -0.368330866098 0.001007 -0.031203 -0.999513
0.374465376139 -0.293809086084 -0.367942869663 0.001007 -0.031203 -0.999513
0.262809604406 -0.164714261889 -0.372506916523 0.001012 -0.037461 -0.999298
0.254960387945 -0.179965570569 -0.371941715479 0.001012 -0.037461 -0.999298
0.210692942142 -0.280059963465 -0.366274267435 -0.697020 -0.023842 -0.716655
0.220966309309 -0.226855635643 -0.272008359432 -0.001162 0.212622 0.977134
0.260109126568 -0.193874716759 -0.282199740410 0.432658 0.129088 0.892269
0.279522180557 -0.342614889145 -0.284199446440 0.863666 0.074430 0.498539
0.301158189774 0.009711755440 -0.351267695427 -0.001240 0.946173 0.323658
0.638655841351 -0.216869935393 -0.370550602674 0.001012 -0.037461 -0.999298
0.627042829990 -0.090199716389 -0.375249534845 0.001012 -0.037461 -0.999298
0.400955915451 -0.223714858294 -0.370310544968 0.001012 -0.037461 -0.999298
0.403298079967 -0.212133601308 -0.370739966631 0.001012 -0.037461 -0.999298
0.509726941586 -0.194765165448 -0.371378004551 0.001012 -0.037461 -0.999298
0.317748159170 -0.231808349490 -0.370015203953 0.001012 -0.037461 -0.999298
0.394446969032 -0.136884972453 -0.373531490564 0.001012 -0.037461 -0.999298
0.568469226360 -0.007824809290 -0.378308266401 0.001012 -0.037461 -0.999298
0.481291174889 -0.046652536839 -0.376873224974 0.001012 -0.037461 -0.999298
0.460918188095 -0.067148506641 -0.376114189625 0.001012 -0.037461 -0.999298
0.210426092148 -0.141426652670 -0.288466781378 -0.691332 0.104658 0.714917
0.631985843182 0.014045565389 -0.368203073740 0.001073 0.994569 -0.104070
0.329405456781 0.012802167796 -0.371963530779 0.001373 0.627537 -0.778585
0.259588956833 -0.345505416393 -0.253962218761 0.489555 0.135100 0.861443
0.207816705108 -0.460415214300 -0.356968045235 -0.692816 -0.020994 -0.720809
0.525916814804 -0.278151482344 -0.306722730398 -0.001110 0.147635 0.989041
0.621908426285 -0.345443129539 -0.296621501446 -0.001110 0.147635 0.989041
0.568839132786 -0.380300372839 -0.291394978762 -0.001110 0.147635 0.989041
0.341195464134 -0.369641542435 -0.293007344007 -0.001110 0.147635 0.989041
0.665772199631 -0.172783762217 -0.281507521868 -0.001108 0.145143 0.989410
0.681090652943 -0.220209985971 -0.273433715105 -0.001162 0.212622 0.977134
0.514934897423 -0.463710606098 -0.274321734905 -0.001168 0.220763 0.975327
0.603365898132 -0.438082337379 -0.280088335276 -0.001168 0.220763 0.975327
0.378615230322 -0.406055659056 -0.287027627230 -0.001145 0.191268 0.981537
0.347244322300 -0.461920410395 -0.274734586477 -0.001168 0.220763 0.975327
0.382398396730 -0.490576028824 -0.268279075623 -0.001168 0.220763 0.975327
0.419498473406 -0.533707439899 -0.269415497780 -0.001230 -0.308835 0.951115
0.572530865669 -0.504583895206 -0.265889763832 -0.001052 0.081042 0.996710
0.319119185209 -0.545410454273 -0.279404789209 -0.001381 -0.713977 0.700167
0.690945327282 -0.315743714571 -0.254416823387 -0.001116 0.155160 0.987889
0.158501386642 0.045633401722 -0.099215939641 -0.607985 -0.067236 -0.791096
0.189112365246 0.032447695732 -0.099170111120 0.001055 -0.083307 -0.996523
0.193797603250 -0.066231355071 -0.090871676803 0.001055 -0.083307 -0.996523
0.206979200244 -0.178316533566 -0.056700304151 0.999999 0.000978 0.000978
0.206996604800 -0.154106259346 -0.039223287255 0.999999 -0.000978 0.000978
0.206999093294 0.024927658960 -0.079595938325 0.999999 -0.000978 0.000978
0.194900587201 -0.038229823112 -0.030022900552 -0.000997 -0.020933 0.999780
0.156567290425 0.143207982183 -0.075976245105 -0.999999 0.000978 -0.000978
0.156550079584 0.030764333904 -0.079454384744 -0.999999 0.000978 -0.000978
0.156547054648 -0.026298716664 -0.064577132463 -0.999999 0.000978 -0.000978
0.156559973955 -0.078798875213 -0.069508880377 -0.999999 0.000978 -0.000978
0.175613552332 -0.045128546655 -0.030160939321 -0.000997 -0.020933 0.999780
0.586407244205 0.317337572575 0.353566318750 0.740312 0.659551 0.130116
0.590252220631 0.251238197088 0.333500176668 0.999999 -0.000978 0.000978
0.590252995491 0.228787302971 0.319194674492 0.999999 0.000978 0.000978
0.533637225628 0.319741815329 0.316984146833 0.001215 0.958392 -0.285453
0.435277670622 0.216865256429 0.415230333805 -0.001362 -0.813364 0.581753
0.551092743874 0.304953217506 0.388107270002 -0.001334 0.865851 0.500299
0.587473690510 0.214124336839 0.336381345987 0.746082 -0.662705 -0.064689
0.321548461914 0.215753078461 0.379810184240 -0.918565 -0.394787 -0.019544
0.321431368589 0.262235194445 0.413265526295 -0.999999 -0.000978 -0.000978
0.577763199806 0.236170142889 0.284265697002 0.001268 -0.368984 -0.929435
0.377732157707 0.211786344647 0.333127498627 0.001087 -0.992690 -0.120688
0.389174729586 0.210713028908 0.346297919750 0.001014 -0.999217 -0.039563
0.462729185820 0.251886188984 0.424031883478 -0.001127 0.167869 0.985809
0.408304423094 0.102747641504 -0.289387404919 -0.001296 0.908224 0.418483
0.680437505245 0.108034230769 -0.300885021687 -0.001296 0.908224 0.418483
0.639822840691 0.086102783680 -0.278311163187 -0.001331 0.493986 0.869469
0.478477835655 0.081753700972 -0.275849729776 -0.001331 0.493986 0.869469
0.309939384460 0.113758876920 -0.331098586321 0.000991 0.999889 -0.014865
