0.096224114299 1.847108602524 0.873281896114 0.006992 0.014983 0.999863
-0.029663767666 1.605048179626 0.876329839230 -0.006937 0.008919 0.999936
-0.183691516519 1.686628580093 0.874528348446 -0.006951 0.008937 0.999936
-0.205683007836 1.638979434967 0.874777913094 -0.006951 0.008937 0.999936
-0.249134972692 1.635366559029 0.874109804630 -0.021100 0.009043 0.999736
-0.348574161530 1.634546399117 0.872049093246 -0.021100 0.009043 0.999736
-0.447437107563 1.686117053032 0.868743360043 -0.033550 0.009150 0.999395
-0.470933765173 1.709696888924 0.867732524872 -0.033619 0.009169 0.999393
0.233526378870 1.843573689461 0.872104644775 0.021226 0.015162 0.999660
0.140293240547 1.807914972305 0.873564124107 0.006992 0.014983 0.999863
0.080364234746 1.608361721039 0.875918686390 0.006937 0.008919 0.999936
-0.020050944760 1.581343770027 0.876625835896 -0.006951 0.008937 0.999936
-0.073990486562 1.569899559021 0.876372575760 -0.006951 0.008937 0.999936
-0.161939173937 1.534860134125 0.876080155373 -0.006951 0.008937 0.999936
-0.154690891504 1.459136962891 0.876873731613 -0.006951 0.008937 0.999936
-0.237689986825 1.584911584854 0.874799787998 -0.021142 0.009061 0.999735
-0.297825455666 1.504300117493 0.874328374863 -0.021142 0.009061 0.999735
-0.387772768736 1.584978938103 0.871661782265 -0.033619 0.009169 0.999393
0.910319149494 -2.280457973480 -0.410667896271 0.668868 -0.742401 -0.038181
0.869613945484 -2.307033538818 -0.589594185352 0.649267 -0.759601 -0.038192
0.829692065716 -2.336391925812 -0.521254658699 0.445143 -0.894346 -0.044650
0.824567794800 -2.341510772705 -0.470508575439 0.445143 -0.894346 -0.044650
0.786624014378 -2.361995935440 -0.374499738216 0.350003 -0.935511 -0.048142
0.742715120316 -2.367406845093 -0.562748670578 0.313568 -0.948384 -0.047355
0.672238469124 -2.383038759232 -0.575439393520 0.205578 -0.977399 -0.049291
0.675044119358 -2.391379594803 -0.398347586393 0.205578 -0.977399 -0.049291
0.648570001125 -2.394877195358 -0.433127701283 0.167804 -0.984528 -0.050459
0.033273648471 -2.400694131851 -0.462057620287 -0.001052 -0.996710 -0.081042
-0.048244461417 -2.397101402283 -0.505723476410 -0.001052 -0.996710 -0.081042
0.057878963649 -2.401989459991 -0.446256071329 -0.001052 -0.996710 -0.081042
0.298457384109 -2.400131464005 -0.472221523523 -0.001052 -0.996710 -0.081042
0.285409480333 -2.403512477875 -0.430056482553 -0.001052 -0.996710 -0.081042
0.129475221038 -2.402471780777 -0.441122114658 -0.001052 -0.996710 -0.081042
0.081110350788 -2.402847051620 -0.435880184174 -0.001052 -0.996710 -0.081042
0.405434757471 -2.403727054596 -0.428826928139 -0.001052 -0.996710 -0.081042
0.196206748486 -2.400218009949 -0.469921410084 -0.001052 -0.996710 -0.081042
0.477847754955 -2.408894777298 -0.369862854481 0.003244 -0.993773 -0.111380
-0.315974980593 -2.404540300369 -0.430718064308 0.003244 -0.993773 -0.111380
-0.047959625721 -2.403175115585 -0.435673952103 0.003244 -0.993773 -0.111380
0.218888282776 -2.409112215042 -0.374983072281 0.003244 -0.993773 -0.111380
-0.106632262468 -2.409850358963 -0.377236634493 0.003244 -0.993773 -0.111380
0.174670815468 -2.409068584442 -0.376582443714 0.003244 -0.993773 -0.111380
0.370954871178 -2.406432390213 -0.394932985306 0.003244 -0.993773 -0.111380
-0.281218320131 -2.409853935242 -0.381977200508 0.003244 -0.993773 -0.111380
-0.572138786316 -2.397968292236 -0.498333930969 0.466832 -0.878659 -0.100136
-0.633713006973 -2.390767812729 -0.588481783867 -0.165522 -0.984913 -0.050478
-0.645309984684 -2.394202709198 -0.481476694345 -0.165522 -0.984913 -0.050478
-0.720405042171 -2.374947786331 -0.564154326916 -0.205578 -0.977399 -0.049291
-0.726738512516 -2.379902601242 -0.439439296722 -0.205578 -0.977399 -0.049291
-0.737513244152 -2.373977422714 -0.510005295277 -0.313568 -0.948384 -0.047355
-0.771694481373 -2.369518280029 -0.373574405909 -0.313568 -0.948384 -0.047355
-0.846685230732 -2.327645301819 -0.579622149467 -0.562918 -0.825520 -0.040508
-0.892190814018 -2.298056840897 -0.488949716091 -0.649267 -0.759601 -0.038192
-0.918984234333 -2.270680427551 -0.559149622917 -0.668868 -0.742401 -0.038181
-0.927450835705 -2.264043569565 -0.530814945698 -0.720681 -0.692363 -0.035397
-0.945236980915 -2.213310956955 -0.415665954351 -0.999999 -0.000978 0.000978
-0.200821101665 1.266892313957 0.877251923084 -0.006910 0.002961 0.999972
-0.141250163317 1.379127025604 0.877296209335 -0.006910 0.002961 0.999972
-0.140730708838 1.420764207840 0.877150714397 -0.006910 0.002961 0.999972
-0.039423156530 1.232588410378 0.878542363644 -0.006910 0.002961 0.999972
-0.064348220825 1.396230220795 0.877786874771 -0.006910 0.002961 0.999972
0.038562145084 1.411101102829 0.877869188786 0.006910 0.002961 0.999972
0.036047272384 1.490622401237 0.877368986607 0.006951 0.008937 0.999936
0.096339792013 1.525809884071 0.876609861851 0.006951 0.008937 0.999936
0.199047580361 1.625612616539 0.874900281429 0.006951 0.008937 0.999936
0.221327856183 1.625283122063 0.874654293060 0.021100 0.009043 0.999736
0.252234578133 1.770435571671 0.872691690922 0.021142 0.009061 0.999735
0.422202318907 1.740167737007 0.868909835815 0.033619 0.009169 0.999393
0.440056532621 1.745216131210 0.868245661259 0.033619 0.009169 0.999393
0.416732609272 1.650600314140 0.869899213314 0.033550 0.009150 0.999395
0.282377630472 1.608583211899 0.873527586460 0.021100 0.009043 0.999736
0.303209930658 1.594704031944 0.873222768307 0.021142 0.009061 0.999735
0.206696584821 1.508471965790 0.875963747501 0.006951 0.008937 0.999936
0.120586521924 1.427027463913 0.877235114574 0.006910 0.002961 0.999972
0.063242889941 1.243441939354 0.878303229809 0.006910 0.002961 0.999972
0.185093984008 1.338330864906 0.877072691917 0.006910 0.002961 0.999972
0.168695434928 1.248346686363 0.877515137196 0.006910 0.002961 0.999972
-0.477473378181 0.312652498484 0.857667386532 -0.034509 -0.038691 0.998655
-0.369252800941 0.171438947320 0.856112718582 -0.034787 -0.047436 0.998268
-0.428829133511 0.060204491019 0.848130643368 -0.033341 -0.069908 0.996996
-0.298410177231 1.304565906525 0.875325918198 -0.021016 0.003002 0.999775
-0.316504746675 1.247549891472 0.875142931938 -0.021016 0.003002 0.999775
-0.230034217238 1.351157307625 0.876591801643 -0.021016 0.003002 0.999775
-0.255491018295 1.298305153847 0.876245558262 -0.021016 0.003002 0.999775
-0.397506117821 1.426002979279 0.872674226761 -0.033416 0.003038 0.999437
-0.414746701717 1.436576366425 0.872057735920 -0.033416 0.003038 0.999437
-0.469903975725 1.542099475861 0.869271218777 -0.033619 0.009169 0.999393
-0.376444786787 -0.069858804345 0.839270055294 -0.034145 -0.098028 0.994598
-0.444135963917 0.002853360027 0.843600690365 -0.033341 -0.069908 0.996996
-0.289277255535 0.086663879454 0.853649079800 -0.020182 -0.069043 0.997410
-0.293925821781 0.126614078879 0.855534553528 -0.019787 -0.046863 0.998705
-0.218909680843 0.136911824346 0.857510566711 -0.019787 -0.046863 0.998705
-0.266985565424 0.227048859000 0.860482335091 -0.019552 -0.033959 0.999232
-0.298900604248 0.284149080515 0.861763477325 -0.019512 -0.033890 0.999235
-0.274897009134 0.317355960608 0.863341152668 -0.019053 -0.009025 0.999778
0.329620510340 1.339722394943 0.874430000782 0.021016 0.003002 0.999775
0.317946255207 1.226369023323 0.875065088272 0.021016 0.003002 0.999775
0.226995319128 1.270954132080 0.876816093922 0.021016 0.003002 0.999775
0.304504573345 1.418044209480 0.874682545662 0.021016 0.003002 0.999775
0.339179545641 1.479743599892 0.873581707478 0.021142 0.009061 0.999735
0.494553118944 1.615216970444 0.867545604706 0.033619 0.009169 0.999393
0.491500467062 1.359494924545 0.869554042816 0.033416 0.003038 0.999437
0.492324411869 1.260108947754 0.869882762432 0.033416 0.003038 0.999437
0.396244287491 1.291998744011 0.872973084450 0.033416 0.003038 0.999437
0.447608441114 1.509773850441 0.870146930218 0.033619 0.009169 0.999393
0.335938364267 0.325217545033 0.862146615982 0.019053 -0.009025 0.999778
0.178159162402 0.307167857885 0.864535272121 0.007102 -0.033483 0.999414
0.094487339258 0.268778145313 0.863793849945 0.007089 -0.031392 0.999482
-0.010760498233 0.276771754026 0.864605605602 -0.007089 -0.031392 0.999482
-0.093669958413 0.235172986984 0.862743973732 -0.007102 -0.033483 0.999414
-0.054006274790 0.143984720111 0.859202563763 -0.007200 -0.048346 0.998805
-0.019482322037 0.091573253274 0.856936335564 -0.007200 -0.048346 0.998805
-0.092864885926 0.083151124418 0.855872035027 -0.007342 -0.070276 0.997501
-0.325618535280 -0.029918201268 0.844416320324 -0.018485 -0.098948 0.994921
-0.298070251942 -0.095206312835 0.838438570499 -0.018485 -0.098948 0.994921
0.054857961833 -0.133371785283 0.837173342705 0.007675 -0.123896 0.992266
0.041841082275 -0.063169583678 0.844638645649 0.007529 -0.100033 0.994956
0.164393141866 -0.085602946579 0.841493010521 0.007529 -0.100033 0.994956
0.070873208344 0.022156890482 0.851711213589 0.007343 -0.068188 0.997645
0.072573147714 0.066237792373 0.854776024818 0.007342 -0.070276 0.997501
0.043170869350 0.104026809335 0.857333064079 0.007200 -0.048346 0.998805
0.068414419889 0.194795966148 0.861480653286 0.007200 -0.048346 0.998805
0.120179221034 0.245462045074 0.862871825695 0.007102 -0.033483 0.999414
0.297178417444 0.300889760256 0.862247407436 0.019590 -0.038149 0.999080
0.263378620148 0.315918534994 0.863432526588 0.019512 -0.033890 0.999235
0.463625252247 0.282216668129 0.856836378574 0.034370 -0.034370 0.998818
0.303795397282 0.165562123060 0.857070147991 0.019787 -0.046863 0.998705
0.252243906260 0.120399333537 0.855938673019 0.019787 -0.046863 0.998705
0.323813468218 0.039381667972 0.849544107914 0.020182 -0.069043 0.997410
0.290205955505 0.004000355955 0.847715258598 0.020179 -0.071157 0.997261
0.353917777538 -0.104694373906 0.836296200752 0.018485 -0.098948 0.994921
0.268911421299 -0.063554383814 0.842032432556 0.018485 -0.098948 0.994921
-0.108700871468 -0.119456246495 0.838552832603 -0.007660 -0.121472 0.992565
-0.112609766424 -0.096252158284 0.840863049030 -0.007529 -0.100033 0.994956
-0.135951668024 -0.052697069943 0.845031559467 -0.007529 -0.100033 0.994956
-0.075431250036 0.037922326475 0.852815747261 -0.007343 -0.068188 0.997645
0.427305251360 -0.140032202005 0.829814612865 0.034609 -0.117225 0.992502
0.463962227106 -0.113163188100 0.831687033176 0.034145 -0.098028 0.994598
0.376221537590 -0.021643934771 0.843877851963 0.034137 -0.100209 0.994381
0.384340792894 0.013748457655 0.846191704273 0.033341 -0.069908 0.996996
0.490349620581 0.029406275600 0.843669593334 0.033341 -0.069908 0.996996
0.411981642246 0.109183669090 0.851500928402 0.034787 -0.047436 0.998268
0.359156996012 0.164956673980 0.855946421623 0.034787 -0.047436 0.998268
0.408274352551 0.215941473842 0.856462895870 0.034370 -0.034370 0.998818
0.511377155781 -0.101190514863 0.831351578236 0.016272 -0.100887 0.994765
-0.487846136093 1.347236990929 0.869910895824 -0.033416 0.003038 0.999437
-0.413083642721 1.259780406952 0.872711420059 -0.033416 0.003038 0.999437
0.853431701660 1.256469130516 0.504073679447 0.945596 -0.023987 0.324457
0.843239545822 1.245585918427 0.532684326172 0.942466 -0.021564 0.333605
0.875897347927 1.615312099457 0.454592108727 0.937612 0.001255 0.347682
0.876676261425 1.597358822823 0.452497035265 0.937612 0.001255 0.347682
0.851877748966 1.497247815132 0.519466042519 0.947395 -0.008715 0.319948
0.844534516335 1.804310679436 0.547959625721 0.947413 -0.006225 0.319954
0.827689409256 1.812293291092 0.590281665325 0.921675 -0.016852 0.387596
-0.741142630577 1.301403760910 0.781967878342 -0.894407 -0.025326 0.446537
-0.742226719856 1.382810711861 0.781310856342 -0.894653 -0.009223 0.446667
-0.779061555862 1.417142987251 0.705174207687 -0.912042 -0.001294 0.410095
-0.797472655773 1.409021377563 0.664399206638 -0.911072 -0.001292 0.412244
-0.821293115616 1.625329852104 0.611540615559 -0.916186 -0.001289 0.400751
-0.846819996834 1.587135076523 0.551629185677 -0.924588 -0.008977 0.380863
-0.857672810555 1.622034668922 0.522327184677 -0.947395 -0.008715 0.319948
-0.861409604549 1.666644454002 0.512283205986 -0.947395 -0.008715 0.319948
-0.877498686314 1.619760990143 0.465838253498 -0.937612 0.001255 0.347682
-0.890083730221 1.647399425507 0.426166445017 -0.964929 0.001199 0.262509
-0.891262888908 1.730761408806 0.422608762980 -0.954619 -0.011115 0.297624
-0.871068000793 1.851366758347 0.488888800144 -0.942412 -0.024099 0.333586
-0.859456658363 1.818384408951 0.521191775799 -0.947413 -0.006225 0.319954
-0.830880045891 1.839728593826 0.597663104534 -0.921675 -0.016852 0.387596
-0.812509775162 1.688555121422 0.634325206280 -0.921675 -0.016852 0.387596
-0.805593669415 1.690619707108 0.650977373123 -0.922984 -0.016829 0.384469
-0.779366374016 1.570272088051 0.705550551414 -0.918515 -0.022149 0.394766
-0.779653131962 1.732893824577 0.711284637451 -0.899829 -0.011857 0.436081
-0.751095116138 1.674262046814 0.771198451519 -0.910214 -0.011753 0.413971
-0.762907505035 1.555563092232 0.741230070591 -0.905311 -0.017081 0.424406
-0.893522918224 1.434515833855 0.409178555012 -0.970179 -0.008353 0.242246
-0.897398114204 1.555860400200 0.398404598236 -0.970179 -0.008353 0.242246
-0.884343385696 1.269338369370 0.429860383272 -0.956016 -0.026107 0.292151
-0.868332505226 1.220607995987 0.474738001823 -0.945596 -0.023987 0.324457
-0.843408465385 1.305962800980 0.550636351109 -0.926002 -0.022017 0.376876
-0.865407586098 1.357164382935 0.493443638086 -0.942466 -0.021564 0.333605
-0.832088589668 1.341957807541 0.580657839775 -0.928464 -0.024535 0.370611
-0.801963746548 1.189599037170 0.645362555981 -0.913906 -0.024913 0.405161
-0.786740899086 1.249249577522 0.683286309242 -0.914812 -0.027562 0.402937
0.775028586388 1.243249058723 0.696403443813 0.915778 -0.027592 0.400735
0.800715684891 1.575714588165 0.644983589649 0.911072 -0.001292 0.412244
0.769912898540 1.491980552673 0.713043510914 0.912042 -0.001294 0.410095
0.791913390160 1.708636999130 0.670401096344 0.918515 -0.022149 0.394766
0.773361682892 1.709563255310 0.711646854877 0.899829 -0.011857 0.436081
0.743096351624 1.632814168930 0.774493038654 0.905311 -0.017081 0.424406
0.755175709724 1.525321960449 0.744581818581 0.902354 -0.001302 0.430994
0.741139948368 1.464579582214 0.773388922215 0.894653 -0.009223 0.446667
0.815912008286 1.818453073502 0.618522167206 0.921675 -0.016852 0.387596
0.811968922615 1.452264070511 0.619112432003 0.916186 -0.001289 0.400751
0.817713201046 1.500042319298 0.606147170067 0.916186 -0.001289 0.400751
0.834586560726 1.498380541801 0.565502524376 0.924588 -0.008977 0.380863
0.844203710556 1.608025431633 0.544371843338 0.924588 -0.008977 0.380863
0.813588619232 1.325907588005 0.611533463001 0.928464 -0.024535 0.370611
0.836435496807 1.290933847427 0.552736222744 0.926002 -0.022017 0.376876
0.839231848717 1.251452803612 0.543701887131 0.926002 -0.022017 0.376876
0.890499711037 1.234238266945 0.387927889824 0.956016 -0.026107 0.292151
0.890564918518 1.465378522873 0.399130344391 0.970179 -0.008353 0.242246
0.893129169941 1.745404720306 0.398724198341 0.954619 -0.011115 0.297624
0.878026545048 1.847249507904 0.452145814896 0.961171 -0.015917 0.275495
0.875364124775 1.945180892944 0.467272996902 0.945328 -0.024044 0.325233
0.853664398193 1.871856212616 0.523661732674 0.941056 -0.032009 0.336732
0.763218462467 1.733130931854 0.733837068081 0.910214 -0.011753 0.413971
0.589163184166 -0.042233444750 -0.405900180340 -0.000978 0.999999 0.000978
0.634577393532 -0.042156778276 -0.358735412359 -0.000978 0.999999 0.000978
0.649920046329 -0.042130876333 -0.382671535015 -0.000978 0.999999 0.000978
0.299806892872 -0.042721938342 -0.449435055256 -0.000978 0.999999 0.000978
0.622507095337 -0.042177155614 -0.436196058989 -0.000978 0.999999 0.000978
0.371350347996 -0.109094880521 -0.505513310432 -0.001360 0.564391 -0.825507
0.297612458467 -0.072758823633 -0.480578571558 -0.001360 0.564391 -0.825507
0.378997832537 -0.109173215926 -0.505575716496 -0.001360 0.564391 -0.825507
0.682338714600 -0.135143578053 -0.523686587811 -0.001360 0.564391 -0.825507
0.581370651722 -0.091704271734 -0.493862628937 -0.001360 0.564391 -0.825507
0.640699148178 -0.137848421931 -0.525488257408 -0.001360 0.564391 -0.825507
0.723386049271 -0.165769010782 -0.485509842634 0.999999 0.000978 0.000978
0.723657310009 -0.326456576586 -0.452147185802 0.999999 0.000978 0.000978
0.723544657230 -0.259744048119 -0.410222321749 0.999999 0.000978 0.000978
0.723676323891 -0.337745934725 -0.393327474594 0.999999 0.000978 0.000978
0.723799765110 -0.410833477974 -0.451209098101 0.999999 0.000978 0.000978
0.723648548126 -0.321253210306 -0.499771684408 0.999999 0.000978 0.000978
0.723769485950 -0.392878085375 -0.486244976521 0.999999 0.000978 0.000978
0.724284946918 -0.698225915432 -0.471381396055 0.999999 0.000978 0.000978
0.724012196064 -0.536641955376 -0.523034334183 0.999999 0.000978 0.000978
0.680510878563 -0.781901121140 -0.508609414101 0.000978 -0.999999 0.000978
0.563958764076 -0.782097876072 -0.515906929970 0.000978 -0.999999 0.000978
0.286935865879 -0.675619184971 -0.526782274246 -0.999999 -0.000978 -0.000978
0.286923587322 -0.668333053589 -0.447032332420 -0.999999 -0.000978 -0.000978
0.286332458258 -0.318170785904 -0.518006265163 -0.999999 -0.000978 -0.000978
0.286392807961 -0.353932529688 -0.465188652277 -0.999999 -0.000978 0.000978
0.286293238401 -0.294947326183 -0.378228157759 -0.999999 -0.000978 0.000978
0.286606341600 -0.480405062437 -0.398508548737 -0.999999 -0.000978 0.000978
0.286001980305 -0.122426800430 -0.367337852716 -0.999999 -0.000978 0.000978
0.286778181791 -0.582217395306 -0.401864409447 -0.999999 -0.000978 0.000978
0.286347001791 -0.326802074909 -0.406160593033 -0.999999 -0.000978 0.000978
0.285986721516 -0.113381296396 -0.492173939943 -0.999999 -0.000978 0.000978
0.571025133133 -0.192578628659 -0.527700603008 0.000978 0.000978 -0.999999
0.309487700462 -0.695445179939 -0.527700603008 0.000978 0.000978 -0.999999
0.317205041647 -0.328151911497 -0.527700603008 0.000978 0.000978 -0.999999
0.330185592175 -0.446976095438 -0.527700603008 0.000978 0.000978 -0.999999
0.415885567665 -0.263463556767 -0.527700603008 0.000978 0.000978 -0.999999
0.360794126987 -0.481305748224 -0.527700603008 0.000978 0.000978 -0.999999
0.329112350941 -0.296707749367 -0.527700603008 0.000978 0.000978 -0.999999
0.510514199734 -0.241620764136 -0.527700603008 0.000978 0.000978 -0.999999
0.554770588875 -0.293843895197 -0.527700603008 0.000978 0.000978 -0.999999
0.347791969776 -0.372876584530 -0.527700603008 0.000978 0.000978 -0.999999
0.547600150108 -0.298051685095 -0.527700603008 0.000978 0.000978 -0.999999
0.624285340309 -0.170656934381 -0.527700603008 0.000978 0.000978 -0.999999
0.312461286783 -0.362262576818 -0.527700603008 0.000978 0.000978 -0.999999
0.393758893013 -0.605654835701 -0.527700603008 0.000978 0.000978 -0.999999
0.383821457624 -0.644385695457 -0.527700603008 0.000978 0.000978 -0.999999
0.619474112988 -0.455977439880 -0.527700603008 0.000978 0.000978 -0.999999
0.364960014820 -0.715903222561 -0.527700603008 0.000978 0.000978 -0.999999
0.498624920845 -0.591145455837 -0.527700603008 0.000978 0.000978 -0.999999
0.532158017159 -0.574217379093 -0.527700603008 0.000978 0.000978 -0.999999
0.471513152122 -0.746668338776 -0.527700603008 0.000978 0.000978 -0.999999
0.593398809433 -0.751102387905 -0.527700603008 0.000978 0.000978 -0.999999
0.490017950535 -0.630844175816 -0.527700603008 0.000978 0.000978 -0.999999
0.603414058685 -0.393153637648 -0.527700603008 0.000978 0.000978 -0.999999
0.548103928566 -0.504993617535 -0.527700603008 0.000978 0.000978 -0.999999
0.532159209251 -0.673654496670 -0.527700603008 0.000978 0.000978 -0.999999
0.723944544792 -0.583064258099 -0.527700603008 0.000978 0.000978 -0.999999
0.630066871643 -0.590499877930 -0.527700603008 0.000978 0.000978 -0.999999
0.600255727768 -0.543415188789 -0.527700603008 0.000978 0.000978 -0.999999
0.401000469923 -0.757607102394 -0.460915863514 0.001381 -0.708486 0.705724
0.561491131783 -0.770932555199 -0.474592447281 0.001381 -0.708486 0.705724
0.648370802402 -0.754934012890 -0.458647102118 0.001381 -0.708486 0.705724
0.595212340355 -0.832631945610 -0.269728422165 0.000978 0.000978 0.999999
0.467180013657 -0.840881228447 -0.269728422165 0.000978 0.000978 0.999999
0.378984361887 -0.859951794147 -0.281481832266 0.001300 -0.906315 0.422600
0.569105505943 -0.864706933498 -0.292372912169 0.001300 -0.906315 0.422600
0.670285582542 -0.872790992260 -0.310083746910 0.001300 -0.906315 0.422600
0.441680073738 -0.844075500965 -0.369872570038 0.001302 -0.430994 -0.902354
0.467453658581 -0.871890246868 -0.356537669897 0.001302 -0.430994 -0.902354
0.409963786602 -0.879643619061 -0.352872818708 0.001302 -0.430994 -0.902354
0.570139110088 -0.811659455299 -0.385285317898 0.001302 -0.430994 -0.902354
0.550529360771 -0.760920464993 -0.409588336945 0.001302 -0.430994 -0.902354
0.486176997423 -0.786955714226 -0.397178083658 0.001302 -0.430994 -0.902354
0.539722084999 -0.740909159184 -0.419175893068 0.001302 -0.430994 -0.902354
0.347292125225 -0.848160207272 -0.367993593216 0.001302 -0.430994 -0.902354
0.689834177494 -0.825033187866 -0.269896209240 0.999999 0.000978 -0.000978
0.352407932281 -0.712442517281 -0.415402352810 0.001381 -0.708486 0.705724
0.712240457535 -0.187316492200 -0.362107038498 0.001069 -0.099398 0.995047
0.432622164488 -0.538174927235 -0.397146433592 0.001069 -0.099398 0.995047
0.678755402565 -0.615017652512 -0.404872417450 0.001069 -0.099398 0.995047
0.644134223461 -0.439534962177 -0.387317955494 0.001069 -0.099398 0.995047
0.569975078106 -0.480605185032 -0.391412526369 0.001069 -0.099398 0.995047
0.620425403118 -0.229433417320 -0.366303324699 0.001069 -0.099398 0.995047
0.676039636135 -0.195177987218 -0.362887114286 0.001069 -0.099398 0.995047
0.519903838634 -0.616645634174 -0.405008405447 0.001069 -0.099398 0.995047
0.421941906214 -0.609774053097 -0.404304713011 0.001069 -0.099398 0.995047
0.573447108269 -0.358974635601 -0.379249781370 0.001069 -0.099398 0.995047
0.680245220661 -0.484193146229 -0.391789942980 0.001069 -0.099398 0.995047
0.486866384745 -0.486272960901 -0.391965270042 0.001069 -0.099398 0.995047
0.508186876774 -0.484308630228 -0.391772449017 0.001069 -0.099398 0.995047
0.477844327688 -0.290859878063 -0.372422039509 0.001069 -0.099398 0.995047
0.430445879698 -0.413178443909 -0.384646147490 0.001069 -0.099398 0.995047
0.421435385942 -0.457521319389 -0.389079004526 0.001069 -0.099398 0.995047
0.388255208731 -0.071087814867 -0.350429236889 0.001069 -0.099398 0.995047
0.537080883980 -0.105618320405 -0.353907495737 0.001069 -0.099398 0.995047
0.354475319386 -0.388949930668 -0.382210433483 0.001069 -0.099398 0.995047
0.342068940401 -0.594522953033 -0.402766078711 0.001069 -0.099398 0.995047
0.471737921238 -0.239560410380 -0.367290943861 0.001069 -0.099398 0.995047
0.674395680428 -0.048205245286 -0.348189234734 0.001069 -0.099398 0.995047
0.578576207161 -0.058940805495 -0.349246650934 0.001069 -0.099398 0.995047
0.410138428211 -0.083364054561 -0.351660579443 0.001069 -0.099398 0.995047
0.455058097839 -0.136249303818 -0.356956809759 0.001069 -0.099398 0.995047
0.579062998295 -0.116800151765 -0.355032771826 0.001069 -0.099398 0.995047
0.630807161331 -0.092353977263 -0.352596849203 0.001069 -0.099398 0.995047
0.288338869810 -0.266143441200 -0.369918346405 0.001069 -0.099398 0.995047
0.386218428612 -0.771856248379 -0.386314928532 -0.001297 0.421606 0.906778
0.525606095791 -0.739981114864 -0.401061922312 -0.001297 0.421606 0.906778
0.600477933884 -0.742493271828 -0.399832129478 -0.001297 0.421606 0.906778
0.568858504295 -0.763543367386 -0.390045791864 -0.001297 0.421606 0.906778
0.573130309582 -0.759036421776 -0.392143040895 -0.001297 0.421606 0.906778
0.662262201309 -0.836149990559 -0.356131166220 -0.001297 0.421606 0.906778
0.386313349009 -0.779778778553 -0.344781011343 0.001012 -0.037461 0.999298
0.614704966545 -0.284262418747 -0.326364457607 0.001012 -0.037461 0.999298
0.632183313370 -0.613792359829 -0.338622510433 0.001012 -0.037461 0.999298
0.566589534283 -0.818428754807 -0.346229910851 0.001012 -0.037461 0.999298
0.677877187729 -0.166720703244 -0.321996420622 0.001012 -0.037461 0.999298
0.603490412235 -0.849467217922 -0.347386717796 0.001012 -0.037461 0.999298
0.411929637194 -0.833294689655 -0.346773147583 0.001012 -0.037461 0.999298
0.606589615345 -0.777440428734 -0.344707846642 0.001012 -0.037461 0.999298
0.500880241394 -0.659889161587 -0.340328872204 0.001012 -0.037461 0.999298
0.551797688007 -0.437910437584 -0.332075476646 0.001012 -0.037461 0.999298
0.407417386770 -0.729076087475 -0.342896431684 0.001012 -0.037461 0.999298
0.501262426376 -0.500966012478 -0.334417670965 0.001012 -0.037461 0.999298
0.637943565845 -0.292026340961 -0.326654672623 0.001012 -0.037461 0.999298
0.561557769775 -0.415737152100 -0.331251353025 0.001012 -0.037461 0.999298
0.509954869747 -0.700061917305 -0.341823667288 0.001012 -0.037461 0.999298
0.391190409660 -0.764788210392 -0.344223737717 0.001012 -0.037461 0.999298
0.578491091728 -0.144224032760 -0.321153402328 0.001012 -0.037461 0.999298
0.358370244503 -0.170608446002 -0.322120934725 0.001012 -0.037461 0.999298
0.639067411423 -0.132434710860 -0.320718675852 0.001012 -0.037461 0.999298
0.592539191246 -0.059803441167 -0.318014204502 0.001012 -0.037461 0.999298
0.360151618719 -0.469728410244 -0.333246916533 0.001012 -0.037461 0.999298
0.319905072451 -0.597635984421 -0.338001966476 0.001012 -0.037461 0.999298
0.400068283081 -0.571338176727 -0.337028831244 0.001012 -0.037461 0.999298
0.550317943096 -0.151987284422 -0.321440368891 0.001012 -0.037461 0.999298
0.332055777311 -0.546217560768 -0.336090207100 0.001012 -0.037461 0.999298
0.404695451260 -0.267155289650 -0.325714945793 0.001012 -0.037461 0.999298
0.380050539970 -0.221537902951 -0.324016630650 0.001012 -0.037461 0.999298
0.605226755142 -0.213315337896 -0.323724955320 0.001012 -0.037461 0.999298
0.705234527588 -0.025733331218 -0.316754043102 0.001012 -0.037461 0.999298
0.433700561523 -0.093029454350 -0.319240093231 0.001012 -0.037461 0.999298
0.542701601982 -0.184522807598 -0.322650074959 0.001012 -0.037461 0.999298
0.446298003197 -0.557558774948 -0.336519211531 0.001012 -0.037461 0.999298
0.416007220745 -0.270068258047 -0.325823992491 0.001012 -0.037461 0.999298
0.461554169655 -0.174101412296 -0.322257339954 0.001012 -0.037461 0.999298
0.438890159130 -0.175780162215 -0.322318375111 0.001012 -0.037461 0.999298
0.286448717117 -0.760405898094 -0.344054132700 0.001012 -0.037461 0.999298
0.297934323549 -0.755557775497 -0.343874543905 0.001012 -0.037461 0.999298
0.358374863863 -0.068254269660 -0.257160365582 -0.001384 0.715359 0.698755
0.519576251507 -0.094858005643 -0.229692474008 -0.001384 0.715359 0.698755
0.591714382172 -0.053501978517 -0.271834999323 -0.001384 0.715359 0.698755
0.439436346292 -0.029883071780 -0.296236932278 -0.001384 0.715359 0.698755
0.622525572777 -0.059530403465 -0.265620619059 -0.001384 0.715359 0.698755
0.733440577984 -0.593259513378 -0.381082206964 -0.999999 -0.000978 0.000978
0.733842909336 -0.831586301327 -0.348581284285 -0.999999 -0.000978 0.000978
0.733633756638 -0.707689404488 -0.394079685211 -0.999999 -0.000978 0.000978
0.733415961266 -0.578697919846 -0.397640705109 -0.999999 -0.000978 0.000978
0.393130123615 -0.037783347070 -0.342899650335 0.001381 -0.700167 0.713977
0.396237909794 -0.012170590460 -0.317843973637 0.001381 -0.700167 0.713977
0.691490471363 -0.811586499214 -0.367556929588 -0.001297 0.421606 0.906778
0.397955298424 -0.848918974400 -0.334643065929 -0.001300 0.906315 -0.422600
0.517690837383 -0.847359180450 -0.331730097532 -0.001300 0.906315 -0.422600
0.337287753820 -0.833204567432 -0.300708204508 -0.001300 0.906315 -0.422600
0.505687475204 -0.825692772865 -0.285201609135 -0.001300 0.906315 -0.422600
0.719830334187 -0.564789116383 -0.336805313826 0.001012 -0.037461 0.999298
0.723883986473 -0.499778360128 -0.334387481213 0.001012 -0.037461 0.999298
0.713479459286 -0.688714742661 -0.412248134613 0.001069 -0.099398 0.995047
0.275542885065 -0.245044678450 -0.349219828844 -0.999999 -0.000978 -0.000978
0.276199638844 -0.634048759937 -0.389416575432 -0.999999 -0.000978 -0.000978
0.276013702154 -0.523927330971 -0.346142321825 -0.999999 -0.000978 -0.000978
0.276298224926 -0.692459583282 -0.382624119520 -0.999999 -0.000978 -0.000978
0.274694263935 -0.251068651676 -0.325108438730 0.001012 -0.037461 0.999298
0.269020855427 -0.330562978983 -0.270422101021 -0.999999 -0.000978 -0.000978
0.268705934286 -0.144035205245 -0.309120744467 -0.999999 -0.000978 -0.000978
0.269632130861 -0.692647337914 -0.213600173593 -0.999999 -0.000978 -0.000978
0.268757879734 -0.174798592925 -0.291578173637 -0.999999 -0.000978 -0.000978
0.269763499498 -0.770457267761 -0.294398039579 -0.999999 -0.000978 -0.000978
0.269294649363 -0.492742866278 -0.328988015652 -0.999999 -0.000978 -0.000978
0.268959015608 -0.293922513723 -0.267497062683 -0.999999 -0.000978 0.000978
0.295796096325 -0.525910794735 -0.197809621692 0.308112 0.052417 0.949905
0.284447044134 -0.433048695326 -0.197782278061 0.342243 0.050751 0.938240
0.319095760584 -0.351476252079 -0.214967444539 0.333638 0.053226 0.941197
0.293850392103 -0.347704470158 -0.206352010369 0.308962 0.079522 0.947744
0.483243972063 -0.106543108821 -0.228814691305 0.001028 -0.054502 -0.998513
0.653495252132 -0.104357205331 -0.204148262739 -0.001260 0.936173 0.351537
0.356910109520 -0.102571085095 -0.210251823068 -0.001260 0.936173 0.351537
0.518841624260 -0.106350168586 -0.120994292200 0.001018 -0.999040 0.043791
0.404125571251 -0.107130102813 -0.134613305330 0.001018 -0.999040 0.043791
0.627986490726 -0.107542075217 -0.157481476665 0.001003 -0.999685 0.025067
0.712413370609 -0.107664048672 -0.168253332376 0.001003 -0.999685 0.025067
0.733269751072 -0.097186774015 -0.216678664088 -0.999999 -0.000978 0.000978
0.733279824257 -0.103130377829 -0.109393522143 -0.999999 -0.000978 0.000978
0.691710889339 -0.103491619229 -0.073150798678 0.001036 -0.998128 0.061152
0.629173099995 -0.102975040674 -0.063044577837 0.001036 -0.998128 0.061152
0.573637545109 -0.100651197135 -0.030819926411 0.001053 -0.996878 0.078950
0.289975136518 -0.101104989648 -0.030506838113 0.001053 -0.996878 0.078950
0.511834561825 -0.100624486804 -0.029184630141 0.001053 -0.996878 0.078950
0.621671259403 -0.096108987927 0.018680164590 0.001069 -0.995256 0.097281
0.418479323387 -0.097240187228 0.010699674487 0.001069 -0.995256 0.097281
0.425398886204 -0.093667916954 0.045419499278 0.001085 -0.993231 0.116148
0.463806599379 -0.091290190816 0.065113499761 0.001085 -0.993231 0.116148
0.643124461174 -0.084569819272 0.114900887012 0.001102 -0.990769 0.135556
0.623789250851 -0.082762278616 0.128409832716 0.001102 -0.990769 0.135556
0.582819402218 -0.080108992755 0.146225631237 0.001117 -0.988229 0.152980
0.603434503078 -0.076349094510 0.170246049762 0.001117 -0.988229 0.152980
0.703922688961 -0.074813038111 0.178774476051 0.001131 -0.985302 0.170816
0.431634575129 -0.067827537656 0.221549272537 0.001131 -0.985302 0.170816
0.726233124733 -0.058916501701 0.265176862478 0.001146 -0.981965 0.189060
0.416582137346 -0.061189573258 0.256115078926 0.001146 -0.981965 0.189060
0.694622576237 -0.057360608131 0.272996336222 0.001160 -0.978191 0.207706
0.305214494467 -0.052964519709 0.296790421009 0.001160 -0.978191 0.207706
0.651572346687 -0.040606498718 0.348968982697 0.001172 -0.974073 0.226229
0.478080689907 -0.040752381086 0.349603265524 0.001172 -0.974073 0.226229
0.732687950134 -0.030933905393 0.364588737488 -0.001375 0.636526 -0.771254
0.407305985689 -0.018456695601 0.375327199697 -0.001375 0.636526 -0.771254
0.278465032578 -0.001611662097 0.204946160316 -0.999999 -0.000978 -0.000978
0.278523206711 -0.036070350558 0.260712981224 -0.999999 -0.000978 0.000978
0.278570175171 -0.063900627196 0.238862350583 -0.999999 -0.000978 0.000978
0.278528481722 -0.039199363440 -0.100765153766 -0.999999 -0.000978 -0.000978
0.278592616320 -0.077207095921 0.013414263725 -0.999999 -0.000978 -0.000978
0.278614103794 -0.089925922453 -0.217491298914 -0.999999 -0.000978 -0.000978
0.700777769089 -0.004435101524 -0.288987070322 0.001152 -0.979955 0.199215
0.437358856201 -0.001635625027 -0.272975236177 0.001152 -0.979955 0.199215
0.533188521862 -0.007859626785 -0.304492622614 0.001152 -0.979955 0.199215
0.609709858894 0.006779734045 -0.232876867056 0.001152 -0.979955 0.199215
0.268714487553 -0.149080917239 -0.227517664433 -0.999999 -0.000978 0.000978
0.268865555525 -0.238569185138 -0.269198834896 -0.999999 -0.000978 0.000978
0.269509553909 -0.620038449764 -0.206301763654 -0.999999 -0.000978 -0.000978
0.692000985146 -0.836860120296 -0.309835940599 -0.001300 0.906315 -0.422600
0.691742002964 -0.803220152855 -0.237660363317 -0.001300 0.906315 -0.422600
0.598008632660 -0.808257818222 -0.248129233718 -0.001300 0.906315 -0.422600
0.384307324886 -0.809703290462 -0.250456541777 -0.001300 0.906315 -0.422600
0.293621808290 -0.839251697063 -0.313524156809 -0.001300 0.906315 -0.422600
0.473183155060 -0.493839144707 -0.207644790411 0.001028 -0.054502 -0.998513
0.402597993612 -0.564476728439 -0.203790023923 0.001028 -0.054502 -0.998513
0.376794755459 -0.543118000031 -0.204959943891 0.001028 -0.054502 -0.998513
0.463595420122 -0.416785806417 -0.211857661605 0.001028 -0.054502 -0.998513
0.417951643467 -0.439406394958 -0.210625350475 0.001028 -0.054502 -0.998513
0.372426509857 -0.415554553270 -0.211933389306 0.001028 -0.054502 -0.998513
0.344364881516 -0.417639315128 -0.211822032928 0.001028 -0.054502 -0.998513
0.629345834255 -0.153809458017 -0.226217478514 0.001028 -0.054502 -0.998513
0.454511046410 -0.211427211761 -0.223084047437 0.001028 -0.054502 -0.998513
0.566685378551 -0.140088826418 -0.226973280311 0.001028 -0.054502 -0.998513
0.381248891354 -0.159925669432 -0.225906074047 0.001028 -0.054502 -0.998513
0.741784274578 -0.402178078890 -0.257723242044 -0.999999 -0.000978 0.000978
0.742387712002 -0.759649872780 -0.236684605479 -0.999999 -0.000978 0.000978
0.742170333862 -0.630883395672 -0.301632553339 -0.999999 -0.000978 0.000978
0.742030203342 -0.547836244106 -0.258350342512 -0.999999 -0.000978 0.000978
0.741730749607 -0.370474636555 -0.262343853712 -0.999999 -0.000978 0.000978
0.742109656334 -0.594939291477 -0.319627523422 -0.999999 -0.000978 0.000978
0.513831317425 -0.768683373928 -0.192617177963 0.001028 -0.054502 -0.998513
0.617002367973 -0.723177313805 -0.195095166564 0.001028 -0.054502 -0.998513
0.571506202221 -0.697534978390 -0.196501046419 0.001028 -0.054502 -0.998513
0.435516417027 -0.666334927082 -0.198219090700 0.001028 -0.054502 -0.998513
0.560382187366 -0.462681204081 -0.209339931607 0.001028 -0.054502 -0.998513
0.613999366760 -0.632164835930 -0.200070455670 0.001028 -0.054502 -0.998513
0.473024755716 -0.575132966042 -0.203201025724 0.001028 -0.054502 -0.998513
0.609106421471 -0.273520499468 -0.219675555825 0.001028 -0.054502 -0.998513
0.649247467518 -0.269741743803 -0.219878405333 0.001028 -0.054502 -0.998513
0.528704881668 -0.559668660164 -0.204041197896 0.001028 -0.054502 -0.998513
0.520516991615 -0.507672488689 -0.206884235144 0.001028 -0.054502 -0.998513
0.741414010525 -0.182891801000 -0.263119131327 -0.999999 -0.000978 0.000978
0.742119133472 -0.600539684296 -0.193787336349 -0.999999 -0.000978 0.000978
0.741764605045 -0.390580683947 -0.244844317436 -0.999999 -0.000978 -0.000978
0.713164925575 -0.725196659565 -0.191666454077 0.079795 0.044817 -0.995803
0.741550922394 -0.263960927725 -0.214666888118 -0.999999 -0.000978 0.000978
0.733188986778 -0.049332402647 -0.185049459338 -0.999999 -0.000978 -0.000978
0.733254909515 -0.088417775929 0.052640482783 -0.999999 -0.000978 0.000978
0.733230888844 -0.074147693813 0.055127620697 -0.999999 -0.000978 -0.000978
0.733230173588 -0.073761224747 0.181384980679 -0.999999 -0.000978 0.000978
0.733166754246 -0.036155242473 -0.011219084263 -0.999999 -0.000978 -0.000978
0.733161449432 -0.033014997840 0.152216032147 -0.999999 -0.000978 0.000978
0.733124613762 -0.011221975088 -0.060412570834 -0.999999 -0.000978 -0.000978
0.733111739159 -0.003567521926 -0.169033244252 -0.999999 -0.000978 -0.000978
0.733047306538 0.034588903189 0.109935387969 -0.999999 -0.000978 0.000978
0.733015894890 0.053183853626 0.172786325216 -0.999999 -0.000978 0.000978
0.733071267605 0.020363301039 0.257103413343 -0.999999 -0.000978 0.000978
0.597765326500 0.079162158072 0.396210938692 0.000978 0.000978 0.999999
0.391985416412 0.070342756808 0.396210938692 0.000978 0.000978 0.999999
0.556614696980 0.025789162144 0.396210938692 0.000978 0.000978 0.999999
0.383918702602 0.023074466735 0.396210938692 0.000978 0.000978 0.999999
0.278399795294 0.037010982633 0.318887770176 -0.999999 -0.000978 0.000978
0.278378933668 0.049361754209 0.073329478502 -0.999999 -0.000978 0.000978
0.278441607952 0.012245371938 0.215877473354 -0.999999 -0.000978 0.000978
0.629901349545 0.022699268535 -0.154473379254 0.001152 -0.979955 0.199215
0.472573965788 0.020606901497 -0.163489490747 0.001152 -0.979955 0.199215
0.628192663193 0.022242425010 -0.156713917851 0.001152 -0.979955 0.199215
0.461441248655 0.009116076864 -0.220110312104 0.001152 -0.979955 0.199215
0.564205944538 0.059393960983 0.147850692272 0.001085 -0.993231 0.116148
0.708981335163 0.074955560267 0.278424680233 0.001085 -0.993231 0.116148
0.611646652222 0.065944060683 0.203005343676 0.001085 -0.993231 0.116148
0.676111936569 0.077653259039 0.301894634962 0.001085 -0.993231 0.116148
0.689227104187 0.070463225245 0.240413263440 0.001085 -0.993231 0.116148
0.492539703846 0.046025048941 0.034916535020 0.001085 -0.993231 0.116148
0.653280913830 0.041138622910 -0.009051918983 0.001085 -0.993231 0.116148
0.630698084831 0.043980106711 0.015495806932 0.001085 -0.993231 0.116148
0.702274143696 0.074346937239 0.273332834244 0.001085 -0.993231 0.116148
0.694556295872 0.052878968418 0.090436667204 0.001085 -0.993231 0.116148
0.545222163200 0.058808002621 0.143128812313 0.001085 -0.993231 0.116148
0.547902047634 0.062151692808 0.171594098210 0.001085 -0.993231 0.116148
0.630579113960 0.081372685730 0.334256887436 0.001085 -0.993231 0.116148
0.279301226139 0.085311040282 0.372885346413 0.001085 -0.993231 0.116148
0.357474952936 0.053056489676 0.096801035106 0.001085 -0.993231 0.116148
0.451137095690 0.070778220892 0.246524944901 0.001085 -0.993231 0.116148
0.330550014973 0.084854230285 0.368253707886 0.001085 -0.993231 0.116148
0.283299118280 0.029594354331 -0.102138377726 0.001085 -0.993231 0.116148
0.492229223251 0.064626544714 0.193492591381 0.001085 -0.993231 0.116148
0.279501080513 0.072241716087 0.261470824480 0.001085 -0.993231 0.116148
0.537994563580 0.080318257213 0.326600641012 0.001085 -0.993231 0.116148
0.516429126263 0.072691671550 0.261896908283 0.001085 -0.993231 0.116148
0.280580312014 0.059808794409 0.155468806624 0.001085 -0.993231 0.116148
0.514250755310 0.081360951066 0.335830897093 0.001085 -0.993231 0.116148
0.606089770794 0.007620886900 0.402360051870 0.001067 -0.995480 0.094960
0.499082088470 0.014873032458 0.479567945004 0.001067 -0.995480 0.094960
0.442204296589 0.074680425227 0.507048428059 -0.001092 0.992361 0.123363
0.485925137997 0.083325900137 0.438602596521 -0.001092 0.992361 0.123363
0.486949265003 0.053976781666 0.515136480331 0.000978 0.000978 -0.999999
0.544155001640 0.077437095344 0.398116260767 0.000978 0.000978 -0.999999
0.424321353436 0.017035394907 0.398116260767 0.000978 0.000978 -0.999999
0.619355440140 0.052999317646 0.428425908089 -0.999999 -0.000978 -0.000978
-0.618616819382 -1.222541332245 0.278085708618 -0.034079 -0.868325 -0.494823
-0.536544322968 -1.226310372353 0.298843652010 -0.097051 -0.566372 0.818415
-0.610583484173 -1.244179844856 0.275954216719 -0.097886 -0.934613 0.341932
-0.608881890774 -1.183485269547 0.313614934683 0.028816 0.167134 0.985513
0.165356755257 -1.275992155075 0.305375725031 0.135881 -0.971486 -0.194297
0.113167576492 -1.283272862434 0.305536031723 0.135881 -0.971486 -0.194297
-0.049161594361 -1.298887252808 0.301888525486 0.402815 -0.322560 0.856560
0.607785344124 -1.183027029037 0.321454524994 -0.131271 0.969879 0.205191
0.411487013102 -1.213711380959 0.310141056776 -0.001185 0.240583 -0.970628
0.260565727949 -1.230141758919 0.314252942801 0.001185 -0.240583 0.970628
-0.689176261425 1.935765266418 0.852974236012 -0.987597 -0.035641 0.152911
-0.636374115944 1.170413374901 0.894338369370 0.999857 0.016879 0.000993
-0.651237428188 0.548280239105 0.906055569649 0.083633 -0.031498 0.995999
-0.641647577286 1.541866421700 0.894036352634 0.999917 0.012857 0.000989
-0.643501281738 1.691115379333 0.906124055386 0.999917 0.012857 0.000989
-0.671976387501 1.914025545120 0.888591527939 -0.075522 0.560002 0.825042
-0.658819854259 1.612250328064 0.886266708374 -0.066234 -0.013667 -0.997711
-0.636013329029 0.840129137039 0.893330991268 0.999999 -0.000978 0.000978
-0.658561050892 1.614657163620 0.913349509239 0.084363 0.013883 0.996338
-0.678481936455 1.755661368370 0.883522570133 0.071067 -0.053574 -0.996032
-0.665350079536 1.433363437653 0.888113260269 0.070569 -0.011586 -0.997440
-0.636013388634 0.822845041752 0.891141414642 0.999999 -0.000978 0.000978
-0.634727418423 0.565823554993 0.899142503738 0.999960 0.008884 0.000987
-0.657667875290 0.065059229732 0.881066918373 -0.092990 -0.061620 0.993758
-0.663475513458 -0.008148416877 0.876037716866 -0.092990 -0.061620 0.993758
-0.672249972820 0.786673843861 0.901225507259 -0.999999 -0.000978 0.000978
-0.680369913578 1.742288708687 0.893249094486 -0.999917 -0.012857 0.000989
-0.673434555531 1.256926894188 0.889973819256 -0.947842 -0.013737 -0.318445
-0.634630441666 0.555355727673 0.885630726814 0.999960 0.008867 0.000985
-0.636682271957 0.167048096657 0.867454826832 0.999889 -0.014865 0.000991
-0.672972261906 0.163203164935 0.878068149090 -0.999917 0.012883 0.000991
-0.672479331493 0.198582544923 0.876599252224 -0.999889 0.014865 0.000991
-0.670275866985 0.484551280737 0.878053963184 -0.948012 0.018835 -0.317678
-0.667108595371 -0.305644690990 0.821643292904 0.073955 -0.478616 0.874904
-0.652580559254 0.356247067451 0.870387196541 -0.066159 0.046636 -0.996719
-0.658215880394 -0.295306533575 0.781148910522 0.993103 -0.098070 -0.064253
-0.672338306904 -0.063679546118 0.845234990120 0.070051 0.113689 -0.991044
-0.668850541115 1.045302748680 0.891779482365 -0.999999 -0.000978 0.000978
0.645507335663 1.918211460114 0.859592676163 -0.987597 0.035641 -0.152911
0.671642422676 1.583545446396 0.886745393276 0.948307 -0.016285 -0.316937
0.666416466236 0.911326885223 0.904777824879 0.999999 0.000978 0.000978
0.634599626064 0.602349936962 0.906828224659 -0.083633 -0.031498 0.995999
0.670465111732 1.409310698509 0.892448723316 0.999917 -0.012857 0.000989
0.678199946880 1.870405316353 0.863139569759 0.998982 -0.044148 0.009240
0.661706089973 1.565096974373 0.886505603790 -0.070569 -0.011586 -0.997440
0.646422028542 0.512362837791 0.904862344265 -0.084682 -0.047290 0.995285
0.634564161301 0.398323535919 0.898479521275 -0.084682 -0.047290 0.995285
0.661541104317 1.570808053017 0.913491249084 0.093434 0.011813 0.995555
0.653056800365 0.177436530590 0.887836992741 0.092990 -0.061620 0.993758
0.641779601574 0.229568064213 0.890844523907 -0.083709 -0.063618 0.994457
0.631465196609 1.224717855453 0.901184380054 -0.999857 0.016879 0.000993
0.644231975079 1.108370184898 0.887413382530 0.065688 0.003128 -0.997835
0.649848341942 0.903932869434 0.886924743652 -0.070131 0.003140 -0.997533
0.660752773285 -0.198206529021 0.855819404125 -0.083406 -0.130395 0.987948
0.635420084000 -0.044155329466 0.871611952782 -0.775022 -0.049772 0.629972
0.643166184425 0.736362814903 0.884282827377 0.066511 0.015836 -0.997660
0.668515324593 0.069105118513 0.871021151543 0.999889 0.014865 0.000991
0.651588141918 -0.249160736799 0.843892216682 -0.048413 -0.259446 0.964543
0.644536554813 0.665921330452 0.882568359375 0.065210 0.031001 -0.997390
0.647974133492 0.597259819508 0.880616426468 -0.069908 0.033341 -0.996996
0.668980479240 0.025454640388 0.854607999325 0.947442 0.031708 -0.318351
0.684829831123 -0.280327290297 0.818524658680 0.992154 0.124432 -0.012113
0.650146842003 0.174992710352 0.861453831196 -0.071075 0.051393 -0.996146
0.633479893208 1.128673076630 0.869167983532 -0.999999 0.000978 0.000978
-0.706198394299 -2.247671127319 0.015874948353 -0.730182 -0.001380 0.683251
-0.676103472710 -2.260788440704 -0.064947016537 0.199215 0.001152 0.979955
0.803193569183 -2.256626129150 -0.096823498607 0.073152 -0.084406 -0.993743
0.684737443924 -2.329452514648 -0.105009704828 0.011633 -0.072971 0.997266
0.715482473373 -2.193245172501 -0.035121701658 0.946748 -0.029150 -0.320652
0.708448529243 -2.263714551926 -0.043041221797 0.856545 -0.001340 -0.516071
0.639699995518 -2.251906871796 -0.063798293471 -0.393609 -0.001282 -0.919277
0.612749636173 -2.249459743500 -0.055133815855 0.994066 0.001077 -0.108776
0.577447295189 -2.232492208481 -0.052096959203 -0.994066 0.001077 0.108776
0.838397204876 -2.177547216415 0.035631570965 0.872113 -0.053732 0.486344
0.795712649822 -2.182905912399 -0.043160118163 -0.073463 -0.615070 0.785043
0.780789315701 2.365280151367 0.075039923191 0.284098 0.956761 -0.062425
0.975670337677 2.203600645065 0.072128690779 0.021058 0.007019 -0.999754
0.780638515949 2.365263462067 0.073122456670 0.285867 0.958206 0.011042
-0.778708398342 -2.315331459045 -0.095303378999 -0.473341 -0.855019 0.211876
-0.870436966419 -2.111147403717 0.067714259028 -0.758361 -0.347649 0.551388
-0.876517474651 -2.219454288483 -0.034520693123 -0.747996 -0.514556 0.419207
-0.763779699802 -2.318886756897 -0.078104317188 -0.434500 -0.864458 0.252828
-0.848251938820 -2.239544153214 -0.019596857950 -0.596123 -0.726068 0.342730
-0.835503697395 -2.238892078400 0.000994202681 -0.581547 -0.710047 0.397034
-0.773571193218 -2.289011240005 -0.010604373179 -0.463461 -0.792890 0.395638
-0.681042492390 -2.324975252151 0.009909517132 -0.356790 -0.837749 0.413373
-0.756624698639 -2.269813537598 0.034368041903 -0.383579 -0.689784 0.614056
-0.770526647568 -2.261664152145 0.035928398371 -0.357163 -0.735528 0.575702
0.715262651443 -2.345982789993 -0.106895007193 0.425030 -0.886576 0.182573
0.861023545265 -2.249558210373 -0.082159832120 0.658617 -0.700079 0.275885
0.633631527424 -2.372271537781 -0.070111110806 0.277144 -0.928078 0.248719
0.599835038185 -2.388242721558 -0.088636033237 0.304717 -0.905318 0.295884
0.581040799618 -2.378151893616 -0.039765778929 0.245632 -0.920761 0.303090
0.811794400215 -2.181422948837 0.082520067692 0.628407 -0.467535 0.621704
0.799685716629 -2.197844982147 0.080937325954 0.398909 -0.607467 0.686918
0.753842234612 -2.297065258026 -0.011316561140 0.451796 -0.809401 0.375166
0.865493237972 -2.108339071274 0.068144418299 0.758361 -0.347649 0.551388
0.885687112808 -2.079517364502 0.043888736516 0.967352 -0.148525 0.205353
0.891745209694 -2.055636405945 0.035144299269 0.947405 -0.155423 0.279762
-0.749479591846 -2.388038635254 -0.268734753132 -0.446689 0.001310 -0.894688
-0.749801218510 -2.378947019577 -0.336729824543 0.152643 -0.001114 -0.988281
-0.729798555374 -2.421716928482 -0.287717282772 -0.918904 -0.372828 -0.128896
-0.744854032993 -2.375623941422 -0.258320361376 0.446689 -0.001310 0.894688
-0.764137029648 -2.407320737839 -0.276092529297 -0.446678 -0.889154 0.099417
0.792666196823 -2.367823839188 -0.311194628477 0.886654 0.001317 -0.462431
0.712857246399 -2.423909425735 -0.296738684177 -0.987081 -0.001120 0.160219
-0.968824982643 -2.259362459183 -0.531891465187 -0.731721 -0.623318 -0.275790
-0.739651262760 -2.386081695557 -0.558083951473 -0.297089 -0.857403 -0.420235
-0.532877206802 -2.369355440140 -0.588991701603 0.250642 -0.267635 -0.930350
-0.533392429352 -2.406091451645 -0.573942720890 0.127022 -0.727762 -0.673964
-0.696765184402 -2.411392688751 -0.514276266098 -0.307218 -0.927317 -0.213778
0.658590435982 -2.406146526337 -0.556017816067 0.177809 -0.838241 -0.515496
0.972826361656 -2.243973970413 -0.539855241776 0.731721 -0.623318 -0.275790
0.817582607269 -2.356966972351 -0.548659741879 0.432644 -0.878577 -0.202294
0.564006626606 -2.451226949692 -0.510407865047 0.199305 -0.659715 0.724605
