0.678218960762 2.050390005112 0.237507551908 0.397314 0.130566 0.908347
0.268294930458 2.314253807068 0.105515636504 0.095565 0.964568 0.245920
0.094072781503 2.328912973404 0.096652857959 0.040473 0.967666 0.248968
0.622724294662 2.061704635620 0.251807451248 -0.003288 0.128214 0.991741
0.086913019419 2.326315402985 0.107949405909 0.040401 0.968407 0.246081
-0.643790006638 2.171529054642 0.232969775796 -0.278122 0.131742 0.951469
-0.655087471008 2.074377298355 0.242473989725 -0.320199 0.125648 0.938981
-0.675342559814 1.944519400597 0.252560168505 -0.313151 0.119616 0.942140
-0.723293006420 -2.122014045715 -0.185507923365 -0.566455 -0.650499 0.505944
-0.799045145512 -2.022289037704 -0.162324830890 -0.691244 -0.588469 0.419388
-0.324011206627 -2.340269804001 -0.314042687416 -0.182809 -0.949252 0.255932
0.164257392287 -2.358364105225 -0.315957725048 0.052114 -0.994594 0.089813
0.543376982212 -2.271273136139 -0.534355401993 -0.894688 0.001310 -0.446689
-0.565199851990 -1.413389921188 0.137035995722 -0.126224 -0.121415 0.984544
0.497841894627 -1.895431041718 0.049150671810 0.198868 -0.290654 0.935934
0.579077124596 0.530469834805 0.573947489262 0.588365 0.043531 0.807423
0.560346662998 0.612883627415 0.578058779240 0.366846 0.059596 0.928371
0.583872973919 -0.123881772161 0.562192320824 0.357421 -0.093064 0.929295
0.808520913124 -0.855646312237 0.118972122669 0.928875 -0.021901 0.369746
0.781651020050 -0.888758361340 0.181247711182 0.910685 -0.009120 0.413000
0.793196022511 -0.742131471634 0.159551054239 0.914870 -0.019576 0.403274
0.658143639565 -0.655149340630 0.387762129307 0.245923 -0.397948 0.883832
0.745564401150 -1.090914726257 0.151132926345 0.246789 -0.529277 0.811764
0.714483320713 -1.139415621758 0.134255558252 -0.639380 0.756175 0.139256
0.368581652641 -1.250100493431 0.160737037659 -0.085761 0.996311 0.003176
0.615964829922 0.710306644440 0.531838476658 0.907762 -0.003896 0.419467
0.743526339531 0.271452456713 0.317154794931 0.905343 0.009145 0.424583
0.721719086170 0.095758438110 0.361296862364 0.866524 -0.017574 0.498826
0.749372482300 0.106452867389 0.304381519556 0.905349 -0.014454 0.424423
0.760985314846 0.172514662147 0.282502382994 0.904845 0.011785 0.425578
0.780297636986 0.221058264375 0.236294537783 0.925966 0.014166 0.377341
0.224300473928 -1.260913014412 0.163610041142 -0.065416 0.997858 0.001038
0.246137067676 -1.259496688843 0.131966099143 -0.065416 0.997858 0.001038
-0.102580465376 -1.267256498337 0.137435108423 0.043791 0.999040 0.001018
-0.132984489202 -1.265902757645 0.147741824389 0.043791 0.999040 0.001018
-0.251553088427 -1.259145379066 0.131730183959 0.065416 0.997858 0.001038
-0.420451939106 -1.245491862297 0.150314971805 0.128493 0.991705 0.003295
0.622353196144 0.735935926437 0.516705214977 0.670084 -0.104563 -0.734884
0.660555183887 0.923041045666 0.452015787363 0.868141 0.006688 0.496272
0.714064598083 0.961939156055 0.346070528030 0.913437 -0.001292 0.406977
0.748978734016 0.965125858784 0.265216350555 0.920595 0.001280 0.390517
-0.615402758121 0.632425308228 0.532404184341 -0.907762 -0.003896 0.419467
-0.649458706379 -0.310471892357 0.472390443087 -0.925070 0.029925 0.378615
-0.616419076920 -0.074264958501 0.533556759357 -0.919910 0.019517 0.391645
-0.608595371246 0.092225387692 0.546363949776 -0.916186 -0.001289 0.400751
-0.709101736546 0.967873215675 0.357207804918 -0.913437 -0.001292 0.406977
-0.733321130276 1.003368139267 0.302092641592 -0.920595 0.001280 0.390517
-0.756151258945 1.063199400902 0.241893693805 -0.929289 0.027142 0.368355
-0.764130711555 0.954615533352 0.227903649211 0.007229 -0.998693 0.050606
-0.605926811695 1.588759303093 0.350753933191 0.266161 0.361324 0.893646
-0.763709902763 -0.856150984764 0.218384981155 -0.941220 0.047771 0.334398
-0.782202839851 -0.729260742664 0.185102462769 -0.914870 -0.019576 0.403274
-0.756949305534 -0.697788059711 0.234276980162 -0.074355 0.991784 -0.104097
-0.685077130795 -0.538209557533 0.399024575949 -0.927684 0.027247 0.372371
-0.700800538063 0.145043268800 0.399378061295 -0.866524 -0.017574 0.498826
-0.667361557484 0.150252714753 0.456992238760 -0.864958 -0.009416 0.501756
-0.720663726330 0.262507349253 0.365268588066 -0.865175 0.004012 0.501454
-0.811060190201 -2.025321483612 -0.353862792253 -0.793167 -0.608965 0.006873
-0.778707683086 -2.065801620483 -0.360744953156 -0.718209 -0.688834 0.098405
-0.792622327805 -0.895547926426 0.156624943018 -0.928875 -0.021901 0.369746
-0.776305437088 -0.813625931740 0.194732069969 -0.910685 -0.009120 0.413000
-0.819224774837 -0.935788929462 0.092112153769 -0.878109 -0.028413 0.477616
-0.818802654743 -0.728516817093 0.105754382908 -0.862806 -0.031449 0.504557
-0.815365195274 -0.997286736965 0.096884503961 -0.879649 -0.017406 0.475305
-0.731466829777 0.112310230732 0.342720061541 -0.905349 -0.014454 0.424423
-0.752125561237 0.275739729404 0.298676997423 -0.905343 0.009145 0.424583
-0.793375253677 0.198583707213 0.205457836390 -0.924280 0.016805 0.381346
0.696616411209 -2.147596836090 -0.379552185535 0.630222 -0.762584 0.145899
0.628985345364 0.890231132507 0.506153106689 0.896251 -0.001308 0.443546
0.788974761963 -0.563223779202 0.164414435625 0.910639 -0.019654 0.412736
0.795458316803 -0.440626502037 0.155895143747 0.910639 -0.019654 0.412736
0.788427829742 -0.477327525616 0.169704958797 0.910639 -0.019654 0.412736
0.585288703442 -0.471244066954 0.477621316910 0.150845 -0.339055 0.928595
0.623463630676 -0.805135071278 0.330932796001 0.239392 -0.399978 0.884709
0.672581195831 -1.001047015190 0.222514748573 0.251825 -0.423730 0.870079
0.675641357899 -1.106408119202 0.163519904017 0.248325 -0.461610 0.851617
0.576858341694 -1.133386373520 0.169991478324 0.166262 -0.481131 0.860738
0.505525529385 -1.148387193680 0.172962144017 0.107403 -0.502647 0.857794
0.498094260693 -1.034478068352 0.240246444941 0.110550 -0.498192 0.859991
0.561715900898 -1.033338546753 0.230315551162 0.192875 -0.488915 0.850742
0.578000247478 -0.877885103226 0.306226193905 0.161052 -0.445433 0.880711
0.570656478405 -0.720877170563 0.379940390587 0.140297 -0.406718 0.902716
0.588751614094 -0.682971239090 0.393056780100 0.163698 -0.388606 0.906746
0.543377995491 -0.637005388737 0.420931249857 0.158567 -0.360635 0.919129
0.479115724564 -0.500106632710 0.483568668365 0.092399 -0.346832 0.933365
0.432560771704 -0.594943702221 0.453124076128 0.122370 -0.358860 0.925335
0.501120984554 -0.714702665806 0.393438905478 0.131122 -0.407466 0.903758
0.443170994520 -0.733950793743 0.392757445574 0.122225 -0.417252 0.900534
0.500318706036 -0.800355315208 0.354458272457 0.119293 -0.414018 0.902418
0.497922241688 -0.912113308907 0.302311927080 0.114386 -0.439187 0.891084
0.488279998302 -0.978059947491 0.270914763212 0.099661 -0.453389 0.885723
0.387510985136 -0.992602288723 0.274173021317 0.076210 -0.453104 0.888194
0.305702894926 -0.856180071831 0.349796026945 0.075836 -0.439849 0.894864
0.396167695522 -0.839791893959 0.349109351635 0.092686 -0.424697 0.900579
0.329164981842 -0.775427937508 0.386106133461 0.092547 -0.415770 0.904749
0.300798922777 -0.593050956726 0.466185033321 0.086922 -0.351699 0.932069
0.349965572357 -0.540505230427 0.481903225183 0.078726 -0.358938 0.930035
0.322784721851 -0.530365884304 0.487463057041 0.076868 -0.311381 0.947171
0.695969998837 0.500873267651 0.385214358568 0.866480 0.020276 0.498800
0.681044101715 0.296416223049 0.419037312269 0.866480 0.020276 0.498800
0.717191219330 0.328571945429 0.353658705950 0.911572 0.022297 0.410535
0.738901495934 0.398427516222 0.301078289747 0.914443 0.019623 0.404239
0.717028021812 0.290109366179 0.356069207191 0.914443 0.019623 0.404239
0.643271267414 -0.182904332876 0.473764389753 0.863499 -0.017567 0.504045
0.652647912502 -0.229876980186 0.456943422556 0.861931 -0.009413 0.506939
0.671751618385 -0.331025183201 0.420464277267 0.884600 -0.022820 0.465791
0.693527758121 -0.449455201626 0.371196329594 0.899132 -0.025234 0.436949
0.685813963413 -0.354310125113 0.392350435257 0.899132 -0.025234 0.436949
0.706860899925 -0.403615236282 0.346291899681 0.899132 -0.025234 0.436949
0.737816512585 -0.395013093948 0.283762276173 0.894597 -0.014579 0.446636
0.721690237522 -0.670718669891 0.307632982731 0.891965 -0.011928 0.451947
0.736077964306 -0.569150269032 0.281031310558 0.910639 -0.019654 0.412736
0.749560356140 -0.435882866383 0.257428467274 0.910639 -0.019654 0.412736
0.784535646439 -0.226857870817 0.190000623465 0.910639 -0.019654 0.412736
0.783695340157 -0.338602602482 0.186631798744 0.910639 -0.019654 0.412736
0.316870808601 -1.092646121979 0.222454175353 0.045592 -0.507036 0.860718
0.401218801737 -1.166845083237 0.174170210958 0.048416 -0.504913 0.861811
0.341174006462 -0.968124091625 0.290586262941 0.047963 -0.475514 0.878400
0.264617472887 -0.988655030727 0.283475279808 0.045060 -0.476547 0.877993
0.214540034533 -0.867933452129 0.348877012730 0.041847 -0.444120 0.894990
0.203943043947 -0.730579614639 0.415380507708 0.046996 -0.425650 0.903667
0.276860386133 -0.765263199806 0.395260035992 0.055280 -0.416621 0.907398
0.252091586590 -0.667446374893 0.441050201654 0.053674 -0.354774 0.933410
0.242717579007 -0.537609994411 0.490616768599 0.056337 -0.352432 0.934140
0.280216187239 -0.538703560829 0.487912774086 0.068010 -0.293856 0.953427
-0.520026087761 1.191524505615 0.490337729454 -0.125416 0.270633 0.954478
0.629338741302 0.400207102299 0.501052975655 0.842893 0.014979 0.537872
0.623054623604 0.431742042303 0.510034322739 0.842893 0.014979 0.537872
0.659861147404 0.403692692518 0.452769547701 0.874442 0.014776 0.484905
0.690999507904 0.590611100197 0.391260325909 0.874442 0.014776 0.484905
0.670119404793 0.642905175686 0.427394777536 0.874442 0.014776 0.484905
0.682109117508 0.779182136059 0.401157259941 0.882434 0.020086 0.470007
0.695678651333 0.723210632801 0.378048747778 0.882434 0.020086 0.470007
0.723688006401 0.712628245354 0.318573296070 0.911572 0.022297 0.410535
0.718591928482 0.845026791096 0.323460727930 0.907745 0.019705 0.419060
0.762506365776 0.670852899551 0.231446892023 0.919860 0.022118 0.391623
0.762548148632 0.665037930012 0.231676325202 0.919860 0.022118 0.391623
0.766868591309 0.582235932350 0.226192101836 0.919860 0.022118 0.391623
0.766382575035 0.486053675413 0.232751429081 0.919860 0.022118 0.391623
0.775689363480 0.509968221188 0.209884420037 0.916739 0.022232 0.398867
0.775492608547 0.543028593063 0.208393961191 0.916739 0.022232 0.398867
0.651935994625 0.036031268537 0.465945422649 0.838437 -0.009512 0.544916
0.671616554260 0.009881868958 0.431601077318 0.863499 -0.017567 0.504045
0.663250863552 0.090352319181 0.448615372181 0.867233 -0.014836 0.497681
0.710290968418 -0.061199732125 0.358338654041 0.910418 -0.035781 0.412140
0.742631912231 0.010232219473 0.293076217175 0.910418 -0.035781 0.412140
0.749402523041 -0.200982987881 0.268539249897 0.901778 -0.019805 0.431745
0.744889259338 -0.131565377116 0.281106859446 0.901778 -0.019805 0.431745
0.707689285278 -0.195007055998 0.355967432261 0.901778 -0.019805 0.431745
0.775718629360 -0.106107980013 0.215236872435 0.913040 -0.019649 0.407397
0.777812957764 0.031323134899 0.217565208673 0.913040 -0.019649 0.407397
0.197685763240 -1.106771707535 0.219747260213 0.034328 -0.512172 0.858197
0.282338082790 -1.143520951271 0.194157451391 0.039924 -0.507999 0.860432
0.251595377922 -1.049873828888 0.250692844391 0.039556 -0.478764 0.877052
0.135287627578 -0.962290048599 0.303117156029 0.025615 -0.478601 0.877659
0.072418719530 -0.859106659889 0.357818335295 0.022634 -0.443367 0.896054
0.073926597834 -0.721420884132 0.423822253942 0.025169 -0.425216 0.904742
0.059538278729 -0.669713795185 0.447433352470 0.024356 -0.355090 0.934515
0.085215926170 -0.590984940529 0.476775169373 0.024415 -0.355943 0.934189
0.115182057023 -0.545676529408 0.493320465088 0.024415 -0.355943 0.934189
0.035300150514 -0.903420209885 0.336238175631 0.003934 -0.444585 0.895728
0.157949149609 -1.039272546768 0.260346025229 0.022891 -0.480707 0.876583
0.102854758501 -1.098112940788 0.227842763066 0.023154 -0.510748 0.859419
0.161765903234 -1.206913828850 0.161310270429 0.023122 -0.512757 0.858222
0.039110645652 -1.073769450188 0.243608653545 0.001339 -0.512919 0.858436
-0.034400537610 -0.944523811340 0.315018177032 -0.003993 -0.480433 0.877023
-0.012609940954 -0.865219354630 0.355308473110 -0.003934 -0.444585 0.895728
-0.008866009302 -0.792203485966 0.391129076481 -0.003906 -0.425731 0.904841
-0.048070058227 -0.709930360317 0.429671049118 -0.003915 -0.426736 0.904368
-0.099750585854 -0.647598743439 0.454812377691 -0.024356 -0.355090 0.934515
-0.137496665120 -0.638710260391 0.457236409187 -0.024415 -0.355943 0.934189
-0.085043139756 -0.557584822178 0.489531069994 -0.024415 -0.355943 0.934189
-0.547205448151 -0.469518601894 0.484783381224 -0.148859 -0.349193 0.925152
-0.514954566956 -0.489813536406 0.482729792595 -0.157201 -0.338052 0.927905
-0.488774925470 -0.437293320894 0.505935490131 -0.092399 -0.346832 0.933365
-0.394736170769 -0.452154606581 0.508988678455 -0.058596 -0.332044 0.941442
-0.330670058727 -0.489545106888 0.500187695026 -0.076868 -0.311381 0.947171
-0.273171931505 -0.476046681404 0.508568167686 -0.052503 -0.311178 0.948900
-0.270745038986 -0.619229495525 0.458209395409 -0.056337 -0.352432 0.934140
-0.175130978227 -0.607266843319 0.468282938004 -0.053674 -0.354774 0.933410
-0.278090804815 -0.694022536278 0.427913248539 -0.055280 -0.416621 0.907398
-0.195870578289 -0.760145366192 0.401904314756 -0.046996 -0.425650 0.903667
-0.171116992831 -0.703849673271 0.429414987564 -0.025169 -0.425216 0.904742
-0.111616291106 -0.843322753906 0.364608764648 -0.025296 -0.443339 0.895997
-0.099286541343 -0.881592333317 0.345941185951 -0.022634 -0.443367 0.896054
-0.173651710153 -1.050494074821 0.253768980503 -0.025615 -0.478601 0.877659
-0.077458091080 -0.986393868923 0.291496396065 -0.022891 -0.480707 0.876583
-0.178324580193 -1.155252575874 0.191647797823 -0.023154 -0.510748 0.859419
-0.071623064578 -1.130470871925 0.209389343858 -0.023122 -0.512757 0.858222
-0.273678839207 -1.186904668808 0.168867677450 -0.034328 -0.512172 0.858197
-0.291572690010 -1.087367653847 0.226873040199 -0.039924 -0.507999 0.860432
-0.210166126490 -0.914553701878 0.325972020626 -0.041847 -0.444120 0.894990
-0.261556744576 -0.825060427189 0.367625266314 -0.047348 -0.439664 0.896914
-0.369200766087 -0.852026045322 0.346131145954 -0.092686 -0.424697 0.900579
-0.326328366995 -0.754701614380 0.395918965340 -0.092547 -0.415770 0.904749
-0.335037678480 -0.551537871361 0.478887557983 -0.078726 -0.358938 0.930035
-0.446693331003 -0.641823470592 0.433117926121 -0.122370 -0.358860 0.925335
-0.476663321257 -0.545825123787 0.466861456633 -0.110899 -0.365556 0.924159
-0.516174435616 -0.630590796471 0.428116023540 -0.158567 -0.360635 0.919129
-0.572580635548 -0.545303463936 0.451631784439 -0.164362 -0.355415 0.920144
-0.587454378605 -0.652811884880 0.406225234270 -0.163698 -0.388606 0.906746
-0.512427806854 -0.681682527065 0.406664073467 -0.131122 -0.407466 0.903758
-0.424877882004 -0.728850245476 0.397568464279 -0.122225 -0.417252 0.900534
-0.450584113598 -1.019374370575 0.254076510668 -0.099661 -0.453389 0.885723
-0.393156379461 -0.958890557289 0.290923297405 -0.076210 -0.453104 0.888194
-0.310693651438 -1.022994637489 0.262483447790 -0.047963 -0.475514 0.878400
-0.399891018867 -1.160964131355 0.177693992853 -0.048416 -0.504913 0.861811
-0.301273912191 -1.108407258987 0.213971972466 -0.045592 -0.507036 0.860718
-0.446062833071 -1.146710634232 0.181374266744 -0.107403 -0.502647 0.857794
-0.471975326538 -1.153865218163 0.173943132162 -0.107403 -0.502647 0.857794
-0.473409324884 -1.039366602898 0.240600496531 -0.110550 -0.498192 0.859991
-0.581833362579 -1.012150406837 0.237950056791 -0.192875 -0.488915 0.850742
-0.571712195873 -0.994090080261 0.249729096889 -0.176253 -0.432622 0.884179
-0.564994812012 -0.904106140137 0.295359402895 -0.161052 -0.445433 0.880711
-0.570525944233 -0.781488776207 0.352293819189 -0.144037 -0.417851 0.897025
-0.630311727524 -0.813405930996 0.325338393450 -0.239392 -0.399978 0.884709
-0.644763529301 -0.746191740036 0.351451516151 -0.245853 -0.391875 0.886561
-0.525458991528 1.333816289902 0.444165289402 -0.041904 0.306028 0.951100
-0.465855747461 1.294358015060 0.462470829487 -0.100071 0.324231 0.940670
-0.327703684568 1.132869124413 0.527976095676 -0.084117 0.288584 0.953752
0.625318765640 0.688415706158 0.502689063549 0.858589 0.014873 0.512449
0.633459210396 0.617501020432 0.490826994181 0.853162 0.006739 0.521602
0.610041677952 0.437550365925 0.530408799648 0.853906 0.004034 0.520412
0.755688071251 0.886601150036 0.234054088593 0.922987 0.024734 0.384035
-0.711968719959 -1.045835375786 0.187187805772 -0.216336 -0.482597 0.848704
-0.638498425484 -0.940498232841 0.261976450682 -0.255315 -0.424518 0.868676
-0.537917852402 1.494629740715 0.386595547199 -0.019082 0.347293 0.937563
-0.501326024532 1.377267479897 0.430889427662 -0.021677 0.348105 0.937205
-0.403198868036 1.235014200211 0.489119291306 -0.086455 0.336509 0.937703
-0.353970706463 1.209287405014 0.502500534058 -0.084325 0.289299 0.953518
-0.267195612192 1.141625046730 0.529636025429 -0.049252 0.289200 0.956001
-0.632122039795 0.726343452930 0.490242630243 -0.858589 0.014873 0.512449
-0.645233809948 0.733241677284 0.468120992184 -0.858589 0.014873 0.512449
-0.664862930775 0.798334777355 0.432398051023 -0.874442 0.014776 0.484905
-0.685912132263 0.822266995907 0.392134845257 -0.882434 0.020086 0.470007
-0.718270182610 0.653753280640 0.333782374859 -0.911572 0.022297 0.410535
-0.721950948238 0.816764831543 0.317475795746 -0.907745 0.019705 0.419060
-0.750152647495 0.704466938972 0.258570402861 -0.919860 0.022118 0.391623
-0.726391255856 0.945579171181 0.300542473793 -0.922987 0.024734 0.384035
-0.754636526108 0.800781786442 0.242094531655 -0.922987 0.024734 0.384035
-0.495493859053 1.639125585556 0.330951273441 -0.040693 0.376734 0.925427
-0.421502411366 1.430407285690 0.416252881289 -0.040335 0.357815 0.932921
-0.332671225071 1.546831965446 0.379429399967 -0.087190 0.358151 0.929584
-0.353797435760 1.435259103775 0.420313745737 -0.090076 0.358961 0.928996
-0.306914418936 1.414476990700 0.432784259319 -0.090076 0.358961 0.928996
-0.384323328733 1.337065935135 0.454280585051 -0.086455 0.336509 0.937703
-0.210926026106 1.246897220612 0.499287545681 -0.047846 0.337507 0.940106
-0.177982196212 1.205802321434 0.514494478703 -0.046698 0.291547 0.955416
-0.790109574795 -0.707839846611 0.155034139752 -0.910639 -0.019654 0.412736
-0.798008918762 -0.376139521599 0.153316110373 -0.910639 -0.019654 0.412736
-0.781489014626 -0.696864843369 0.174626231194 -0.910639 -0.019654 0.412736
-0.768497586250 -0.534489214420 0.211079970002 -0.910639 -0.019654 0.412736
-0.772974789143 -0.359553515911 0.209307014942 -0.910639 -0.019654 0.412736
-0.743584930897 -0.469639509916 0.269052714109 -0.910639 -0.019654 0.412736
-0.658186137676 -0.288851678371 0.446069389582 -0.869021 -0.017515 0.494466
-0.652205169201 -0.189181134105 0.458347320557 -0.861931 -0.009413 0.506939
-0.642193019390 -0.178146883845 0.475770801306 -0.863499 -0.017567 0.504045
-0.615863263607 -0.027498669922 0.520762741566 -0.841304 -0.004064 0.540548
-0.629843890667 0.002477830276 0.499411255121 -0.838437 -0.009512 0.544916
-0.618686258793 0.041591960937 0.517183542252 -0.837225 -0.004071 0.546843
-0.662561953068 0.069711022079 0.449110955000 -0.863499 -0.017567 0.504045
-0.693749129772 -0.120396263897 0.389147669077 -0.867233 -0.014836 0.497681
-0.696144998074 0.330463647842 0.391525924206 -0.866480 0.020276 0.498800
-0.703088760376 0.397681117058 0.376873791218 -0.866480 0.020276 0.498800
-0.679766774178 0.441517233849 0.415798664093 -0.874442 0.014776 0.484905
-0.665494143963 0.578842222691 0.437575727701 -0.874442 0.014776 0.484905
-0.649810194969 0.363122075796 0.469975680113 -0.842893 0.014979 0.537872
-0.644302904606 0.344717919827 0.479122638702 -0.842893 0.014979 0.537872
-0.641274154186 0.563083827496 0.478623867035 -0.853906 0.004034 0.520412
-0.726194739342 0.448032259941 0.327221870422 -0.911572 0.022297 0.410535
-0.716541767120 0.462416023016 0.347908705473 -0.911572 0.022297 0.410535
-0.730974316597 0.468290627003 0.315426796675 -0.914443 0.019623 0.404239
-0.736198127270 0.554145395756 0.299225956202 -0.914443 0.019623 0.404239
-0.747173309326 0.551478922367 0.274185568094 -0.919860 0.022118 0.391623
-0.768272042274 0.478266805410 0.228759810328 -0.916739 0.022232 0.398867
-0.769231975079 0.435450911522 0.229072600603 -0.916739 0.022232 0.398867
-0.501596331596 1.701813817024 0.305745303631 0.037813 0.366399 0.929689
-0.445081055164 1.747876405716 0.288118720055 -0.049066 0.391203 0.918995
-0.365479946136 1.619143843651 0.347596824169 -0.090623 0.371960 0.923814
-0.329103320837 1.616082549095 0.352194428444 -0.074035 0.386330 0.919384
-0.192452684045 1.589926719666 0.371268033981 -0.048997 0.388005 0.920354
-0.231910914183 1.540178537369 0.388883143663 -0.045820 0.362634 0.930804
-0.219554603100 1.549494028091 0.385867178440 -0.045820 0.362634 0.930804
-0.136138170958 1.411386251450 0.443487882614 -0.040358 0.363219 0.930829
-0.064508430660 1.369487524033 0.462025612593 -0.039748 0.332088 0.942411
-0.033980973065 1.200969576836 0.520068407059 0.001213 0.282560 0.959249
-0.033962100744 1.134737730026 0.539749860764 -0.006102 0.286783 0.957976
0.113064825535 1.180117368698 0.524253249168 0.036145 0.282926 0.958460
0.142985969782 1.169232964516 0.526661515236 0.026107 0.292151 0.956016
0.187330365181 1.199337840080 0.516017556190 0.046698 0.291547 0.955416
0.223776280880 1.151455044746 0.528866410255 0.049252 0.289200 0.956001
0.380994141102 1.196587085724 0.503963470459 0.084325 0.289299 0.953518
0.462039470673 1.197751164436 0.495699793100 0.097982 0.288721 0.952386
0.446413874626 1.130659461021 0.517327010632 0.117143 0.275089 0.954256
-0.019162287936 1.781082272530 0.295360267162 -0.001289 0.406019 0.913864
-0.253057718277 1.805091142654 0.277145445347 -0.043788 0.396742 0.916885
-0.135763004422 1.724301457405 0.317559361458 -0.035627 0.397170 0.917053
-0.048298634589 1.613606214523 0.366406112909 0.001275 0.381263 0.924466
-0.026855995879 1.474303364754 0.421789228916 0.001266 0.365926 0.930643
0.038183107972 1.578258633614 0.380757778883 0.001266 0.365926 0.930643
0.020525909960 1.406443476677 0.448573678732 0.001266 0.365926 0.930643
0.144066393375 1.381700992584 0.454452842474 0.039748 0.332088 0.942411
0.168235465884 1.253069996834 0.499225378036 0.034596 0.334430 0.941785
0.208547279239 1.350426316261 0.462497681379 0.053180 0.335943 0.940380
0.254673123360 1.242488980293 0.498621642590 0.047846 0.337507 0.940106
0.357642710209 1.364274024963 0.446993619204 0.086455 0.336509 0.937703
0.365144431591 1.269281983376 0.480383992195 0.086455 0.336509 0.937703
0.419034987688 1.305527567863 0.462467640638 0.072443 0.335870 0.939118
0.440297931433 1.248057723045 0.481121987104 0.100071 0.324231 0.940670
0.006573783234 1.664866805077 0.345312714577 0.001275 0.381263 0.924466
0.086507983506 1.646580219269 0.351776152849 0.035293 0.380381 0.924156
0.166986405849 1.610234141350 0.364001244307 0.032649 0.382648 0.923317
0.235791757703 1.670920014381 0.335056096315 0.051745 0.383441 0.922115
0.377850979567 1.681595087051 0.320722430944 0.074035 0.386330 0.919384
0.436695814133 1.666552782059 0.322739899158 0.048766 0.372993 0.926552
0.448263734579 1.609487414360 0.345145344734 0.040693 0.376734 0.925427
0.551523566246 1.467318773270 0.396425575018 0.019082 0.347293 0.937563
0.162997469306 1.820826292038 0.274570971727 0.027629 0.403907 0.914383
0.198047146201 1.825290441513 0.271092236042 0.043788 0.396742 0.916885
0.233394011855 1.715608596802 0.316500455141 0.054545 0.389798 0.919284
0.308247566223 1.753543853760 0.295925438404 0.063025 0.390221 0.918562
0.405646771193 1.718323230743 0.303301811218 0.071151 0.379920 0.922279
0.468918621540 1.698375701904 0.307912737131 0.049066 0.391203 0.918995
0.556147456169 1.642230272293 0.329820185900 -0.016622 0.361841 0.932092
0.505190551281 1.426276683807 0.412627369165 0.021677 0.348105 0.937205
0.486326575279 1.415418624878 0.417284816504 0.072786 0.345402 0.935628
0.443899035454 1.536076545715 0.374672383070 0.040335 0.357815 0.932921
0.365209341049 1.499408960342 0.394567251205 0.087190 0.358151 0.929584
0.338827848434 1.519563198090 0.389324158430 0.087190 0.358151 0.929584
0.318679869175 1.399450182915 0.437440782785 0.090076 0.358961 0.928996
0.294713556767 1.412180066109 0.434830635786 0.053755 0.357933 0.932199
0.184793516994 1.454376578331 0.424640238285 0.045820 0.362634 0.930804
0.099629268050 1.440251469612 0.433776646852 0.040358 0.363219 0.930829
0.059807080775 1.545602321625 0.393620491028 0.029825 0.366974 0.929753
-0.119657367468 1.517425656319 0.402739167213 -0.029825 0.366974 0.929753
-0.059459835291 1.471405744553 0.422917693853 -0.029825 0.366974 0.929753
-0.156167954206 1.670487403870 0.339320003986 -0.032649 0.382648 0.923317
-0.198997929692 1.701024293900 0.324646234512 -0.051745 0.383441 0.922115
-0.237967595458 1.709363698959 0.318885207176 -0.054545 0.389798 0.919284
-0.344716817141 1.786943316460 0.279241234064 -0.063025 0.390221 0.918562
-0.409146279097 1.751318335533 0.289386272430 -0.071151 0.379920 0.922279
-0.119206950068 1.181358337402 0.523660898209 -0.036145 0.282926 0.958460
-0.173283070326 1.256516814232 0.497807174921 -0.034596 0.334430 0.941785
-0.204625681043 1.381189227104 0.451768428087 -0.053180 0.335943 0.940380
-0.284303665161 1.523673892021 0.392541915178 -0.053755 0.357933 0.932199
-0.785609960556 -0.151004120708 0.191176190972 -0.910639 -0.019654 0.412736
-0.794782280922 -0.180573239923 0.169569373131 -0.910639 -0.019654 0.412736
-0.761500358582 -0.045025907457 0.250147968531 -0.913040 -0.019649 0.407397
-0.753633141518 -0.140007138252 0.262455433607 -0.901778 -0.019805 0.431745
-0.737178921700 -0.134726122022 0.297074377537 -0.901778 -0.019805 0.431745
-0.736350953579 -0.218506991863 0.295018106699 -0.901778 -0.019805 0.431745
-0.749127566814 0.026063233614 0.280098766088 -0.910418 -0.035781 0.412140
-0.693502306938 -0.144975647330 0.388114809990 -0.910418 -0.035781 0.412140
-0.734789371490 -0.297589242458 0.294680178165 -0.899132 -0.025234 0.436949
-0.690910041332 -0.470834881067 0.375399619341 -0.899132 -0.025234 0.436949
-0.675330340862 -0.348400682211 0.412804394960 -0.884600 -0.022820 0.465791
-0.688723385334 -0.507430851460 0.378466159105 -0.894597 -0.014579 0.446636
-0.715297341347 -0.530093669891 0.324475228786 -0.894597 -0.014579 0.446636
-0.719806969166 -0.664591550827 0.311542809010 -0.891965 -0.011928 0.451947
-0.442800313234 1.122319936752 0.520179569721 -0.117143 0.275089 0.954256
0.814392685890 -0.399455159903 0.131276488304 0.854716 -0.028718 0.518300
0.805842876434 -0.054828595370 0.162361100316 0.330472 -0.055727 0.942169
0.818794012070 -0.339491367340 0.127243995667 0.854716 -0.028718 0.518300
0.768408656120 0.800329625607 0.218083202839 0.265367 -0.046097 0.963045
0.784908115864 0.553012728691 0.200997591019 0.854757 0.014901 0.518815
-0.784688949585 0.622347831726 0.199580445886 -0.854343 0.009448 0.519624
-0.804250597954 0.312644422054 0.175374791026 -0.859778 0.014894 0.510451
-0.638293802738 -2.137125730515 -0.407670110464 -0.270010 -0.909278 -0.316715
-0.626389801502 -2.137835979462 -0.447316318750 -0.404313 -0.909358 0.097973
-0.679028809071 -2.133921384811 -0.391446322203 -0.223279 -0.279449 0.933839
-0.811349093914 -0.449226975441 0.133622810245 -0.854716 -0.028718 0.518300
-0.811535537243 -0.170594304800 0.148561716080 -0.854716 -0.028718 0.518300
-0.803939402103 -0.320077419281 0.147060707211 -0.444884 -0.055781 0.893849
-0.816995143890 -2.003442764282 -0.411884397268 -0.678459 -0.732735 0.052848
-0.737305223942 -2.081817388535 -0.472612529993 -0.035436 -0.145172 0.988772
-0.706660866737 -2.138993024826 -0.453841745853 -0.887308 -0.279809 -0.366594
-0.709502339363 -2.129490137100 -0.417611449957 -0.887308 -0.279809 0.366594
-0.763792514801 -2.050960540771 -0.409141361713 -0.595325 -0.801780 0.052321
-0.602572858334 -2.206860542297 -0.419164925814 -0.950610 -0.157314 0.267569
0.767445862293 -2.058526277542 -0.469125986099 0.029427 -0.194220 0.980516
0.780752718449 -2.041482448578 -0.398580819368 0.626117 -0.772748 0.104108
0.687463700771 -2.137634992599 -0.396232575178 0.500886 -0.279310 0.819206
0.622742533684 -2.139012336731 -0.428676813841 0.404313 -0.909358 -0.097973
0.797968447208 -2.021069526672 -0.412243574858 0.678459 -0.732735 0.052848
0.723351657391 -2.094804525375 -0.436457663774 0.957551 -0.278164 -0.075630
0.780023634434 0.732000768185 0.205128774047 0.854343 0.009448 0.519624
0.626145362854 -0.602031588554 0.418342411518 0.199795 -0.363655 0.909856
0.425685018301 -1.197197437286 0.154904678464 0.054139 -0.503909 0.862059
0.351239979267 -1.233096122742 0.137822896242 0.042774 -0.509147 0.859616
0.396518319845 -1.227400422096 0.138842508197 0.045484 -0.505833 0.861432
0.119371682405 -0.471663892269 0.517304897308 0.026256 -0.298813 0.953951
0.081094011664 -0.528490960598 0.500539660454 0.021191 -0.300407 0.953576
-0.139400064945 -0.515255033970 0.503379702568 -0.021191 -0.300407 0.953576
-0.051568940282 -0.487573355436 0.514096915722 -0.006142 -0.298479 0.954396
-0.153148293495 -0.501473486423 0.507050812244 -0.043701 -0.275943 0.960180
-0.192257270217 -0.497213184834 0.506967246532 -0.068010 -0.293856 0.953427
-0.225730925798 -0.462458491325 0.515640079975 -0.055010 -0.305753 0.950520
-0.521937608719 -0.423081487417 0.506246328354 -0.148138 -0.339195 0.928979
-0.519983947277 -0.409002065659 0.511863172054 -0.145761 -0.348438 0.925929
-0.004181594122 -1.216822385788 0.158190488815 0.001339 -0.512919 0.858436
-0.263505488634 -1.203434824944 0.159444883466 -0.034295 -0.508938 0.860120
-0.365052372217 -1.214349508286 0.148141041398 -0.045484 -0.505833 0.861432
-0.436852067709 -1.219734311104 0.140977755189 -0.054139 -0.503909 0.862059
-0.525100946426 -1.177283883095 0.154280588031 -0.099901 -0.460108 0.882225
-0.552697479725 1.318029522896 0.447843402624 -0.090310 0.302343 0.948911
-0.519998729229 -1.193946957588 0.146181315184 -0.090745 -0.453725 0.886509
-0.612014889717 -1.154529094696 0.152473405004 -0.147995 -0.432491 0.889409
-0.714863240719 -1.083341836929 0.165390416980 -0.257902 -0.495728 0.829301
-0.673899829388 -1.119044542313 0.157128483057 -0.253076 -0.470875 0.845121
-0.648560643196 -1.136940002441 0.154354661703 -0.224838 -0.466274 0.855591
-0.585832476616 1.565433144569 0.359520792961 -0.011318 0.335757 0.941881
-0.131334602833 1.102327227592 0.547324955463 -0.026083 0.286908 0.957603
-0.109991103411 1.107694745064 0.546296358109 -0.026021 0.286227 0.957808
0.402903914452 1.091817855835 0.533747315407 0.084325 0.289299 0.953518
-0.250218302011 1.832909822464 0.265347182751 -0.043543 0.383970 0.922319
0.592323541641 1.454928517342 0.398781478405 0.011318 0.335757 0.941881
0.578165948391 1.578474521637 0.354715734720 0.014032 0.360994 0.932462
0.594830572605 1.636068105698 0.332325398922 -0.006339 0.356252 0.934369
-0.373220652342 1.813644886017 0.265972077847 -0.062691 0.382817 0.921695
0.683786034584 -2.087071895599 -0.102019146085 0.462529 -0.569395 0.679600
0.691465735435 -2.111908674240 -0.130110993981 0.588324 -0.681656 0.434993
0.624940633774 -2.165608167648 -0.135943472385 0.421230 -0.621023 0.660981
0.620262622833 -2.089203119278 -0.072090826929 0.251802 -0.417660 0.873015
0.842113792896 -1.904629707336 -0.107133038342 0.779478 -0.397032 0.484541
0.788977921009 -1.958825588226 -0.084706597030 0.592765 -0.452505 0.666235
0.492984175682 -2.241511344910 -0.154620856047 0.251197 -0.706195 0.661959
0.556968033314 -2.107197761536 -0.070256367326 0.137926 -0.419466 0.897231
0.595464587212 -2.073932170868 -0.060661479831 0.140688 -0.413538 0.899552
-0.613415360451 -2.169327497482 -0.132155343890 -0.358136 -0.619788 0.698284
-0.642333924770 -2.151591300964 -0.133884042501 -0.421230 -0.621023 0.660981
-0.683804035187 -2.104785680771 -0.116927377880 -0.462529 -0.569395 0.679600
-0.651957869530 -2.049934148788 -0.061860941350 -0.225450 -0.425518 0.876417
-0.686794757843 2.203424453735 0.123254284263 -0.627164 0.763175 0.155658
-0.799867987633 -2.042693138123 -0.387249410152 -0.777384 -0.627288 0.046728
-0.885697782040 -1.775208234787 -0.078763805330 -0.786743 -0.341296 0.514347
-0.886599063873 -1.789013743401 -0.090543001890 -0.829084 -0.352163 0.434282
-0.782788157463 -1.948483109474 -0.072169654071 -0.592765 -0.452505 0.666235
-0.793299973011 -1.928194046021 -0.068291448057 -0.602958 -0.423565 0.676043
-0.828550517559 -1.853692293167 -0.056911241263 -0.659193 -0.384942 0.645976
-0.832070052624 -1.884809613228 -0.079658955336 -0.702497 -0.376749 0.603786
-0.873170912266 -1.768195509911 -0.056731373072 -0.733611 -0.352979 0.580707
-0.790297150612 -2.003956079483 -0.127021715045 -0.678474 -0.531052 0.507599
-0.802443444729 -2.044415712357 -0.448914617300 -0.786307 -0.613808 0.070437
-0.784642219543 -2.063872575760 -0.418481290340 -0.776154 -0.628585 0.049662
-0.737370014191 -2.117686033249 -0.448828607798 -0.724087 -0.686659 0.064779
-0.602590262890 -2.224106550217 -0.399673759937 -0.612421 -0.790530 -0.001370
0.802994906902 -2.042850017548 -0.441510200500 0.786307 -0.613808 0.070437
0.769544780254 -2.077143669128 -0.378033071756 0.724220 -0.686785 0.061911
0.868734180927 -1.855239868164 -0.109996773303 0.828861 -0.348911 0.437323
-0.709205091000 2.184568881989 0.090855188668 -0.073587 0.093964 0.992852
-0.615708887577 2.230858325958 0.110194034874 -0.788169 0.001371 0.615457
-0.660263836384 2.202296018600 0.133576557040 0.000978 0.000978 -0.999999
0.742264688015 2.138370037079 0.091294512153 0.000978 0.000978 0.999999
0.645643413067 2.220484733582 0.095660246909 0.000978 0.000978 -0.999999
0.683774709702 2.195725917816 0.101985707879 0.000978 0.000978 0.999999
0.849579691887 -1.446340560913 -0.144029632211 0.001044 -0.072063 -0.997400
0.720772802830 -1.436234354973 -0.144757196307 0.001044 -0.072063 -0.997400
0.848443388939 -1.477193593979 -0.143327564001 0.001044 0.072063 -0.997400
0.725197434425 -1.493487834930 -0.144500553608 0.001044 0.072063 -0.997400
0.850177168846 -1.552082538605 -0.153270572424 0.001162 0.212622 -0.977134
0.830621361732 -1.571289062500 -0.157477304339 0.001162 0.212622 -0.977134
0.801090419292 -1.598300576210 -0.167127236724 0.001257 0.350710 -0.936483
0.717966556549 -1.591745257378 -0.164664134383 0.001257 0.350710 -0.936483
0.891525745392 -1.640536189079 -0.185609281063 0.001326 0.481358 -0.876523
0.791218876839 -1.668005943298 -0.200733229518 0.001326 0.481358 -0.876523
0.832778275013 -1.675589203835 -0.205353468657 0.001368 0.603278 -0.797530
0.692447781563 -1.728191614151 -0.247982427478 0.001381 0.711237 -0.702951
0.770413517952 -1.750423073769 -0.270473241806 0.001381 0.711237 -0.702951
0.922695219517 -1.402865409851 -0.148526400328 0.001162 -0.212622 -0.977134
0.660265803337 -1.388196825981 -0.166301533580 0.999999 0.000978 0.000978
0.660265803337 -1.570407867432 -0.192801237106 0.999999 0.000978 0.000978
0.660265803337 -1.361767053604 -0.214186683297 0.999999 0.000978 0.000978
0.660265803337 -1.566441059113 -0.214238613844 0.999999 0.000978 0.000978
0.660265803337 -1.413651466370 -0.274584203959 0.999999 0.000978 0.000978
0.660265803337 -1.269138813019 -0.278481096029 0.999999 0.000978 0.000978
0.660265803337 -1.482246041298 -0.314758718014 0.999999 0.000978 0.000978
0.660265803337 -1.285117268562 -0.303095430136 0.999999 0.000978 0.000978
0.660265803337 -1.440363407135 -0.321213364601 0.999999 0.000978 0.000978
0.660265803337 -1.436597704887 -0.361059576273 0.999999 0.000978 0.000978
0.660265803337 -1.520070910454 -0.387917101383 0.999999 0.000978 0.000978
0.660265803337 -1.405005455017 -0.384444743395 0.999999 0.000978 0.000978
0.660265803337 -1.789488315582 -0.391680121422 0.999999 0.000978 0.000978
0.660265803337 -1.351568698883 -0.417645633221 0.999999 0.000978 0.000978
0.660265803337 -1.262204885483 -0.440032571554 0.999999 0.000978 0.000978
0.660265803337 -1.420919418335 -0.438784420490 0.999999 0.000978 0.000978
0.660265803337 -1.703724503517 -0.434978544712 0.999999 0.000978 0.000978
0.660265803337 -1.383750438690 -0.459860593081 0.999999 0.000978 0.000978
0.660265803337 -1.588841557503 -0.479313522577 0.999999 0.000978 0.000978
0.660265803337 -1.256255626678 -0.475047022104 0.999999 0.000978 0.000978
0.660265803337 -1.827453136444 -0.508485257626 0.999999 0.000978 0.000978
0.660265803337 -1.694420099258 -0.495278835297 0.999999 0.000978 0.000978
0.660265803337 -1.406709551811 -0.524392068386 0.999999 0.000978 0.000978
0.660265803337 -1.418106079102 -0.552577853203 0.999999 0.000978 0.000978
0.660265803337 -1.140969157219 -0.569097399712 0.999999 0.000978 0.000978
0.202978521585 -1.580920577049 -0.579442918301 0.019053 -0.007020 -0.999794
0.611379384995 -1.366785764694 -0.572595477104 0.019053 -0.007020 -0.999794
0.467385679483 -1.746276855469 -0.573146224022 0.019053 -0.007020 -0.999794
0.417437911034 -1.735108494759 -0.574212729931 0.019053 -0.007020 -0.999794
0.593032598495 -1.459726214409 -0.572392284870 0.019053 -0.007020 -0.999794
0.493411809206 -1.384800672531 -0.574842095375 0.019053 -0.007020 -0.999794
0.287083834410 -1.686724066734 -0.577113866806 0.019053 -0.007020 -0.999794
0.362181127071 -1.689534187317 -0.575596094131 0.019053 -0.007020 -0.999794
0.658297240734 -1.172666549683 -0.572847902775 0.019053 -0.007020 -0.999794
0.266998350620 -1.638651609421 -0.577809870243 0.019053 -0.007020 -0.999794
0.578648507595 -1.347209692001 -0.573369443417 0.019053 -0.007020 -0.999794
0.480078518391 -1.699520468712 -0.573179244995 0.019053 -0.007020 -0.999794
0.316764980555 -1.417536258698 -0.578170895576 0.019053 -0.007020 -0.999794
0.265127301216 -1.452230811119 -0.578990042210 0.019053 -0.007020 -0.999794
0.141942322254 -1.613732099533 -0.580461323261 0.019053 -0.007020 -0.999794
0.629020273685 -1.140089273453 -0.573632597923 0.019053 -0.007020 -0.999794
0.397638350725 -1.327067971230 -0.577109575272 0.019053 -0.007020 -0.999794
0.303400844336 -1.677077174187 -0.576846957207 0.019053 -0.007020 -0.999794
0.442902684212 -1.654620170593 -0.574197292328 0.019053 -0.007020 -0.999794
0.159653246403 -1.575787901878 -0.580340027809 0.019053 -0.007020 -0.999794
0.506784200668 -1.262872338295 -0.575322329998 0.019053 -0.007020 -0.999794
0.439446747303 -1.301088094711 -0.576433479786 0.019053 -0.007020 -0.999794
0.367754966021 -1.365457057953 -0.577471375465 0.019053 -0.007020 -0.999794
0.481124341488 -1.267102718353 -0.575809061527 0.019053 -0.007020 -0.999794
0.314844787121 -1.383888483047 -0.578415572643 0.019053 -0.007020 -0.999794
0.419256627560 -1.811880588531 -0.574071049690 0.022971 -0.000999 -0.999736
0.091184407473 -1.827832937241 -0.581433236599 0.022971 -0.000999 -0.999736
0.452584236860 -1.852554440498 -0.573323130608 0.022971 -0.000999 -0.999736
0.490841776133 -1.873025894165 -0.572464585304 0.022971 -0.000999 -0.999736
0.054355386645 -1.923315286636 -0.582259714603 0.022971 -0.000999 -0.999736
0.456374406815 -1.784681439400 -0.573238074780 0.022971 -0.000999 -0.999736
0.408598214388 -1.814137220383 -0.574310243130 0.022971 -0.000999 -0.999736
0.068661853671 -1.757289052010 -0.581938683987 0.022971 -0.000999 -0.999736
0.061892669648 -1.624031543732 -0.582090616226 0.022971 -0.000999 -0.999736
0.044792715460 -1.893925666809 -0.582474350929 0.022971 -0.000999 -0.999736
0.003112439299 -1.877261400223 -0.583409667015 0.022971 -0.000999 -0.999736
0.140089109540 -1.764497280121 -0.580335795879 0.022971 -0.000999 -0.999736
-0.143523290753 -1.750500202179 -0.580258727074 -0.022971 0.000999 -0.999736
-0.249140441418 -1.788120985031 -0.577888607979 -0.022971 0.000999 -0.999736
-0.151249930263 -1.885443925858 -0.580085337162 -0.022971 0.000999 -0.999736
-0.465047031641 -1.811109662056 -0.573043465614 -0.022971 0.000999 -0.999736
-0.129591509700 -1.811872005463 -0.580571353436 -0.022971 0.000999 -0.999736
-0.046023041010 -1.653472661972 -0.582446753979 -0.022971 0.000999 -0.999736
-0.328864485025 -1.896017789841 -0.576099514961 -0.022971 0.000999 -0.999736
-0.048242136836 -1.705486655235 -0.582396924496 -0.022971 0.000999 -0.999736
-0.323237627745 -1.857314109802 -0.576225817204 -0.022971 0.000999 -0.999736
-0.002558292821 -1.802911877632 -0.583422124386 -0.022971 0.000999 -0.999736
-0.123307861388 -1.727077603340 -0.580712378025 -0.022971 0.000999 -0.999736
-0.440193623304 -1.841028213501 -0.573601186275 -0.022971 0.000999 -0.999736
-0.499934256077 -1.952680945396 -0.574927210808 -0.017423 0.033822 -0.999276
-0.390845984221 -1.916614294052 -0.575644016266 -0.017423 0.033822 -0.999276
-0.370995759964 -2.020810127258 -0.579458236694 -0.017423 0.033822 -0.999276
-0.414361774921 -1.896052241325 -0.574546992779 -0.017423 0.033822 -0.999276
-0.509465456009 -1.881669521332 -0.572397947311 -0.017423 0.033822 -0.999276
-0.090859666467 -1.983048677444 -0.583123445511 -0.017423 0.033822 -0.999276
-0.413198202848 -2.021366596222 -0.578823924065 -0.011317 0.044238 -0.998957
-0.618921279907 -1.889691948891 -0.570923745632 -0.007200 0.048346 -0.998805
-0.481679856777 -2.008552551270 -0.577633738518 -0.007200 0.048346 -0.998805
-0.662943601608 -1.970144033432 -0.614864408970 0.460756 0.307691 -0.832484
-0.636024475098 -1.997917890549 -0.610207438469 0.460756 0.307691 -0.832484
-0.654048919678 -1.978496432304 -0.613021135330 0.460756 0.307691 -0.832484
-0.724175333977 -2.071745872498 -0.679479420185 0.339132 0.339132 -0.877485
-0.658028721809 -2.120073556900 -0.667910695076 0.391901 0.462863 -0.795092
-0.572770237923 -2.141728878021 -0.638867795467 0.313553 0.520466 -0.794229
-0.034453473985 -2.314197778702 -0.140358760953 -0.021546 -0.941667 0.335857
0.141503632069 -2.331639766693 -0.213714838028 0.045288 -0.970640 0.236234
0.337850838900 -2.293286323547 -0.170172706246 0.182326 -0.888292 0.421538
0.361152112484 -2.303540945053 -0.195335850120 -0.852716 0.001343 0.522373
-0.057683892548 -2.331201791763 -0.196606948972 -0.006041 -0.962997 0.269446
-0.217089325190 -2.296719551086 -0.135599359870 -0.143670 -0.897580 0.416784
-0.153511136770 -2.324796199799 -0.191818565130 -0.065455 -0.953590 0.293906
-0.113351382315 -2.341567277908 -0.246428459883 0.025017 0.001001 0.999686
0.698391139507 -1.309845089912 -0.176568284631 0.001257 -0.350710 -0.936483
0.743019402027 -1.302315831184 -0.180333882570 0.001326 -0.481358 -0.876523
0.794093906879 -1.271371483803 -0.197365835309 0.001326 -0.481358 -0.876523
0.673210680485 -1.243120789528 -0.216343164444 0.001368 -0.603278 -0.797530
0.871358931065 -1.225426435471 -0.229710668325 0.001368 -0.603278 -0.797530
0.836816191673 -1.128427267075 -0.351104527712 0.001322 -0.881656 -0.471891
0.856861352921 -1.113163590431 -0.385333180428 0.001251 -0.939829 -0.341642
0.667388975620 -1.115750432014 -0.378211021423 0.001251 -0.939829 -0.341642
0.730220675468 -1.097023129463 -0.441967070103 0.001129 -0.985368 -0.170436
0.679530143738 -1.091271400452 -0.488225638866 0.001028 -0.998513 -0.054502
0.732944786549 -1.089654922485 -0.523301422596 0.000978 -0.999999 0.000978
0.764725744724 -1.089559316635 -0.598042428493 -0.000978 -0.999999 -0.000978
0.806324601173 -1.089548349380 -0.651967048645 0.000978 -0.999999 0.000978
0.751282751560 -1.058271646500 -0.630191385746 -0.528668 0.001345 -0.848828
0.707260072231 -0.969032406807 -0.602683186531 -0.528668 0.001345 -0.848828
0.483742713928 -0.994205176830 -0.573318123817 0.000978 0.000978 -0.999999
0.349900215864 -1.010509133339 -0.573318123817 0.000978 0.000978 -0.999999
0.475962340832 -1.027800083160 -0.573318123817 0.000978 0.000978 -0.999999
0.626972198486 -0.993173599243 -0.573318123817 0.000978 0.000978 -0.999999
0.505520582199 -1.038708806038 -0.573318123817 0.000978 0.000978 -0.999999
0.369498252869 -1.231895208359 -0.576565086842 0.002985 0.016913 -0.999852
0.166533544660 -1.111970782280 -0.575260937214 0.002985 0.016913 -0.999852
0.175635665655 -1.179201841354 -0.576326549053 0.002985 0.016913 -0.999852
0.217023640871 -1.186866283417 -0.576319098473 0.002985 0.016913 -0.999852
0.077506847680 -1.215685725212 -0.577234208584 0.002985 0.016913 -0.999852
0.110897481441 -1.087488174438 -0.575040042400 0.002985 0.016913 -0.999852
0.207867681980 -1.132719755173 -0.575466692448 0.002985 0.016913 -0.999852
0.427247226238 -1.159015655518 -0.575193822384 0.002985 0.016913 -0.999852
0.255341619253 -1.244297981262 -0.577131807804 0.002985 0.016913 -0.999852
0.376222670078 -1.276698589325 -0.577273130417 0.002985 0.016913 -0.999852
0.413380414248 -1.107845306396 -0.574405014515 0.002985 0.016913 -0.999852
0.116495735943 -1.418002009392 -0.580403864384 0.002985 0.016913 -0.999852
0.348460912704 -1.287994384766 -0.577545762062 0.002985 0.016913 -0.999852
0.279096305370 -1.174085736275 -0.575912654400 0.002985 0.016913 -0.999852
0.039235908538 -1.394165754318 -0.580262601376 0.002985 0.016913 -0.999852
0.281703859568 -1.246505498886 -0.577083468437 0.002985 0.016913 -0.999852
0.252499520779 -1.050150394440 -0.573979616165 0.002985 0.016913 -0.999852
0.001827348373 -1.131133675575 -0.576099276543 0.002985 0.016913 -0.999852
0.387158036232 -1.257714748383 -0.576929032803 0.002985 0.016913 -0.999852
0.068899013102 -1.013526439667 -0.573969960213 0.002985 0.016913 -0.999852
0.250563919544 -1.356642484665 -0.578976392746 0.002985 0.016913 -0.999852
-0.382982254028 -1.270807981491 -0.577155590057 -0.002985 0.016913 -0.999852
-0.058373074979 -1.419744729996 -0.580617964268 -0.002985 0.016913 -0.999852
-0.070255003870 -1.523244500160 -0.582265257835 -0.002985 0.016913 -0.999852
-0.112817898393 -1.281391859055 -0.578191280365 -0.002985 0.016913 -0.999852
-0.368118494749 -1.108402013779 -0.574558675289 -0.002985 0.016913 -0.999852
-0.298854559660 -1.323515295982 -0.578282654285 -0.002985 0.016913 -0.999852
-0.086371585727 -1.206927537918 -0.577063262463 -0.002985 0.016913 -0.999852
-0.171168789268 -1.263519883156 -0.577713727951 -0.002985 0.016913 -0.999852
-0.444338470697 -1.154508352280 -0.575065851212 -0.002985 0.016913 -0.999852
-0.162408158183 -1.294786572456 -0.578250825405 -0.002985 0.016913 -0.999852
-0.008563505486 -1.024015903473 -0.574333608150 -0.002985 0.016913 -0.999852
-0.203534007072 -1.219932913780 -0.576900660992 -0.002985 0.016913 -0.999852
-0.087111301720 -1.493939280510 -0.581734240055 -0.002985 0.016913 -0.999852
-0.018252698705 -1.214259028435 -0.577400267124 -0.002985 0.016913 -0.999852
-0.048226546496 -1.120485782623 -0.575777649879 -0.002985 0.016913 -0.999852
-0.406750559807 -1.052323341370 -0.573522090912 -0.002985 0.016913 -0.999852
-0.111332096159 -1.205624461174 -0.576962292194 -0.002985 0.016913 -0.999852
-0.132055893540 -1.467583417892 -0.581161439419 -0.002985 0.016913 -0.999852
-0.464259952307 -1.115389585495 -0.574365258217 -0.002985 0.016913 -0.999852
-0.242286741734 -1.226900577545 -0.576890230179 -0.002985 0.016913 -0.999852
-0.122802078724 -1.510504961014 -0.581476569176 -0.019053 -0.007020 -0.999794
-0.361213862896 -1.585254430771 -0.576254725456 -0.019053 -0.007020 -0.999794
-0.341878294945 -1.419537186623 -0.577656865120 -0.019053 -0.007020 -0.999794
-0.501651644707 -1.347989916801 -0.574903070927 -0.019053 -0.007020 -0.999794
-0.383098512888 -1.614782810211 -0.575636386871 -0.019053 -0.007020 -0.999794
-0.310915201902 -1.517016768456 -0.577678024769 -0.019053 -0.007020 -0.999794
-0.242072075605 -1.538415551186 -0.578922390938 -0.019053 -0.007020 -0.999794
-0.564190089703 -1.276420831680 -0.574092268944 -0.019053 -0.007020 -0.999794
-0.264673680067 -1.678530216217 -0.577611863613 -0.019053 -0.007020 -0.999794
-0.623941242695 -1.706461071968 -0.570262193680 -0.019053 -0.007020 -0.999794
-0.516154527664 -1.278220772743 -0.575040996075 -0.019053 -0.007020 -0.999794
-0.481359004974 -1.248644828796 -0.575917541981 -0.019053 -0.007020 -0.999794
-0.240449041128 -1.476028323174 -0.579337239265 -0.019053 -0.007020 -0.999794
-0.609405696392 -1.175643682480 -0.573806583881 -0.019053 -0.007020 -0.999794
