-0.369233131409 0.887252807617 0.658111453056 -0.190656 0.024563 0.981350
-0.422833293676 0.430203735828 0.659274756908 -0.187968 0.024518 0.981869
-0.323802351952 0.354867666960 0.680231094360 -0.187968 0.024518 0.981869
-0.323336571455 0.663369774818 0.672615289688 -0.187968 0.024518 0.981869
-0.390034228563 0.634959101677 0.660478055477 -0.187968 0.024518 0.981869
-0.132695034146 0.828686535358 0.676383435726 -0.038380 0.025933 0.998927
-0.137903288007 0.774842202663 0.677527964115 -0.038380 0.025933 0.998927
-0.265988796949 0.657291591167 0.675536215305 -0.038380 0.025933 0.998927
-0.050831973553 1.016298651695 0.674846947193 -0.038380 0.025933 0.998927
-0.191825821996 0.715494275093 0.676935732365 -0.038380 0.025933 0.998927
-0.131515085697 0.843768477440 0.676052153111 -0.038380 0.025933 0.998927
-0.311469286680 0.608238816261 0.675011575222 -0.038380 0.025933 0.998927
-0.260779440403 0.698199510574 0.674714863300 -0.038380 0.025933 0.998927
-0.178225845098 0.665695846081 0.678702831268 -0.038380 0.025933 0.998927
-0.033185273409 1.017611384392 0.675493061543 -0.038380 0.025933 0.998927
-0.162189543247 0.588098943233 0.681231439114 -0.038382 0.023859 0.998978
-0.157845869660 0.408104389906 0.685846567154 -0.038382 0.023859 0.998978
-0.097574502230 0.579256355762 0.683900952339 -0.038382 0.023859 0.998978
-0.043080002069 0.597553253174 0.685515701771 -0.038382 0.023859 0.998978
-0.131937816739 0.502879977226 0.684485912323 -0.038382 0.023859 0.998978
-0.102990634739 0.680035531521 0.681203722954 -0.038382 0.023859 0.998978
-0.123600803316 0.732679307461 0.679120361805 -0.038382 0.023859 0.998978
-0.192884579301 0.612232625484 0.679470360279 -0.038382 0.023859 0.998978
-0.062945671380 0.763013720512 0.680671095848 -0.038382 0.023859 0.998978
-0.050286374986 0.424038201571 0.689532458782 -0.038382 0.023859 0.998978
-0.123503029346 0.630698740482 0.681645572186 -0.038382 0.023859 0.998978
-0.070211842656 1.234439730644 0.665393710136 -0.039008 0.041116 0.998393
-0.001923825592 1.233770251274 0.668122231960 -0.039008 0.041116 0.998393
-0.120677933097 1.182059049606 0.665570974350 -0.039008 0.041116 0.998393
-0.105057656765 1.190181016922 0.665851771832 -0.039008 0.041116 0.998393
-0.298554271460 1.036138415337 0.664589941502 -0.039008 0.041116 0.998393
-0.023116834462 1.053215861320 0.674774706364 -0.039008 0.041116 0.998393
-0.230045735836 1.253018021584 0.658245801926 -0.039008 0.041116 0.998393
-0.126535594463 1.341473579407 0.658681273460 -0.039008 0.041116 0.998393
-0.308762103319 1.195291638374 0.657514691353 -0.039008 0.041116 0.998393
-0.202994674444 1.167836666107 0.662898421288 -0.039008 0.041116 0.998393
-0.264408558607 1.280835866928 0.655704677105 -0.039008 0.041116 0.998393
-0.326118528843 1.165135979652 0.657049298286 -0.196404 0.041661 0.979638
-0.359123021364 1.163702964783 0.650480270386 -0.196404 0.041661 0.979638
-0.372486412525 1.321403026581 0.641462206841 -0.190502 0.039047 0.980910
-0.427484422922 1.057582736015 0.641256511211 -0.190502 0.039047 0.980910
-0.495355755091 0.980773448944 0.620738089085 -0.368654 0.037777 0.928799
-0.505934834480 1.282456040382 0.597195744514 -0.681717 0.554419 0.477370
-0.663659036160 1.425222396851 0.309123814106 -0.622506 0.507789 0.595514
-0.652876555920 1.400786161423 0.338505387306 -0.874029 0.115492 0.471947
-0.689470708370 1.376709103584 0.276273250580 -0.874029 0.115492 0.471947
-0.709255635738 1.425463438034 0.227645933628 -0.874029 0.115492 0.471947
-0.583688497543 1.311929464340 0.488756686449 -0.874029 0.115492 0.471947
-0.523968100548 1.181318521500 0.601091742516 -0.374950 0.037887 0.926270
-0.504610180855 0.638642549515 0.626587092876 -0.364387 0.024464 0.930926
-0.510810196400 0.728888690472 0.621767699718 -0.364387 0.024464 0.930926
-0.572769582272 0.530365705490 0.546279370785 -0.885403 0.011983 0.464670
-0.593501567841 0.576431393623 0.505536496639 -0.885403 0.011983 0.464670
-0.695828616619 0.551104307175 0.318269014359 -0.873026 -0.001329 0.487672
-0.741116344929 0.539246499538 0.236937567592 -0.873026 -0.001329 0.487672
-0.494673520327 0.664216756821 0.629789829254 -0.364387 0.024464 0.930926
-0.467635899782 -0.008235372603 0.640971243382 -0.370156 -0.073497 0.926058
-0.349958717823 0.078606076539 0.674905419350 -0.183347 -0.078924 0.979875
-0.370245456696 -0.009515520185 0.664090096951 -0.185727 -0.076476 0.979621
-0.758629024029 -0.769347727299 0.049570694566 -0.999999 0.000978 0.000978
-0.758629024029 -0.805005669594 0.038892835379 -0.999999 0.000978 0.000978
-0.758629024029 -0.839561522007 0.030005993322 -0.999999 0.000978 0.000978
-0.758629024029 -0.873679518700 0.044181007892 -0.999999 0.000978 0.000978
-0.758629024029 -0.994420766830 -0.021522041410 -0.999999 0.000978 0.000978
-0.712385475636 -1.345135927200 -0.025456747040 -0.967688 -0.214613 0.132366
-0.727898299694 -1.300361633301 -0.070240184665 -0.972110 -0.210016 0.104379
-0.758629024029 -1.119974255562 -0.066788330674 -0.999999 0.000978 0.000978
-0.758629024029 -0.996822416782 -0.031478643417 -0.999999 0.000978 0.000978
-0.734819710255 -1.170492172241 0.039518356323 -0.880283 -0.205646 0.427566
-0.726547479630 -1.077600240707 0.106662161648 -0.884709 -0.239392 0.399978
-0.758629024029 0.725385069847 -0.000246335287 -0.999999 0.000978 0.000978
-0.758629024029 0.722778379917 0.041238956153 -0.999999 0.000978 0.000978
-0.445670664310 0.147462010384 0.656859099865 -0.356781 0.001261 0.934187
-0.454849243164 0.836134433746 0.640707969666 -0.358184 0.024392 0.933332
-0.456233501434 0.504329979420 0.648638725281 -0.358184 0.024392 0.933332
-0.447286605835 0.969856381416 0.640184283257 -0.364387 0.024464 0.930926
-0.679533243179 -0.821540534496 0.247599467635 -0.599254 -0.274989 0.751849
-0.726871728897 -0.743694365025 0.227758839726 -0.857729 -0.001342 0.514100
-0.747634172440 -0.746679723263 0.180517137051 -0.950151 -0.001232 0.311788
0.728294968605 1.335363149643 0.157489120960 0.986475 0.158810 0.040572
0.711183428764 1.436890363693 0.175672158599 0.986475 0.158810 0.040572
0.729718148708 1.317689657211 0.191950827837 0.986475 0.158810 0.040572
0.742503225803 1.242030620575 0.177527546883 0.986475 0.158810 0.040572
0.664865612984 1.353642344475 0.327637225389 0.874029 0.115492 0.471947
0.375983238220 1.334205150604 0.640273272991 0.190502 0.039047 0.980910
0.396352261305 1.143717765808 0.643885791302 0.190502 0.039047 0.980910
0.350791722536 1.042204976082 0.657245695591 0.196404 0.041661 0.979638
0.347443103790 1.081394672394 0.656275808811 0.196404 0.041661 0.979638
0.181783974171 1.252185940742 0.660212218761 0.039008 0.041116 0.998393
0.174905598164 1.346620917320 0.656529724598 0.039008 0.041116 0.998393
0.154526501894 1.268795132637 0.660606980324 0.039008 0.041116 0.998393
0.285154461861 1.142171859741 0.660685777664 0.039008 0.041116 0.998393
0.241985678673 1.138383746147 0.662572264671 0.039008 0.041116 0.998393
0.220539420843 1.072434782982 0.666169464588 0.039008 0.041116 0.998393
0.155451446772 1.158189296722 0.665185987949 0.039008 0.041116 0.998393
0.003278166056 1.182231307030 0.670206844807 0.039008 0.041116 0.998393
0.024341642857 1.055856823921 0.674616694450 0.039008 0.041116 0.998393
0.068301260471 1.193632006645 0.667162239552 0.039008 0.041116 0.998393
0.274534761906 0.952434360981 0.667835533619 0.038380 0.025933 0.998927
0.264920711517 0.523395180702 0.678921639919 0.038380 0.025933 0.998927
0.212710857391 0.989085316658 0.669298589230 0.038380 0.025933 0.998927
0.257424533367 0.627202570438 0.676617205143 0.038380 0.025933 0.998927
0.219102993608 0.987709641457 0.669087052345 0.038380 0.025933 0.998927
0.140318259597 1.022665500641 0.671245038509 0.038380 0.025933 0.998927
0.239187508821 0.727514922619 0.674813330173 0.038380 0.025933 0.998927
0.298765748739 0.856938123703 0.669288516045 0.038380 0.025933 0.998927
0.262062430382 0.483144640923 0.680036962032 0.038380 0.025933 0.998927
0.109873443842 0.954377949238 0.674122035503 0.038380 0.025933 0.998927
0.259814143181 0.471928238869 0.680400729179 0.038382 0.023859 0.998978
0.161986231804 0.508067309856 0.683217883110 0.038382 0.023859 0.998978
0.119754001498 0.516793310642 0.684604108334 0.038382 0.023859 0.998978
0.056373581290 0.500930607319 0.687400400639 0.038382 0.023859 0.998978
0.208112388849 0.472594380379 0.682345330715 0.038382 0.023859 0.998978
0.025334037840 0.798757255077 0.681213974953 0.038382 0.023859 0.998978
0.199136584997 0.438893556595 0.683519065380 0.038382 0.023859 0.998978
0.053939178586 0.505335032940 0.687383890152 0.038382 0.023859 0.998978
0.208772927523 0.574567556381 0.679798960686 0.038382 0.023859 0.998978
0.008960366249 0.523501574993 0.688640832901 0.038382 0.023859 0.998978
0.019082173705 0.541978418827 0.687799990177 0.038382 0.023859 0.998978
0.202865153551 0.341042011976 0.685386598110 0.037461 0.001012 0.999298
0.247357711196 0.322368681431 0.683723866940 0.037461 0.001012 0.999298
0.071890383959 0.323428988457 0.690281271935 0.037461 0.001012 0.999298
0.158316954970 0.355030596256 0.687051415443 0.037461 0.001012 0.999298
0.033074181527 0.302706032991 0.691731870174 0.037461 0.001012 0.999298
0.154873102903 0.144421100616 0.687180101871 0.037461 0.001012 0.999298
0.096021980047 0.130218029022 0.689379453659 0.037461 0.001012 0.999298
0.033639494330 0.315212488174 0.691710770130 0.037461 0.001012 0.999298
0.246531277895 -0.016038358212 0.675891101360 0.035779 -0.076979 0.996391
0.252585768700 0.001223012805 0.677018046379 0.035779 -0.076979 0.996391
0.092764213681 0.030661556870 0.685227096081 0.035779 -0.076979 0.996391
0.169938310981 -0.033566866070 0.677363693714 0.037944 -0.076973 0.996311
0.090480618179 -0.025940597057 0.680928051472 0.037944 -0.076973 0.996311
0.210042178631 -0.090555652976 0.671448707581 0.037944 -0.076973 0.996311
0.142014726996 -0.110811509192 0.671807408333 0.037329 -0.222768 0.974157
0.243958160281 -0.108268968761 0.668468594551 0.037329 -0.222768 0.974157
0.165653556585 -0.215205684304 0.647169888020 0.037349 -0.220477 0.974677
0.102517083287 -0.218404635787 0.648940622807 0.037349 -0.220477 0.974677
0.010649263859 -0.190056636930 0.658966302872 0.037349 -0.220477 0.974677
0.428086459637 -0.230151325464 0.616029679775 0.190903 -0.217603 0.957186
0.362059295177 -0.014343885705 0.665268003941 0.185727 -0.076476 0.979621
0.429561853409 -0.038551695645 0.650612592697 0.183347 -0.078924 0.979875
0.334996074438 0.158312812448 0.678115606308 0.186011 0.001141 0.982547
0.323728740215 0.257662743330 0.680253624916 0.186011 0.001141 0.982547
0.388827651739 0.226624771953 0.667900443077 0.186011 0.001141 0.982547
0.468839466572 0.274358868599 0.648016393185 0.356781 0.001261 0.934187
0.483059704304 0.267486542463 0.642589032650 0.356781 0.001261 0.934187
0.477904111147 0.371655732393 0.643718540668 0.358184 0.024392 0.933332
0.490447551012 0.555579781532 0.634222209454 0.358184 0.024392 0.933332
0.501571416855 0.553377568722 0.630016148090 0.358184 0.024392 0.933332
0.474811792374 0.857882499695 0.632405102253 0.364387 0.024464 0.930926
0.507967352867 0.679590404034 0.624187827110 0.364387 0.024464 0.930926
0.477861106396 0.901997506618 0.630041956902 0.364387 0.024464 0.930926
0.569595634937 0.566103219986 0.551380276680 0.885403 0.011983 0.464670
0.598919093609 0.555111229420 0.495775848627 0.885403 0.011983 0.464670
0.694307386875 0.537535727024 0.320980250835 0.873026 -0.001329 0.487672
0.650660574436 0.581016719341 0.399412274361 0.873026 -0.001329 0.487672
0.758628964424 0.546225607395 0.154144898057 0.999999 0.000978 0.000978
0.758628964424 0.933151245117 0.136455908418 0.999999 0.000978 0.000978
0.758628964424 0.684782981873 0.135267645121 0.999999 0.000978 0.000978
0.758628964424 0.654234528542 0.089090049267 0.999999 0.000978 0.000978
0.758628964424 0.734508812428 0.087660253048 0.999999 0.000978 0.000978
0.758628964424 1.026873230934 0.047489985824 0.999999 0.000978 0.000978
0.758628964424 0.956563413143 0.055467359722 0.999999 0.000978 0.000978
0.758628964424 0.996221959591 0.090809792280 0.999999 0.000978 0.000978
0.758628964424 0.898549675941 0.075628429651 0.999999 0.000978 0.000978
0.758628964424 0.684059739113 0.034451331943 0.999999 0.000978 0.000978
0.758628964424 0.636818885803 0.022224253044 0.999999 0.000978 0.000978
0.758628964424 1.092635869980 -0.112084642053 0.999999 0.000978 0.000978
0.758628964424 1.046544671059 -0.070887841284 0.999999 0.000978 0.000978
0.758628964424 0.906919717789 -0.047424957156 0.999999 0.000978 0.000978
0.758628964424 1.117475390434 -0.032864086330 0.999999 0.000978 0.000978
0.758628964424 0.840757310390 -0.084177926183 0.999999 0.000978 0.000978
0.758628964424 0.826969504356 -0.082099027932 0.999999 0.000978 0.000978
0.758628964424 0.701846420765 -0.100737124681 0.999999 0.000978 0.000978
0.758628964424 0.651498913765 -0.123882830143 0.999999 0.000978 0.000978
0.754256188869 0.661927342415 -0.153458148241 0.979409 0.001154 -0.201881
0.750611722469 0.690627038479 -0.171216562390 0.979409 0.001154 -0.201881
0.737791478634 0.712888419628 -0.233773395419 0.979409 0.001154 -0.201881
0.736181676388 0.586034893990 -0.241773724556 0.979409 0.001154 -0.201881
0.744515836239 0.682381391525 -0.200982704759 0.979409 0.001154 -0.201881
0.729280114174 0.558495640755 -0.275346577168 0.979409 0.001154 -0.201881
0.721219897270 0.710807144642 -0.312256991863 0.967037 0.003586 -0.254609
0.722576677799 0.744377076626 -0.306752413511 0.967037 0.003586 -0.254609
0.684572994709 0.895594000816 -0.463621169329 0.972119 -0.001178 -0.234487
0.699634432793 0.875572681427 -0.400990188122 0.972119 -0.001178 -0.234487
0.711239337921 0.878583431244 -0.352732867002 0.972119 -0.001178 -0.234487
0.690912663937 0.900641083717 -0.437258452177 0.972119 -0.001178 -0.234487
0.708978533745 0.509023010731 -0.362134069204 0.972119 -0.001178 -0.234487
0.702877879143 0.513631284237 -0.387502580881 0.972119 -0.001178 -0.234487
0.696991801262 0.516118168831 -0.411979228258 0.972119 0.001178 -0.234487
0.688072919846 0.424125134945 -0.449067473412 0.972119 0.001178 -0.234487
0.687122881413 0.488193005323 -0.453018009663 0.972119 0.001178 -0.234487
0.681454539299 0.000515043736 -0.476588934660 0.972119 0.001178 -0.234487
0.686273455620 0.040561020374 -0.456550151110 0.972119 0.001178 -0.234487
0.691453397274 -0.209243744612 -0.435010313988 0.972119 0.001178 -0.234487
0.682663261890 -0.195067584515 -0.471562623978 0.972119 0.001178 -0.234487
0.675982177258 -0.070317089558 -0.499344825745 0.972119 0.001178 -0.234487
0.678066253662 0.265720844269 -0.490678489208 0.972119 0.001178 -0.234487
0.679513275623 0.130159378052 -0.484661340714 0.972119 0.001178 -0.234487
0.686246514320 -0.391431868076 -0.456662207842 0.972119 0.001178 -0.234487
0.696436941624 -0.513845801353 -0.419086307287 0.967037 0.003586 -0.254609
0.694385468960 -0.146638065577 -0.423113703728 0.967037 0.003586 -0.254609
0.702133417130 -0.607993781567 -0.398391902447 0.967037 0.003586 -0.254609
0.678681671619 -0.764661490917 -0.489182353020 0.967037 0.003586 -0.254609
0.721868276596 -0.748068690300 -0.324785947800 0.967037 0.003586 -0.254609
0.744542717934 -0.790420711040 -0.202209115028 0.979409 0.001154 -0.201881
0.748550295830 -0.863261520863 -0.182828828692 0.979409 0.001154 -0.201881
0.758628964424 -0.921835482121 -0.129251450300 0.999999 0.000978 0.000978
0.758628964424 -1.037087082863 -0.094500735402 0.999999 0.000978 0.000978
0.749917387962 -1.203804254532 -0.087924562395 0.976826 -0.206986 0.054470
0.729065299034 -1.298672437668 -0.080832898617 0.975367 -0.209269 0.069756
0.733312904835 -1.271808028221 -0.063399158418 0.972110 -0.210016 0.104379
0.707845211029 -1.374093890190 -0.038835074753 0.967688 -0.214613 0.132366
0.714392542839 -1.309762954712 -0.002496054396 0.948361 -0.208776 0.238796
0.750405132771 -1.135998725891 0.012341151014 0.953427 -0.222511 0.203631
0.713991403580 -1.262684941292 0.038211300969 0.880283 -0.205646 0.427566
0.731352925301 -1.096854329109 0.084474287927 0.884709 -0.239392 0.399978
0.705835580826 -1.064603805542 0.132514759898 0.676569 -0.182566 0.713389
0.754758179188 -0.929192662239 0.128207504749 0.649039 -0.391405 0.652342
0.758628964424 -0.926130473614 0.097458072007 0.999999 0.000978 0.000978
0.758628964424 -0.842951416969 0.089338131249 0.999999 0.000978 0.000978
0.758628964424 -0.856728494167 0.011806549504 0.999999 0.000978 0.000978
0.758628964424 -1.009658455849 0.014179035090 0.999999 0.000978 0.000978
0.758628964424 -0.995201885700 -0.038595918566 0.999999 0.000978 0.000978
0.758628964424 -0.924611568451 -0.072547726333 0.999999 0.000978 0.000978
0.613437414169 -0.791278421879 0.305530548096 0.474320 -0.352946 0.806504
0.602203845978 -0.646648585796 0.375684797764 0.474320 -0.352946 0.806504
0.574869155884 -0.515031397343 0.445592641830 0.447523 -0.295768 0.843946
0.561079025269 -0.525548160076 0.449229747057 0.447523 -0.295768 0.843946
0.541389226913 -0.379340052605 0.511380672455 0.428580 -0.307896 0.849423
0.474920243025 -0.149614617229 0.617667496204 0.406187 -0.206759 0.890092
0.606542646885 -0.868818342686 0.276268750429 0.514998 -0.326856 0.792428
0.691596329212 -1.134170532227 0.125720009208 0.480787 -0.284738 0.829318
0.634895622730 -1.089640140533 0.173853233457 0.480787 -0.284738 0.829318
0.627025187016 -1.108330249786 0.172130644321 0.489185 -0.274876 0.827733
0.638191878796 -1.267924189568 0.107128016651 0.564979 -0.356572 0.744080
0.613619923592 -1.339915633202 0.092791639268 0.574959 -0.341736 0.743397
0.624566078186 -1.422705531120 0.045193642378 0.699450 -0.469083 0.539194
0.640891671181 -1.429396986961 0.018227659166 0.700979 -0.464544 0.541136
0.686889410019 -1.456680536270 -0.127443715930 0.802900 -0.566128 0.186686
0.737921059132 1.295128107071 -0.059309981763 0.987489 0.157685 0.001118
0.724081575871 1.381643533707 -0.061312373728 0.987489 0.157685 0.001118
0.712356925011 1.454937696457 -0.026609420776 0.987489 0.157685 -0.001118
0.712780237198 1.444861173630 0.066617690027 0.987397 0.157575 0.014737
0.738705873489 1.290163755417 -0.013604021631 0.987397 0.157575 0.014737
0.744515419006 1.251630425453 0.010508326814 0.987397 0.157575 0.014737
0.752315998077 1.196888446808 0.093940451741 0.987130 0.159433 0.012438
0.754388451576 1.185132384300 0.078935548663 0.987130 0.159433 0.012438
0.758628964424 0.821503698826 0.176995277405 0.999999 0.000978 0.000978
0.502311289310 0.989029347897 0.617642760277 0.368654 0.037777 0.928799
0.523513555527 1.158946156502 0.602197110653 0.374950 0.037887 0.926270
0.564435064793 1.263370990753 0.536347985268 0.874029 0.115492 0.471947
0.615416228771 1.339101076126 0.423148095608 0.874029 0.115492 0.471947
0.441694021225 0.942354202271 0.642542660236 0.190656 0.024563 0.981350
0.415248394012 0.970754683018 0.646987736225 0.190656 0.024563 0.981350
0.422595709562 0.868134737015 0.648168385029 0.190656 0.024563 0.981350
0.348953098059 0.949416697025 0.660490334034 0.190656 0.024563 0.981350
0.330134809017 0.897462368011 0.665458858013 0.187968 0.024518 0.981869
0.346330285072 0.443307340145 0.673682987690 0.187968 0.024518 0.981869
0.326849699020 0.906085550785 0.665876209736 0.187968 0.024518 0.981869
0.387178450823 0.561574995518 0.662861049175 0.187968 0.024518 0.981869
0.382152527571 0.606865465641 0.662697911263 0.187968 0.024518 0.981869
0.454721421003 1.169410824776 0.629403650761 0.368654 0.037777 0.928799
0.696354329586 -0.762022852898 0.256079703569 0.599254 -0.274989 0.751849
0.632187962532 -0.727973520756 0.321617752314 0.544017 -0.328978 0.771894
0.461758941412 0.002578243613 0.644179165363 0.370156 -0.073497 0.926058
0.446335792542 0.476131588221 0.653150200844 0.358184 0.024392 0.933332
-0.613657355309 0.243256717920 -0.501329600811 0.000978 -0.000978 -0.999999
-0.617087602615 0.365959882736 -0.501560688019 0.000978 -0.000978 -0.999999
-0.583228588104 0.058907568455 -0.500967919827 0.000978 -0.000978 -0.999999
-0.627925217152 0.726203322411 -0.502239644527 0.000978 -0.000978 -0.999999
-0.580407202244 0.574976205826 -0.501930058002 0.000978 -0.000978 -0.999999
-0.603822648525 0.568547546864 -0.501931428909 0.000978 -0.000978 -0.999999
-0.575830936432 0.517565310001 -0.501820206642 0.000978 -0.000978 -0.999999
-0.650564849377 0.825363278389 -0.502437770367 0.000978 -0.000978 -0.999999
-0.627350747585 0.770628809929 -0.502322256565 0.000978 -0.000978 -0.999999
-0.660136103630 -0.089174985886 -0.502293527126 0.022971 0.000999 -0.999736
-0.661305725574 -0.323426425457 -0.502320647240 0.022971 0.000999 -0.999736
-0.653900265694 0.613013207912 -0.502148568630 0.022971 0.000999 -0.999736
-0.642943978310 0.500950753689 -0.501893877983 0.022971 0.000999 -0.999736
-0.654989004135 -0.480766803026 -0.502173841000 0.022971 0.000999 -0.999736
-0.613853335381 -0.438669264317 -0.501217603683 0.022971 0.000999 -0.999736
-0.591025650501 -0.521780610085 -0.500687003136 0.022971 0.000999 -0.999736
-0.672514677048 0.067699074745 -0.502581238747 0.022971 0.000999 -0.999736
-0.585493564606 -0.639378786087 -0.500558435917 0.022971 0.000999 -0.999736
-0.598189115524 -0.187440276146 -0.500853538513 0.022971 0.000999 -0.999736
-0.559436798096 -0.605039358139 -0.499952733517 0.022971 0.000999 -0.999736
-0.585280537605 -0.672767758369 -0.500553429127 0.022971 0.000999 -0.999736
-0.709925711155 -0.798125386238 -0.346045643091 -0.009739 -0.994429 -0.104961
-0.545610427856 -0.800674796104 -0.320512443781 0.001065 -0.995500 -0.094759
-0.534203112125 -0.798269271851 -0.450960814953 -0.999999 0.000978 0.000978
-0.534203112125 -0.861680924892 -0.340453386307 -0.999999 0.000978 0.000978
-0.534203112125 -1.057267904282 -0.120334357023 -0.999999 0.000978 0.000978
-0.534203112125 -0.929518342018 -0.349176347256 -0.999999 0.000978 0.000978
-0.534203112125 -0.821870565414 -0.457868605852 -0.999999 0.000978 0.000978
-0.534203112125 -1.210229516029 -0.194303259254 -0.999999 0.000978 0.000978
-0.534203112125 -0.853016972542 -0.445194602013 -0.999999 0.000978 0.000978
-0.534203112125 -0.968954741955 -0.357471853495 -0.999999 0.000978 0.000978
-0.534203112125 -1.124248981476 -0.284893691540 -0.999999 0.000978 0.000978
-0.534203112125 -1.268753767014 -0.194255083799 -0.999999 0.000978 0.000978
-0.534203112125 -1.333565354347 -0.233652472496 -0.999999 0.000978 0.000978
-0.534203112125 -1.183486938477 -0.355629861355 -0.999999 0.000978 0.000978
-0.534203112125 -1.373331546783 -0.245460703969 -0.999999 0.000978 0.000978
-0.534203112125 -0.862766325474 -0.475043714046 -0.999999 0.000978 0.000978
-0.534203112125 -0.971467435360 -0.460052669048 -0.999999 0.000978 0.000978
-0.534203112125 -1.033621191978 -0.416673362255 -0.999999 0.000978 0.000978
-0.534203112125 -1.336488604546 -0.428840428591 -0.999999 0.000978 0.000978
-0.534203112125 -1.300307273865 -0.416201710701 -0.999999 0.000978 0.000978
-0.534203112125 -1.116357922554 -0.480153173208 -0.999999 0.000978 0.000978
0.083693221211 -0.910973072052 -0.495099276304 0.001009 -0.033281 -0.999445
-0.272468805313 -0.874224007130 -0.496332287788 0.001009 -0.033281 -0.999445
-0.053828112781 -1.088503241539 -0.489142745733 0.001009 -0.033281 -0.999445
-0.489605695009 -1.015990376472 -0.491575717926 0.001009 -0.033281 -0.999445
-0.066350370646 -1.089410901070 -0.489112287760 0.001009 -0.033281 -0.999445
-0.374928474426 -0.888662159443 -0.495847851038 0.001009 -0.033281 -0.999445
-0.430844724178 -1.273709535599 -0.482928693295 0.001009 -0.033281 -0.999445
-0.246692940593 -1.169176101685 -0.486436009407 0.001009 -0.033281 -0.999445
-0.287275135517 -1.011061429977 -0.491741091013 0.001009 -0.033281 -0.999445
-0.324098974466 -0.986990928650 -0.492548704147 0.001009 -0.033281 -0.999445
-0.194875538349 -0.958932399750 -0.493490129709 0.001009 -0.033281 -0.999445
-0.250011324883 -0.913327693939 -0.495020270348 0.001009 -0.033281 -0.999445
-0.107072383165 -0.908491849899 -0.495182514191 0.001009 -0.033281 -0.999445
-0.212023019791 -0.905966043472 -0.495267271996 0.001009 -0.033281 -0.999445
-0.351082503796 -0.899314582348 -0.495490431786 0.001009 -0.033281 -0.999445
-0.284312993288 -0.978465437889 -0.492834746838 0.001009 -0.033281 -0.999445
0.275399088860 -0.885798037052 -0.495943933725 0.001009 -0.033281 -0.999445
0.127792328596 -0.850345492363 -0.497133463621 0.001009 -0.033281 -0.999445
-0.249863922596 -0.969944357872 -0.493120670319 0.001009 -0.033281 -0.999445
-0.142355918884 -0.813180506229 -0.498380422592 0.001009 -0.033281 -0.999445
-0.102921873331 -0.904261469841 -0.495324462652 0.001009 -0.033281 -0.999445
-0.412839531898 -1.257028698921 -0.483488380909 0.001009 -0.033281 -0.999445
-0.478700876236 -1.146992206573 -0.487180322409 0.001009 -0.033281 -0.999445
-0.520158588886 -0.934665501118 -0.494304329157 0.001009 -0.033281 -0.999445
-0.372025221586 -1.237499833107 -0.484143614769 0.001009 -0.033281 -0.999445
-0.316042989492 -0.872555375099 -0.496388256550 0.001009 -0.033281 -0.999445
0.044629886746 -1.023198127747 -0.491333872080 0.001009 -0.033281 -0.999445
0.190330713987 -0.898168325424 -0.495528906584 0.001009 -0.033281 -0.999445
-0.370687782764 -1.051927804947 -0.490369945765 0.001009 -0.033281 -0.999445
-0.446239531040 -1.132659435272 -0.487661212683 0.001009 -0.033281 -0.999445
-0.096233248711 -0.797408461571 -0.498909592628 0.001009 -0.033281 -0.999445
-0.291568428278 -0.934367656708 -0.494314342737 0.001009 -0.033281 -0.999445
0.204525008798 -0.985924899578 -0.492584466934 0.001009 -0.033281 -0.999445
-0.057577043772 -0.936343312263 -0.494248032570 0.001009 -0.033281 -0.999445
-0.338746100664 -0.845808088779 -0.497285693884 0.001009 -0.033281 -0.999445
-0.078769385815 -1.362464785576 -0.479950755835 0.001009 -0.033281 -0.999445
0.205736353993 -1.101677417755 -0.488700747490 0.001009 -0.033281 -0.999445
0.133062690496 -1.231595158577 -0.484341710806 0.001009 -0.033281 -0.999445
-0.418564558029 -1.410805821419 -0.478328824043 0.001009 -0.033281 -0.999445
0.175910025835 -1.053024649620 -0.490333139896 0.001009 -0.033281 -0.999445
-0.258936762810 -1.338479399681 -0.480755507946 0.001009 -0.033281 -0.999445
-0.034490704536 -1.426925182343 -0.477787971497 0.001009 -0.033281 -0.999445
0.063928514719 -1.330142378807 -0.481035262346 0.001009 -0.033281 -0.999445
-0.152955114841 -1.409358024597 -0.478377401829 0.001009 -0.033281 -0.999445
0.126724928617 -1.220029473305 -0.484729766846 0.001009 -0.033281 -0.999445
-0.218605592847 -1.311868667603 -0.481648385525 0.001009 -0.033281 -0.999445
0.081383243203 -1.094620347023 -0.488937526941 0.001009 -0.033281 -0.999445
-0.090002566576 -1.252260923386 -0.483648329973 0.001009 -0.033281 -0.999445
-0.111577793956 -1.270011663437 -0.483052760363 0.001009 -0.033281 -0.999445
0.457561999559 -0.846239209175 -0.497271239758 0.001009 -0.033281 -0.999445
-0.295984148979 -1.347991466522 -0.480436384678 0.001009 -0.033281 -0.999445
-0.208997130394 -1.419771432877 -0.478027999401 0.001009 -0.033281 -0.999445
-0.027783602476 -1.350917339325 -0.480338215828 0.001009 -0.033281 -0.999445
0.505171477795 -1.319582819939 -0.481389552355 0.001009 -0.033281 -0.999445
0.298544049263 -1.098765134811 -0.488798439503 0.001009 -0.033281 -0.999445
0.357861667871 -1.195801973343 -0.485542654991 0.001009 -0.033281 -0.999445
0.342344105244 -1.034474730492 -0.490955531597 0.001009 -0.033281 -0.999445
0.450438022614 -1.085458517075 -0.489244908094 0.001009 -0.033281 -0.999445
0.350069850683 -1.382979631424 -0.479262441397 0.001009 -0.033281 -0.999445
0.530200123787 -0.980106711388 -0.492779701948 0.001009 -0.033281 -0.999445
0.066290691495 -1.424117207527 -0.477882206440 0.001009 -0.033281 -0.999445
0.346147507429 -1.377409696579 -0.479449331760 0.001009 -0.033281 -0.999445
0.333139538765 -1.243705868721 -0.483935385942 0.001009 -0.033281 -0.999445
0.450818002224 -0.927311837673 -0.494551062584 0.001009 -0.033281 -0.999445
0.388394415379 -1.245895981789 -0.483861893415 0.001009 -0.033281 -0.999445
0.441851139069 -0.949902892113 -0.493793100119 0.001009 -0.033281 -0.999445
0.270979464054 -1.127123951912 -0.487846940756 0.001009 -0.033281 -0.999445
0.408424228430 -1.151150226593 -0.487040817738 0.001009 -0.033281 -0.999445
0.399442374706 -1.057244181633 -0.490191578865 0.001009 -0.033281 -0.999445
0.415604472160 -1.307809829712 -0.481784552336 0.001009 -0.033281 -0.999445
0.193807616830 -1.428806304932 -0.477724850178 0.001009 -0.033281 -0.999445
0.534690618515 -1.174294829369 -0.472181469202 0.999999 0.000978 0.000978
0.534690618515 -0.860783576965 -0.491801470518 0.999999 0.000978 0.000978
0.534690618515 -1.025533556938 -0.464881181717 0.999999 0.000978 0.000978
0.534690618515 -1.343641638756 -0.363368332386 0.999999 0.000978 0.000978
0.534690618515 -1.424022793770 -0.350400030613 0.999999 0.000978 0.000978
0.534690618515 -1.178183794022 -0.399119466543 0.999999 0.000978 0.000978
0.534690618515 -1.307472229004 -0.250372529030 0.999999 0.000978 0.000978
0.534690618515 -0.981928825378 -0.418475866318 0.999999 0.000978 0.000978
0.534690618515 -1.155626773834 -0.322469949722 0.999999 0.000978 0.000978
0.534690618515 -1.018724799156 -0.350970208645 0.999999 0.000978 0.000978
0.534690618515 -1.236845135689 -0.218076854944 0.999999 0.000978 0.000978
0.534690618515 -1.281769990921 -0.172286391258 0.999999 0.000978 0.000978
0.534690618515 -1.003777980804 -0.306149750948 0.999999 0.000978 0.000978
0.534690618515 -1.261219501495 -0.144787788391 0.999999 0.000978 0.000978
0.534690618515 -1.242997050285 -0.169156655669 0.999999 0.000978 0.000978
0.534690618515 -1.067143082619 -0.194369718432 0.999999 0.000978 0.000978
0.534690618515 -1.003238439560 -0.249899089336 0.999999 0.000978 0.000978
0.534690618515 -1.022802591324 -0.116335354745 0.999999 0.000978 0.000978
0.534690618515 -1.014126896858 -0.200387626886 0.999999 0.000978 0.000978
0.534690618515 -0.874059796333 -0.285286545753 0.999999 0.000978 0.000978
0.667855560780 -0.797448158264 -0.354920506477 0.001065 -0.995500 -0.094759
0.613391637802 -0.789612710476 -0.436459630728 0.009739 -0.994429 -0.104961
0.636670589447 -0.783419907093 -0.493601977825 0.009739 -0.994429 -0.104961
0.562318921089 -0.732893407345 -0.500010609627 -0.022971 0.000999 -0.999736
0.584334313869 -0.189201235771 -0.500524163246 -0.022971 0.000999 -0.999736
0.652436971664 0.129673182964 -0.502112686634 -0.022971 0.000999 -0.999736
0.672797501087 -0.727575004101 -0.502587616444 -0.022971 0.000999 -0.999736
0.658324062824 -0.021324038506 -0.502250015736 -0.022971 0.000999 -0.999736
0.619602799416 0.061582088470 -0.501346826553 -0.022971 0.000999 -0.999736
0.642144858837 -0.698276340961 -0.501872599125 -0.022971 0.000999 -0.999736
0.612284719944 -0.297671139240 -0.501176118851 -0.022971 0.000999 -0.999736
0.616388261318 -0.141178488731 -0.501271843910 -0.022971 0.000999 -0.999736
0.654597461224 -0.302126914263 -0.502163112164 -0.022971 0.000999 -0.999736
0.623722136021 -0.245749413967 -0.501442909241 -0.022971 0.000999 -0.999736
0.586837172508 -0.703907847404 -0.500582516193 -0.022971 0.000999 -0.999736
0.595714211464 0.851039469242 -0.502454102039 0.000978 -0.000978 -0.999999
0.559928119183 0.021849248558 -0.500885069370 0.000978 -0.000978 -0.999999
0.606316983700 0.322385221720 -0.501473009586 0.000978 -0.000978 -0.999999
0.608872592449 0.150426760316 -0.501153409481 0.000978 -0.000978 -0.999999
0.632742464542 0.627451002598 -0.502057909966 0.000978 -0.000978 -0.999999
0.583979368210 0.316658914089 -0.501449465752 0.000978 -0.000978 -0.999999
0.557092368603 0.163721561432 -0.501148462296 0.000978 -0.000978 -0.999999
0.592996239662 -0.015513570048 -0.500834405422 0.000978 -0.000978 -0.999999
0.442203730345 0.071094632149 -0.500974118710 0.000978 -0.000978 -0.999999
0.529635250568 0.590334057808 -0.501950740814 0.000978 -0.000978 -0.999999
0.394876867533 0.256214380264 -0.501322269440 0.000978 -0.000978 -0.999999
0.313596844673 -0.716818213463 -0.499492138624 0.000978 -0.000978 -0.999999
0.015178680420 -0.368952393532 -0.500146448612 0.000978 -0.000978 -0.999999
-0.073078073561 -0.191730737686 -0.500479757786 0.000978 -0.000978 -0.999999
0.043896153569 -0.164454877377 -0.500531077385 0.000978 -0.000978 -0.999999
-0.164649054408 -0.598369240761 -0.499714940786 0.000978 -0.000978 -0.999999
0.448309600353 -0.135476171970 -0.500585556030 0.000978 -0.000978 -0.999999
-0.046388298273 -0.742052435875 -0.499444693327 0.000978 -0.000978 -0.999999
0.425630509853 0.620197772980 -0.502006888390 0.000978 -0.000978 -0.999999
0.407827436924 -0.681389868259 -0.499558776617 0.000978 -0.000978 -0.999999
-0.037529766560 -0.614812850952 -0.499684005976 0.000978 -0.000978 -0.999999
-0.320286273956 -0.633122801781 -0.499649554491 0.000978 -0.000978 -0.999999
-0.052916347980 -0.379275500774 -0.500127017498 0.000978 -0.000978 -0.999999
0.382848799229 -0.719306230545 -0.499487459660 0.000978 -0.000978 -0.999999
0.229117080569 0.193504989147 -0.501204371452 0.000978 -0.000978 -0.999999
0.139277338982 -0.513215541840 -0.499875098467 0.000978 -0.000978 -0.999999
0.463697344065 -0.525857686996 -0.499851316214 0.000978 -0.000978 -0.999999
0.463336944580 0.403606057167 -0.501599490643 0.000978 -0.000978 -0.999999
0.175706833601 -0.723870337009 -0.499478876591 0.000978 -0.000978 -0.999999
0.295083522797 -0.709637105465 -0.499505668879 0.000978 -0.000978 -0.999999
-0.302904814482 -0.433869093657 -0.500024318695 0.000978 -0.000978 -0.999999
0.487592488527 0.052852690220 -0.500939786434 0.000978 -0.000978 -0.999999
0.343452930450 -0.023858070374 -0.500795483589 0.000978 -0.000978 -0.999999
0.454997718334 -0.744745433331 -0.499439626932 0.000978 -0.000978 -0.999999
0.235368683934 0.378333210945 -0.501551985741 0.000978 -0.000978 -0.999999
0.350915819407 0.130743861198 -0.501086294651 0.000978 -0.000978 -0.999999
0.397437483072 -0.719006001949 -0.499488025904 0.000978 -0.000978 -0.999999
0.545813322067 0.179305315018 -0.501177608967 0.000978 -0.000978 -0.999999
-0.178738296032 -0.616691827774 -0.499680459499 0.000978 -0.000978 -0.999999
0.029498726130 -0.478329986334 -0.499940723181 0.000978 -0.000978 -0.999999
0.036144316196 -0.462722927332 -0.499970078468 0.000978 -0.000978 -0.999999
0.299516469240 -0.373241007328 -0.500138342381 0.000978 -0.000978 -0.999999
-0.152292251587 -0.653714418411 -0.499610841274 0.000978 -0.000978 -0.999999
0.167180895805 -0.734951734543 -0.499458044767 0.000978 -0.000978 -0.999999
-0.013585090637 -0.437834024429 -0.500016868114 0.000978 -0.000978 -0.999999
0.392833858728 0.261482596397 -0.501332223415 0.000978 -0.000978 -0.999999
0.123463749886 -0.629656136036 -0.499656081200 0.000978 -0.000978 -0.999999
0.557321906090 0.740250587463 -0.502232670784 0.000978 -0.000978 -0.999999
-0.150171190500 -0.745504736900 -0.499438196421 0.000978 -0.000978 -0.999999
-0.118723452091 -0.481243848801 -0.499935239553 0.000978 -0.000978 -0.999999
0.529941260815 0.426413059235 -0.501642405987 0.000978 -0.000978 -0.999999
0.499769687653 -0.477782607079 -0.499941736460 0.000978 -0.000978 -0.999999
0.535924673080 -0.533200442791 -0.499837517738 0.000978 -0.000978 -0.999999
-0.126198112965 -0.717506229877 -0.499490857124 0.000978 -0.000978 -0.999999
-0.031385689974 -0.506599783897 -0.499887555838 0.000978 -0.000978 -0.999999
0.146510809660 -0.112769067287 -0.500628292561 0.000978 -0.000978 -0.999999
0.372085899115 -0.439119368792 -0.500014483929 0.000978 -0.000978 -0.999999
0.193250179291 -0.501569032669 -0.499897003174 0.000978 -0.000978 -0.999999
-0.276026755571 -0.489677429199 -0.499919384718 0.000978 -0.000978 -0.999999
0.145103484392 -0.006921172142 -0.500827372074 0.000978 -0.000978 -0.999999
-0.287916362286 -0.747550845146 -0.499434351921 0.000978 -0.000978 -0.999999
0.242706745863 -0.670718312263 -0.499578863382 0.000978 -0.000978 -0.999999
-0.218268066645 -0.470098942518 -0.499956190586 0.000978 -0.000978 -0.999999
0.267822474241 -0.624310791492 -0.499666154385 0.000978 -0.000978 -0.999999
0.135030359030 -0.343643367290 -0.500194013119 0.000978 -0.000978 -0.999999
0.396921902895 -0.004860401154 -0.500831246376 0.000978 -0.000978 -0.999999
0.518130958080 0.455962300301 -0.501698017120 0.000978 -0.000978 -0.999999
0.307181686163 0.037558734417 -0.500911056995 0.000978 -0.000978 -0.999999
-0.070557802916 -0.724662661552 -0.499477386475 0.000978 -0.000978 -0.999999
0.000454157591 -0.730245947838 -0.499466896057 0.000978 -0.000978 -0.999999
-0.081383541226 -0.463764637709 -0.499968111515 0.000978 -0.000978 -0.999999
0.049588590860 -0.621420979500 -0.499671578407 0.000978 -0.000978 -0.999999
0.513993859291 -0.576927483082 -0.499755263329 0.000978 -0.000978 -0.999999
0.189968347549 -0.673586547375 -0.499573469162 0.000978 -0.000978 -0.999999
0.335686415434 -0.527524232864 -0.499848186970 0.000978 -0.000978 -0.999999
0.237164705992 0.269886136055 -0.501348018646 0.000978 -0.000978 -0.999999
0.241406917572 -0.567846298218 -0.499772340059 0.000978 -0.000978 -0.999999
0.158611789346 0.265804767609 -0.501340329647 0.000978 -0.000978 -0.999999
0.029272139072 -0.576488375664 -0.499756097794 0.000978 -0.000978 -0.999999
0.429962337017 0.241471767426 -0.501294553280 0.000978 -0.000978 -0.999999
0.135461837053 -0.222982048988 -0.500420987606 0.000978 -0.000978 -0.999999
0.360639542341 -0.289008826017 -0.500296771526 0.000978 -0.000978 -0.999999
0.562179386616 0.479417443275 -0.501742124557 0.000978 -0.000978 -0.999999
-0.009757727385 -0.536312222481 -0.499831646681 0.000978 -0.000978 -0.999999
-0.389641165733 -0.677057981491 -0.499566942453 0.000978 -0.000978 -0.999999
0.536186218262 0.658610582352 -0.502079129219 0.000978 -0.000978 -0.999999
0.483760476112 -0.573983013630 -0.499760806561 0.000978 -0.000978 -0.999999
0.392849385738 -0.590099811554 -0.499730497599 0.000978 -0.000978 -0.999999
0.199352979660 -0.193492829800 -0.500476479530 0.000978 -0.000978 -0.999999
-0.176406338811 -0.398843973875 -0.500090241432 0.000978 -0.000978 -0.999999
0.460288643837 -0.521402597427 -0.499859690666 0.000978 -0.000978 -0.999999
0.424218118191 -0.571303606033 -0.499765843153 0.000978 -0.000978 -0.999999
0.334909200668 -0.556885480881 -0.499792963266 0.000978 -0.000978 -0.999999
0.069504916668 -0.547424197197 -0.499810755253 0.000978 -0.000978 -0.999999
0.200611472130 -0.564782619476 -0.499778121710 0.000978 -0.000978 -0.999999
0.234759882092 0.324418663979 -0.501450598240 0.000978 -0.000978 -0.999999
0.131916403770 0.150505721569 -0.501123487949 0.000978 -0.000978 -0.999999
0.105780899525 -0.446385413408 -0.500000774860 0.000978 -0.000978 -0.999999
0.447407811880 -0.044391453266 -0.500756919384 0.000978 -0.000978 -0.999999
0.301613122225 -0.331642210484 -0.500216603279 0.000978 -0.000978 -0.999999
-0.348843038082 0.496776044369 -0.501774728298 0.000978 -0.000978 -0.999999
0.022674977779 0.894221425056 -0.502522289753 0.000978 -0.000978 -0.999999
-0.297468513250 0.436812758446 -0.501661956310 0.000978 -0.000978 -0.999999
-0.367190212011 -0.102547883987 -0.500647485256 0.000978 -0.000978 -0.999999
-0.214036777616 -0.232576251030 -0.500402927399 0.000978 -0.000978 -0.999999
0.170206606388 0.343401253223 -0.501486301422 0.000978 -0.000978 -0.999999
0.184029832482 0.649527132511 -0.502062082291 0.000978 -0.000978 -0.999999
0.000937342644 0.551016807556 -0.501876771450 0.000978 -0.000978 -0.999999
-0.471042931080 0.207267045975 -0.501230239868 0.000978 -0.000978 -0.999999
-0.259607911110 -0.262268066406 -0.500347077847 0.000978 -0.000978 -0.999999
-0.448149263859 -0.647660374641 -0.499622225761 0.000978 -0.000978 -0.999999
-0.062300726771 0.311316132545 -0.501425921917 0.000978 -0.000978 -0.999999
0.320239037275 0.789607584476 -0.502325534821 0.000978 -0.000978 -0.999999
-0.393361091614 -0.459692716599 -0.499975770712 0.000978 -0.000978 -0.999999
-0.315770268440 0.040470182896 -0.500916481018 0.000978 -0.000978 -0.999999
0.390608161688 0.738071441650 -0.502228617668 0.000978 -0.000978 -0.999999
0.280843138695 0.761023581028 -0.502271771431 0.000978 -0.000978 -0.999999
-0.010785549879 0.459403753281 -0.501704454422 0.000978 -0.000978 -0.999999
-0.094126462936 0.308828651905 -0.501421272755 0.000978 -0.000978 -0.999999
0.253822982311 0.770391583443 -0.502289414406 0.000978 -0.000978 -0.999999
-0.416285455227 0.116314291954 -0.501059174538 0.000978 -0.000978 -0.999999
-0.015031158924 0.227450370789 -0.501268208027 0.000978 -0.000978 -0.999999
-0.219229161739 0.582851111889 -0.501936674118 0.000978 -0.000978 -0.999999
-0.543276071548 -0.109155893326 -0.500635087490 0.000978 -0.000978 -0.999999
-0.230630218983 0.927567601204 -0.502584993839 0.000978 -0.000978 -0.999999
-0.355443894863 0.063538312912 -0.500959873199 0.000978 -0.000978 -0.999999
0.446267515421 0.841107070446 -0.502422392368 0.000978 -0.000978 -0.999999
0.018012948334 0.173410415649 -0.501166522503 0.000978 -0.000978 -0.999999
-0.259190529585 0.259740471840 -0.501328945160 0.000978 -0.000978 -0.999999
-0.515022158623 -0.712199926376 -0.499500840902 0.000978 -0.000978 -0.999999
-0.021404653788 0.618222057819 -0.502003192902 0.000978 -0.000978 -0.999999
0.452384918928 0.819892108440 -0.502382516861 0.000978 -0.000978 -0.999999
0.408020734787 0.896986782551 -0.502527475357 0.000978 -0.000978 -0.999999
-0.193956881762 0.379382491112 -0.501553952694 0.000978 -0.000978 -0.999999
0.047912716866 0.560748934746 -0.501895070076 0.000978 -0.000978 -0.999999
-0.325487852097 0.492835700512 -0.501767337322 0.000978 -0.000978 -0.999999
-0.164329022169 0.771222829819 -0.502290964127 0.000978 -0.000978 -0.999999
0.426891207695 0.703575432301 -0.502163708210 0.000978 -0.000978 -0.999999
-0.121485576034 0.095420598984 -0.501019835472 0.000978 -0.000978 -0.999999
-0.010944604874 0.148119568825 -0.501118957996 0.000978 -0.000978 -0.999999
-0.391941785812 -0.265645265579 -0.500340759754 0.000978 -0.000978 -0.999999
-0.379529714584 -0.173579216003 -0.500513911247 0.000978 -0.000978 -0.999999
-0.134648650885 -0.152172088623 -0.500554144382 0.000978 -0.000978 -0.999999
-0.114728569984 0.825631022453 -0.502393305302 0.000978 -0.000978 -0.999999
0.131120517850 0.497126162052 -0.501775383949 0.000978 -0.000978 -0.999999
-0.483854174614 0.053546547890 -0.500941097736 0.000978 -0.000978 -0.999999
-0.365981221199 0.085779428482 -0.501001715660 0.000978 -0.000978 -0.999999
0.083904117346 0.613671720028 -0.501994609833 0.000978 -0.000978 -0.999999
-0.160550713539 -0.155629396439 -0.500547647476 0.000978 -0.000978 -0.999999
-0.087040841579 0.333599746227 -0.501467823982 0.000978 -0.000978 -0.999999
-0.540234982967 -0.061504006386 -0.500724732876 0.000978 -0.000978 -0.999999
-0.049354016781 0.317625999451 -0.501437783241 0.000978 -0.000978 -0.999999
-0.020925607532 0.011221110821 -0.500861465931 0.000978 -0.000978 -0.999999
-0.434991538525 -0.247754812241 -0.500374376774 0.000978 -0.000978 -0.999999
-0.172773778439 0.894412219524 -0.502522647381 0.000978 -0.000978 -0.999999
-0.502536892891 -0.383866190910 -0.500118374825 0.000978 -0.000978 -0.999999
-0.100397050381 -0.096103906631 -0.500659644604 0.000978 -0.000978 -0.999999
-0.019888900220 0.157065749168 -0.501135826111 0.000978 -0.000978 -0.999999
-0.104331478477 0.096956253052 -0.501022756100 0.000978 -0.000978 -0.999999
-0.442620247602 0.353561103344 -0.501505374908 0.000978 -0.000978 -0.999999
-0.015761405230 0.750133633614 -0.502251267433 0.000978 -0.000978 -0.999999
-0.406867235899 -0.472748041153 -0.499951213598 0.000978 -0.000978 -0.999999
0.375420391560 0.911789417267 -0.502555310726 0.000978 -0.000978 -0.999999
-0.286849796772 -0.070712745190 -0.500707387924 0.000978 -0.000978 -0.999999
-0.336480140686 0.257728993893 -0.501325130463 0.000978 -0.000978 -0.999999
0.028957381845 0.425012588501 -0.501639783382 0.000978 -0.000978 -0.999999
-0.099854081869 0.361739575863 -0.501520752907 0.000978 -0.000978 -0.999999
-0.538983464241 0.836671233177 -0.502414047718 0.000978 -0.000978 -0.999999
-0.456472098827 -0.332582354546 -0.500214815140 0.000978 -0.000978 -0.999999
-0.203066974878 0.763880729675 -0.502277135849 0.000978 -0.000978 -0.999999
0.355382055044 0.714866459370 -0.502184927464 0.000978 -0.000978 -0.999999
0.296188861132 0.624532341957 -0.502015054226 0.000978 -0.000978 -0.999999
-0.356659591198 0.618755698204 -0.502004206181 0.000978 -0.000978 -0.999999
-0.309377133846 -0.383982300758 -0.500118196011 0.000978 -0.000978 -0.999999
-0.463849097490 -0.164940237999 -0.500530183315 0.000978 -0.000978 -0.999999
-0.517502307892 0.208619594574 -0.501232743263 0.000978 -0.000978 -0.999999
-0.151469349861 0.528790235519 -0.501834988594 0.000978 -0.000978 -0.999999
-0.276808917522 0.807222843170 -0.502358675003 0.000978 -0.000978 -0.999999
0.136997118592 0.476269572973 -0.501736164093 0.000978 -0.000978 -0.999999
-0.208456844091 0.327450513840 -0.501456260681 0.000978 -0.000978 -0.999999
-0.160909652710 0.535941421986 -0.501848399639 0.000978 -0.000978 -0.999999
-0.562994658947 0.601171910763 -0.501971125603 0.000978 -0.000978 -0.999999
-0.538333773613 0.580351769924 -0.501931965351 0.000978 -0.000978 -0.999999
-0.502080619335 -0.291152596474 -0.500292778015 0.000978 -0.000978 -0.999999
0.517066776752 0.881976366043 -0.502499282360 0.000978 -0.000978 -0.999999
0.287105619907 0.914503157139 -0.502560436726 0.000978 -0.000978 -0.999999
0.194239109755 0.666429519653 -0.502093851566 0.000978 -0.000978 -0.999999
-0.241684734821 0.550980806351 -0.501876711845 0.000978 -0.000978 -0.999999
-0.382688283920 0.106921255589 -0.501041471958 0.000978 -0.000978 -0.999999
-0.395315438509 0.166801154613 -0.501154124737 0.000978 -0.000978 -0.999999
0.005608156323 0.337371885777 -0.501474916935 0.000978 -0.000978 -0.999999
0.135554373264 0.764655351639 -0.502278625965 0.000978 -0.000978 -0.999999
-0.448296636343 -0.505802631378 -0.499889045954 0.000978 -0.000978 -0.999999
0.365440726280 0.911521911621 -0.502554833889 0.000978 -0.000978 -0.999999
-0.116967737675 0.787571668625 -0.502321720123 0.000978 -0.000978 -0.999999
-0.478393375874 0.428749829531 -0.501646816730 0.000978 -0.000978 -0.999999
0.049071907997 0.883258700371 -0.502501666546 0.000978 -0.000978 -0.999999
-0.347184091806 -0.010776698589 -0.500820100307 0.000978 -0.000978 -0.999999
-0.207423388958 0.919680237770 -0.502570152283 0.000978 -0.000978 -0.999999
0.105659544468 0.936455130577 -0.505761206150 0.001257 -0.350710 -0.936483
0.409462511539 0.928858876228 -0.502929210663 0.001257 -0.350710 -0.936483
-0.197484791279 0.946080386639 -0.509349703789 0.001257 -0.350710 -0.936483
0.547781467438 0.949676513672 -0.510690450668 0.001257 -0.350710 -0.936483
0.004901710898 0.962201714516 -0.515360116959 0.001257 -0.350710 -0.936483
-0.408360034227 0.965365707874 -0.516539692879 0.001257 -0.350710 -0.936483
-0.134235858917 0.986985802650 -0.524600148201 0.001257 -0.350710 -0.936483
-0.459420293570 0.971893072128 -0.518973231316 0.001257 -0.350710 -0.936483
-0.420892417431 0.997610509396 -0.528561234474 0.001257 -0.350710 -0.936483
-0.574415147305 0.992705523968 -0.517996966839 0.999999 0.000978 0.000978
-0.574415147305 0.990460455418 -0.380213409662 -0.999999 0.000978 0.000978
-0.574415147305 1.038637399673 -0.342915356159 -0.999999 0.000978 0.000978
-0.574415147305 1.369637727737 -0.364364802837 -0.999999 0.000978 0.000978
-0.574415147305 1.098899483681 -0.430988252163 -0.999999 0.000978 0.000978
-0.574415147305 1.543550252914 -0.375214993954 -0.999999 0.000978 0.000978
-0.574415147305 1.267686486244 -0.423944115639 -0.999999 0.000978 0.000978
-0.574415147305 1.024693131447 -0.357141584158 -0.999999 0.000978 0.000978
-0.574415147305 1.111917138100 -0.384618371725 -0.999999 0.000978 0.000978
-0.574415147305 1.011694312096 -0.290688395500 -0.999999 0.000978 0.000978
-0.574415147305 1.063126683235 -0.280350178480 -0.999999 0.000978 0.000978
-0.574415147305 1.081348299980 -0.175755351782 -0.999999 0.000978 0.000978
-0.574415147305 1.023864746094 -0.222155645490 -0.999999 0.000978 0.000978
-0.574415147305 1.142847537994 -0.257075309753 -0.999999 0.000978 0.000978
-0.600476801395 1.023120522499 -0.200429543853 0.001380 0.683251 -0.730182
-0.608487308025 1.066282629967 -0.160197779536 0.001380 0.683251 -0.730182
-0.648163199425 1.098784565926 -0.143008410931 0.001314 0.456129 -0.889912
-0.714763462543 1.105263948441 -0.139698058367 0.001314 0.456129 -0.889912
