0.446197926998 1.917645931244 0.728896737099 0.056179 0.883788 0.464503
0.593533396721 1.991541862488 0.570555686951 0.070753 0.878175 0.473077
0.491102695465 1.914476275444 0.728976249695 0.070753 0.878175 0.473077
0.607701182365 1.941328883171 0.661272346973 0.076746 0.877695 0.473034
0.603955626488 1.904921054840 0.731661200523 0.044915 0.886054 0.461401
0.609612345695 2.036444664001 0.471362709999 0.054849 0.913700 0.402670
0.600022256374 2.094509363174 0.338647484779 0.038156 0.919696 0.390772
0.549602806568 2.099812269211 0.330908238888 0.038156 0.919696 0.390772
0.469975620508 2.063012123108 0.424866974354 0.032820 0.920272 0.389901
0.341644287109 2.040245771408 0.489629387856 0.032820 0.920272 0.389901
0.341486901045 2.040393114090 0.489294916391 0.032820 0.920272 0.389901
0.266349464655 2.086444616318 0.383765608072 0.027364 0.923845 0.381787
0.247839331627 2.028232336044 0.525613486767 0.027364 0.923845 0.381787
0.322585046291 2.079949617386 0.395528495312 0.027364 0.923845 0.381787
0.263836801052 2.112171649933 0.321820467710 0.027364 0.923845 0.381787
0.110309012234 1.924636960030 0.737191915512 0.022766 0.885182 0.464687
0.102726623416 1.943238854408 0.702020049095 0.022766 0.885182 0.464687
-0.204552635550 1.995916008949 0.594648301601 -0.028220 0.885584 0.463621
-0.012540871277 1.904350996017 0.781185328960 -0.028220 0.885584 0.463621
-0.050639327615 2.013620853424 0.570174574852 -0.028220 0.885584 0.463621
-0.064876593649 2.039552927017 0.506216883659 -0.027103 0.930519 0.365239
-0.171287775040 2.024862051010 0.535961866379 -0.027103 0.930519 0.365239
-0.085291616619 2.034111976624 0.518609166145 -0.027103 0.930519 0.365239
0.083575725555 2.079664230347 0.407078891993 0.003811 0.931161 0.364588
0.054740197957 2.048811197281 0.486072182655 0.003811 0.931161 0.364588
0.098893932998 2.093119621277 0.372597277164 0.003811 0.931161 0.364588
0.049394246191 2.052202701569 0.477487325668 0.003811 0.931161 0.364588
-0.233978122473 2.071198463440 0.419257372618 -0.008977 0.924588 0.380863
-0.194445744157 2.078282117844 0.402972936630 -0.008977 0.924588 0.380863
-0.252861350775 2.110492944717 0.323321819305 -0.008977 0.924588 0.380863
-0.337448507547 2.040131568909 0.486160457134 -0.038088 0.923298 0.382190
-0.273578912020 2.092487096786 0.366338282824 -0.038088 0.923298 0.382190
-0.309222221375 2.091743230820 0.364596754313 -0.038088 0.923298 0.382190
-0.499800056219 2.069348096848 0.402166575193 -0.030124 0.920748 0.388993
-0.441922724247 2.091412544250 0.354527324438 -0.030124 0.920748 0.388993
-0.457140892744 2.093453407288 0.348460674286 -0.030124 0.920748 0.388993
-0.542706191540 2.102506160736 0.320094853640 -0.030124 0.920748 0.388993
-0.558949112892 2.008950948715 0.535999953747 -0.060290 0.917750 0.392556
-0.668330490589 2.091451406479 0.332431733608 -0.041095 0.916021 0.399019
-0.634843647480 2.039377689362 0.455615848303 -0.041095 0.916021 0.399019
-0.658109128475 2.021789550781 0.491094470024 -0.077638 0.911222 0.404533
-0.636935532093 1.976694107056 0.587682783604 -0.079624 0.878660 0.470761
-0.564585804939 1.996037602425 0.561768412590 -0.059264 0.880688 0.469976
-0.483030557632 1.897653818130 0.758401930332 -0.073526 0.880923 0.467513
-0.325911641121 1.975638031960 0.624603867531 -0.039241 0.886312 0.461423
-0.416342645884 1.901517271996 0.759303748608 -0.039241 0.886312 0.461423
-0.375098228455 1.958599567413 0.653176784515 -0.039241 0.886312 0.461423
-0.289854824543 1.997408628464 0.585839450359 -0.039241 0.886312 0.461423
-0.379664719105 1.914973616600 0.736475408077 -0.036493 0.885294 0.463597
-0.274319916964 1.897727012634 0.777698159218 -0.036493 0.885294 0.463597
-0.308253526688 1.921607494354 0.729389548302 -0.036493 0.885294 0.463597
-0.117546096444 1.931128978729 0.723770439625 -0.025535 0.885648 0.463655
-0.114188827574 1.909309983253 0.765767574310 -0.025535 0.885648 0.463655
-0.164336264133 1.951897025108 0.681282699108 -0.025535 0.885648 0.463655
-0.743917226791 -0.639302372932 0.688958883286 -0.950569 0.013704 0.310212
-0.796574115753 -0.555313706398 0.544782817364 -0.940223 -0.024174 0.339702
-0.776680409908 -0.631182312965 0.594366967678 -0.940223 -0.024174 0.339702
-0.763106226921 -0.491457253695 0.642025649548 -0.940223 -0.024174 0.339702
-0.843335032463 -0.477181494236 0.384835809469 -0.963531 -0.025776 0.266352
-0.850211918354 -0.483249396086 0.359372437000 -0.963531 -0.025776 0.266352
-0.845744848251 -0.484334498644 0.375404477119 -0.963531 -0.025776 0.266352
-0.851431787014 -0.680895686150 0.340373545885 -0.961130 -0.018366 0.275483
-0.828684866428 -0.675247013569 0.420402765274 -0.961130 -0.018366 0.275483
-0.838671743870 -0.589773476124 0.391424834728 -0.961130 -0.018366 0.275483
-0.829880535603 -0.712554931641 0.413604617119 -0.961130 -0.018366 0.275483
-0.809315502644 -0.702168822289 0.486327260733 -0.961130 -0.018366 0.275483
-0.808938384056 -0.779368638992 0.480932891369 -0.960997 -0.028373 0.275099
-0.790385723114 -0.844568669796 0.539020359516 -0.960997 -0.028373 0.275099
-0.834704041481 -0.820525050163 0.387216925621 -0.960997 -0.028373 0.275099
-0.841903150082 -0.908791959286 0.351742476225 -0.961313 -0.033405 0.273424
-0.826953649521 -0.892665088177 0.406228542328 -0.961313 -0.033405 0.273424
-0.768509685993 -0.740851819515 0.612706899643 -0.946369 -0.024007 0.322195
-0.850973606110 -0.356346547604 0.371973454952 -0.963340 -0.035862 0.265877
-0.819262266159 -0.310381710529 0.492952436209 -0.963340 -0.035862 0.265877
-0.812290310860 -0.435516119003 0.501506924629 -0.963340 -0.035862 0.265877
-0.806182384491 -0.443882048130 0.522511363029 -0.963340 -0.035862 0.265877
-0.868940830231 -0.409331858158 0.299624860287 -0.968033 -0.018128 0.250166
-0.851232767105 -0.325868546963 0.373888343573 -0.968033 -0.018128 0.250166
-0.858048558235 -0.363257586956 0.344927191734 -0.968033 -0.018128 0.250166
-0.872745275497 -0.222866743803 0.298294872046 -0.968185 -0.018086 0.249582
-0.797897756100 -0.229270294309 0.569748163223 -0.935283 -0.034831 0.352182
-0.800804555416 -0.404542893171 0.544937133789 -0.935283 -0.034831 0.352182
-0.751762032509 -0.275531858206 0.687477588654 -0.935283 -0.034831 0.352182
-0.781546294689 -0.411568880081 0.596026062965 -0.938745 -0.026821 0.343568
-0.739747226238 -0.391522228718 0.711527884007 -0.938745 -0.026821 0.343568
-0.745732843876 -0.453169822693 0.690613746643 -0.938745 -0.026821 0.343568
-0.717995882034 -0.482324063778 0.765087842941 -0.938608 -0.008843 0.344872
-0.836118876934 0.690908789635 0.461764007807 -0.966714 0.006004 0.255789
-0.825214743614 0.550692498684 0.506061315536 -0.966714 0.006004 0.255789
-0.836856305599 0.639490485191 0.460127800703 -0.966714 0.006004 0.255789
-0.840873479843 0.671881973743 0.444238424301 -0.966714 0.006004 0.255789
-0.878911256790 0.652457594872 0.301064014435 -0.966714 0.006004 0.255789
-0.836675643921 0.592850089073 0.461851000786 -0.966714 0.006004 0.255789
-0.827242732048 0.760076105595 0.491795271635 -0.964202 0.010888 0.264944
-0.837035775185 0.859764993191 0.452373683453 -0.964202 0.010888 0.264944
-0.825803697109 0.758923470974 0.497070729733 -0.964202 0.010888 0.264944
-0.836441636086 0.745855093002 0.458900779486 -0.964202 0.010888 0.264944
-0.822434306145 0.609649360180 0.515042364597 -0.964202 0.010888 0.264944
-0.831917583942 0.714371442795 0.476553529501 -0.964202 0.010888 0.264944
-0.774367451668 0.692749500275 0.642707586288 -0.928352 0.008939 0.371596
-0.790753364563 0.622044563293 0.603576302528 -0.928352 0.008939 0.371596
-0.796976327896 0.538017749786 0.590238392353 -0.928352 0.008939 0.371596
-0.790993630886 0.672795772552 0.601622939110 -0.928352 0.008939 0.371596
-0.801993966103 0.520482182503 0.578146040440 -0.928352 0.008939 0.371596
-0.786543369293 0.819533228874 0.608853101730 -0.928352 0.008939 0.371596
-0.784384489059 0.530446708202 0.621958196163 -0.928352 0.008939 0.371596
-0.725575387478 0.760505318642 0.773102462292 -0.939235 -0.003772 0.343255
-0.750031054020 0.719311237335 0.705859601498 -0.939235 -0.003772 0.343255
-0.726377010345 0.587263226509 0.768763124943 -0.939235 -0.003772 0.343255
-0.729419052601 0.581356465816 0.760389089584 -0.939235 -0.003772 0.343255
-0.721931457520 0.635068893433 0.781487345695 -0.939235 -0.003772 0.343255
-0.766512215137 0.812549650669 0.662046372890 -0.939235 -0.003772 0.343255
-0.727804899216 0.232168331742 0.762194573879 -0.929942 -0.006361 0.367651
-0.723039865494 0.315222561359 0.775421023369 -0.929942 -0.006361 0.367651
-0.769629299641 0.357626378536 0.657983303070 -0.929942 -0.006361 0.367651
-0.717720866203 0.338834494352 0.789224147797 -0.929942 -0.006361 0.367651
-0.727141082287 0.408778876066 0.766332089901 -0.929942 -0.006361 0.367651
-0.743079781532 0.130189061165 0.722332775593 -0.929082 -0.003813 0.369854
-0.779708325863 0.181242182851 0.630944848061 -0.929082 -0.003813 0.369854
-0.784673511982 0.299969375134 0.619464516640 -0.929082 -0.003813 0.369854
-0.812993288040 0.468246042728 0.549852669239 -0.929082 -0.003813 0.369854
-0.762821018696 0.109384894371 0.672686159611 -0.929082 -0.003813 0.369854
-0.848044991493 0.301971673965 0.414245724678 -0.968503 -0.003574 0.248976
-0.827645480633 0.355613291264 0.494160473347 -0.968503 -0.003574 0.248976
-0.839595139027 0.371835738420 0.447805166245 -0.968503 -0.003574 0.248976
-0.821486234665 0.331032931805 0.517897546291 -0.968503 -0.003574 0.248976
-0.820078432560 0.299972534180 0.523079037666 -0.968503 -0.003574 0.248976
-0.832674980164 0.502942562103 0.477067768574 -0.967460 -0.005994 0.252954
-0.873466849327 0.333941340446 0.316689252853 -0.967460 -0.005994 0.252954
-0.831615447998 0.505042016506 0.481175929308 -0.967460 -0.005994 0.252954
-0.862307906151 0.447850793600 0.362266689539 -0.967460 -0.005994 0.252954
-0.831976294518 0.150734573603 0.475375711918 -0.968509 -0.001191 0.248977
-0.862323641777 0.135503813624 0.366234779358 -0.946304 0.110159 0.303932
-0.812690675259 0.095445558429 0.547541141510 -0.927854 -0.003818 0.372924
-0.757842779160 0.080520808697 0.684576094151 -0.930982 -0.029781 0.363847
-0.852520585060 1.468346714973 0.370885252953 -0.967673 0.013256 0.251860
-0.864806532860 1.595552325249 0.316371619701 -0.967673 0.013256 0.251860
-0.867406368256 1.491123318672 0.312333375216 -0.967673 0.013256 0.251860
-0.858784854412 1.779304504395 0.329042524099 -0.967673 0.013256 0.251860
-0.816258311272 1.452584981918 0.511251270771 -0.967673 0.013256 0.251860
-0.835522711277 1.215885519981 0.442120134830 -0.968355 0.003582 0.249551
-0.837480127811 1.309555053711 0.432908594608 -0.968355 0.003582 0.249551
-0.844476759434 1.420804023743 0.403817743063 -0.968355 0.003582 0.249551
-0.853141605854 1.383465051651 0.370795011520 -0.968355 0.003582 0.249551
-0.812910974026 1.290942192078 0.528680086136 -0.968355 0.003582 0.249551
-0.835771203041 1.198794364929 0.441799819469 -0.963831 0.013370 0.266178
-0.844736933708 1.240738511086 0.407179802656 -0.963831 0.013370 0.266178
-0.860904872417 1.185206294060 0.351698994637 -0.963831 0.013370 0.266178
-0.849113106728 1.072044730186 0.400304257870 -0.963831 0.013370 0.266178
-0.805750906467 1.363019466400 0.552655875683 -0.938422 0.003769 0.345470
-0.774555444717 1.196719765663 0.639473557472 -0.938422 0.003769 0.345470
-0.795088410378 1.170438885689 0.583835303783 -0.938422 0.003769 0.345470
-0.778154850006 1.212328314781 0.629496097565 -0.938422 0.003769 0.345470
-0.806446969509 1.251549959183 0.551995992661 -0.938422 0.003769 0.345470
-0.749815046787 1.169804573059 0.706691384315 -0.936983 0.006305 0.349319
-0.781986236572 1.298642992973 0.617896676064 -0.936983 0.006305 0.349319
-0.764131963253 1.264392733574 0.666496336460 -0.936983 0.006305 0.349319
-0.760913252831 1.261911034584 0.675190329552 -0.936983 0.006305 0.349319
-0.740398645401 1.215641617775 0.731157600880 -0.936983 0.006305 0.349319
-0.775716722012 1.435546755791 0.632289111614 -0.936983 0.006305 0.349319
-0.744954407215 1.464380145073 0.714461743832 -0.936983 0.006305 0.349319
-0.720127344131 1.349160790443 0.783204972744 -0.936983 0.006305 0.349319
-0.800149679184 1.483270525932 0.566237509251 -0.936995 0.003783 0.349324
-0.739818930626 1.534226298332 0.727164149284 -0.936995 0.003783 0.349324
-0.805363893509 1.485208034515 0.552260458469 -0.936995 0.003783 0.349324
-0.772739291191 1.594491481781 0.638397157192 -0.936995 0.003783 0.349324
-0.838920831680 1.743532538414 0.411203593016 -0.971983 0.003543 0.235024
-0.817284524441 1.563745021820 0.504287302494 -0.971983 0.003543 0.235024
-0.806652307510 1.643497586250 0.546913981438 -0.971983 0.003543 0.235024
-0.819710135460 1.515599489212 0.495117783546 -0.971983 0.003543 0.235024
-0.793848931789 1.709957480431 0.580761075020 -0.937301 0.003774 0.348500
-0.726235508919 1.577111959457 0.763234317303 -0.938422 -0.003769 0.345470
-0.747368752956 1.661970853806 0.705730021000 -0.932192 0.021858 0.361305
-0.838262200356 -1.105221748352 0.346306800842 -0.965358 -0.033119 0.258819
-0.849340379238 -1.148621916771 0.298148810863 -0.964935 -0.043354 0.258885
-0.839525938034 -1.182736158371 0.329039454460 -0.964935 -0.043354 0.258885
-0.843479871750 -1.009693741798 0.335763961077 -0.962995 -0.015827 0.269054
0.432381063700 -2.176339626312 -0.350163608789 -0.004984 0.014953 -0.999876
0.355256974697 -2.158448457718 -0.350300997496 -0.005073 -0.033483 -0.999426
0.128956466913 -2.206636667252 -0.348697066307 -0.006978 0.014953 -0.999864
-0.332605779171 -2.195699930191 -0.410848140717 -0.023359 -0.542761 0.839562
0.003190406365 -2.185656547546 -0.406388759613 0.009577 -0.565050 0.825001
0.050757337362 -2.168392896652 -0.394144147635 -0.006779 -0.543688 0.839260
0.311929315329 -2.183131456375 -0.402980923653 0.026106 -0.542724 0.839505
0.490831643343 -2.202136278152 -0.420642226934 0.026145 -0.540781 0.840757
0.299905896187 -2.197542667389 -0.411933600903 0.026106 -0.542724 0.839505
0.022366583347 -2.199711799622 -0.415751248598 -0.012313 -0.565033 0.824976
-0.017863210291 -2.198945522308 -0.415182530880 0.012313 -0.565033 0.824976
-0.114050820470 -2.212580442429 -0.422863662243 0.015025 -0.542283 0.840061
0.366404503584 -2.165861845016 -0.389385819435 -0.116466 -0.990534 -0.072647
-0.290461808443 -2.156167984009 -0.349152624607 0.021552 -0.153130 -0.987971
-0.236817628145 -2.159772872925 -0.348846375942 0.004975 0.014924 -0.999876
-0.111367814243 -2.180124044418 -0.348481923342 0.004907 0.000981 -0.999987
0.087070718408 -2.165340662003 -0.348215728998 -0.002938 -0.000979 -0.999995
0.461179733276 -2.066864728928 -0.186154142022 -0.200115 -0.979755 -0.005784
0.358448147774 -2.046422958374 -0.103091500700 -0.198787 -0.979987 -0.010462
-0.478395879269 -2.072279214859 -0.204713523388 0.027619 -0.999388 -0.021481
-0.479678064585 -2.071578025818 -0.259665548801 0.002956 -0.999984 -0.004926
-0.293528735638 -2.046467304230 -0.188082307577 -0.055784 -0.670842 0.739499
-0.122775182128 -2.079293012619 -0.212593749166 -0.015351 -0.671273 0.741051
-0.135558679700 -2.058307409286 -0.194478601217 -0.004134 -0.624185 0.781265
0.029238082469 -2.067252397537 -0.201315492392 0.018050 -0.623407 0.781689
0.173613771796 -2.045047044754 -0.184849038720 0.009731 -0.671464 0.740973
0.285596609116 -2.050671339035 -0.213770508766 -0.016879 -0.000993 -0.999857
-0.041621897370 -2.052703380585 -0.214267238975 -0.002938 -0.000979 -0.999995
0.425929069519 -2.059369325638 -0.235174015164 -0.200115 -0.979755 -0.005784
-0.090690433979 -2.054166793823 -0.253319025040 -0.004134 -0.624185 0.781265
-0.392778009176 -2.055824518204 -0.260720670223 0.206883 -0.978309 -0.010519
-0.373777955770 -2.052242040634 -0.193797186017 0.206883 -0.978309 -0.010519
-0.176714882255 -2.080017805099 -0.151937752962 -0.018142 -0.671241 0.741017
-0.136251419783 -2.056108474731 -0.130321502686 -0.006889 -0.624176 0.781253
0.135907858610 -2.069755077362 -0.143410176039 0.018050 -0.623407 0.781689
0.251066863537 -2.051470756531 -0.129139080644 0.009731 -0.671464 0.740973
0.080336980522 -2.065949440002 -0.152613267303 0.000978 0.000978 -0.999999
-0.077223457396 -2.050070762634 -0.152609035373 -0.000978 -0.000978 -0.999999
-0.342802822590 -2.046401262283 -0.103303574026 0.206883 -0.978309 -0.010519
0.503118991852 -2.070869922638 -0.171471074224 -0.053428 -0.998373 -0.019905
-0.227205991745 -2.066763877869 -0.091160967946 0.000978 0.000978 -0.999999
-0.932534337044 -0.804715692997 0.361083656549 0.286920 0.938380 0.192666
0.585060358047 -2.023278236389 -0.645916759968 0.051501 0.131613 -0.989962
0.631228208542 -2.023288965225 -0.643561363220 0.051501 0.131613 -0.989962
0.483547031879 -2.027465343475 -0.650395750999 0.035220 0.139743 -0.989561
0.481774687767 -2.037712335587 -0.651914834976 0.035220 0.139743 -0.989561
0.441077947617 -2.010489225388 -0.649032652378 0.024054 0.163794 -0.986201
0.116603791714 -2.094794034958 -0.670932412148 0.024054 0.163794 -0.986201
0.298746734858 -2.007457733154 -0.649834692478 -0.001201 0.265352 -0.964151
0.164333522320 -1.963863611221 -0.637824833393 -0.001201 0.265352 -0.964151
0.446944206953 -1.959050059319 -0.636645436287 -0.001201 0.265352 -0.964151
0.329295933247 -2.011481523514 -0.650952219963 -0.001201 0.265352 -0.964151
-0.075745098293 -2.046992540359 -0.658330321312 -0.025732 0.263445 -0.964331
-0.084217123687 -2.028497695923 -0.653029739857 -0.025732 0.263445 -0.964331
-0.199007242918 -2.035856962204 -0.651559770107 -0.030933 0.273446 -0.961390
-0.234395682812 -2.041451454163 -0.651973426342 -0.030933 0.273446 -0.961390
-0.487560093403 -1.979580283165 -0.639456033707 -0.001122 0.162760 -0.986665
-0.161394178867 -1.995613932610 -0.642291784286 -0.001122 0.162760 -0.986665
-0.147745922208 -1.966158628464 -0.637468934059 -0.001122 0.162760 -0.986665
-0.408534020185 -2.054602384567 -0.651811718941 -0.001122 0.162760 -0.986665
-0.321652203798 -1.981059193611 -0.639803349972 -0.001122 0.162760 -0.986665
-0.628961563110 -2.040392637253 -0.649358868599 -0.001122 0.162760 -0.986665
-0.724058330059 -2.091474294662 -0.646992266178 -0.052825 0.052825 -0.997206
-0.654938578606 -1.958315134048 -0.628515541553 -0.003623 0.962379 -0.271688
-0.667864143848 -1.948294878006 -0.592706918716 -0.003623 0.962379 -0.271688
-0.598289191723 -1.848826289177 -0.576372981071 -0.999995 -0.002938 -0.000979
-0.598052680492 -1.919295668602 -0.631868660450 -0.999995 -0.002938 -0.000979
-0.599010348320 -1.571280837059 -0.602833509445 -0.999995 -0.002938 -0.000979
-0.598793029785 -1.675609350204 -0.554160118103 -0.999995 -0.002938 -0.000979
-0.599417567253 -1.433538436890 -0.568182110786 -0.999995 -0.002938 -0.000979
-0.501762807369 -1.318407177925 -0.621295452118 -0.000999 0.022971 -0.999736
-0.217220097780 -1.317320823669 -0.621339976788 -0.000999 0.022971 -0.999736
-0.583434700966 -1.888639807701 -0.634562492371 -0.000999 0.022971 -0.999736
-0.456001102924 -1.487703442574 -0.625251471996 -0.000999 0.022971 -0.999736
-0.536325693130 -1.370067834854 -0.622490763664 -0.000999 0.022971 -0.999736
-0.382352650166 -1.171854376793 -0.617909848690 -0.000999 0.022971 -0.999736
-0.551494956017 -1.636198759079 -0.628688156605 -0.000999 0.022971 -0.999736
-0.504775404930 -1.383930206299 -0.622821450233 -0.000999 0.022971 -0.999736
-0.266172170639 -1.271465420723 -0.620259463787 -0.000999 0.022971 -0.999736
-0.548073410988 -1.543768644333 -0.626535296440 -0.000999 0.022971 -0.999736
-0.562231004238 -1.470835924149 -0.624832391739 -0.000999 0.022971 -0.999736
-0.334254622459 -1.586264610291 -0.627577960491 -0.000999 0.022971 -0.999736
-0.544848263264 -1.285253524780 -0.620512366295 -0.000999 0.022971 -0.999736
-0.139079138637 -1.172454118729 -0.617983520031 -0.000999 0.022971 -0.999736
-0.487570285797 -1.422679185867 -0.623728632927 -0.000999 0.022971 -0.999736
-0.556744277477 -1.166226387024 -0.617735981941 -0.000999 0.022971 -0.999736
-0.592968344688 -1.852099537849 -0.633708715439 -0.000999 0.022971 -0.999736
-0.439592480659 -1.453721404076 -0.624463677406 -0.000999 0.022971 -0.999736
-0.465217143297 -1.659334897995 -0.629248440266 -0.000999 0.022971 -0.999736
-0.350807726383 -1.461428642273 -0.624665021896 -0.000999 0.022971 -0.999736
-0.245627760887 -1.362554907799 -0.622386991978 -0.000999 0.022971 -0.999736
-0.168202340603 -1.244839787483 -0.619663059711 -0.000999 0.022971 -0.999736
-0.433316081762 -1.488497376442 -0.625275552273 -0.000999 0.022971 -0.999736
-0.287602424622 -1.491800546646 -0.625388264656 -0.000999 0.022971 -0.999736
-0.107130713761 -1.689068436623 -0.630036175251 -0.000999 0.022971 -0.999736
-0.214413046837 -1.911224961281 -0.635187804699 -0.000999 0.022971 -0.999736
-0.196169108152 -1.486158132553 -0.625280439854 -0.000999 0.022971 -0.999736
-0.012794814073 -1.566166639328 -0.627195656300 -0.000999 0.022971 -0.999736
-0.184092909098 -1.658606767654 -0.629305124283 -0.000999 0.022971 -0.999736
-0.122247464955 -1.573653101921 -0.627340674400 -0.000999 0.022971 -0.999736
-0.097353570163 -1.650666117668 -0.629143297672 -0.000999 0.022971 -0.999736
-0.369926989079 -1.677276253700 -0.629690289497 -0.000999 0.022971 -0.999736
-0.170954003930 -1.841411232948 -0.633571505547 -0.000999 0.022971 -0.999736
-0.232053026557 -1.860810279846 -0.634007394314 -0.000999 0.022971 -0.999736
-0.119223877788 -1.673094749451 -0.629660427570 -0.000999 0.022971 -0.999736
-0.269023060799 -1.883999347687 -0.634538173676 -0.000999 0.022971 -0.999736
-0.319559752941 -1.856172561646 -0.633875668049 -0.000999 0.022971 -0.999736
-0.030465377495 -1.532168388367 -0.626398026943 -0.000999 0.022971 -0.999736
-0.449964076281 -1.912246465683 -0.635148048401 -0.000999 0.022971 -0.999736
-0.025883428752 -1.422880649567 -0.623850762844 -0.000999 0.022971 -0.999736
-0.136388793588 -1.506449460983 -0.625769734383 -0.000999 0.022971 -0.999736
-0.122203223407 -1.901924014091 -0.634995818138 -0.000999 0.022971 -0.999736
0.001345066819 -1.771385431290 -0.631985008717 -0.000999 0.022971 -0.999736
-0.038928739727 -1.639025688171 -0.628887593746 -0.000999 0.022971 -0.999736
-0.157009229064 -1.922583341599 -0.635468184948 -0.000999 0.022971 -0.999736
-0.233971729875 -1.651202678680 -0.629118919373 -0.000999 0.022971 -0.999736
-0.140425637364 -1.853065013885 -0.633851528168 -0.000999 0.022971 -0.999736
-0.247579455376 -1.497031450272 -0.625520110130 -0.000999 0.022971 -0.999736
0.127292320132 -1.498366832733 -0.625602841377 0.000999 0.022971 -0.999736
0.154770106077 -1.606327772141 -0.628117024899 0.000999 0.022971 -0.999736
0.019704062492 -1.922295928001 -0.635502517223 0.000999 0.022971 -0.999736
0.503919124603 -1.180856585503 -0.618151009083 0.000999 0.022971 -0.999736
0.416357070208 -1.316360831261 -0.621322035789 0.000999 0.022971 -0.999736
0.298587292433 -1.505876660347 -0.625756442547 0.000999 0.022971 -0.999736
0.222311213613 -1.351835250854 -0.622173726559 0.000999 0.022971 -0.999736
0.055158585310 -1.218164324760 -0.619077444077 0.000999 0.022971 -0.999736
0.443651407957 -1.251148104668 -0.619797885418 0.000999 0.022971 -0.999736
0.464228928089 -1.325987815857 -0.621540546417 0.000999 0.022971 -0.999736
0.303131222725 -1.310602664948 -0.621201992035 0.000999 0.022971 -0.999736
0.065648078918 -1.201396584511 -0.618685066700 0.000999 0.022971 -0.999736
0.158819705248 -1.448201179504 -0.624428987503 0.000999 0.022971 -0.999736
0.209002897143 -1.386501193047 -0.622983813286 0.000999 0.022971 -0.999736
0.088453412056 -1.557110071182 -0.626977622509 0.000999 0.022971 -0.999736
0.224563956261 -1.513956189156 -0.625954151154 0.000999 0.022971 -0.999736
0.010599195957 -1.605517506599 -0.628116250038 0.000999 0.022971 -0.999736
0.119069486856 -1.507675766945 -0.625820934772 0.000999 0.022971 -0.999736
0.053637564182 -1.251241445541 -0.619848966599 0.000999 0.022971 -0.999736
0.023582816124 -1.382448673248 -0.622912585735 0.000999 0.022971 -0.999736
0.137214481831 -1.308835148811 -0.621181607246 0.000999 0.022971 -0.999736
0.123851031065 -1.157556414604 -0.617655396461 0.000999 0.022971 -0.999736
0.327560901642 -1.295939683914 -0.620857000351 0.000999 0.022971 -0.999736
0.138974621892 -1.448743343353 -0.624444067478 0.000999 0.022971 -0.999736
0.228104531765 -1.766262888908 -0.631835520267 0.000999 0.022971 -0.999736
0.429718255997 -1.445277571678 -0.624325633049 0.000999 0.022971 -0.999736
0.364801853895 -1.682291865349 -0.629858314991 0.000999 0.022971 -0.999736
0.182480901480 -1.801457881927 -0.632662534714 0.000999 0.022971 -0.999736
0.569415986538 -1.907139539719 -0.635067045689 0.000999 0.022971 -0.999736
0.580184042454 -1.579807162285 -0.627437889576 0.000999 0.022971 -0.999736
0.259909898043 -1.655308008194 -0.629245281219 0.000999 0.022971 -0.999736
0.204782962799 -1.701683044434 -0.630334198475 0.000999 0.022971 -0.999736
0.227270066738 -1.816475152969 -0.633005738258 0.000999 0.022971 -0.999736
0.417873203754 -1.829305410385 -0.633276104927 0.000999 0.022971 -0.999736
0.549326837063 -1.684369564056 -0.629879057407 0.000999 0.022971 -0.999736
0.497252374887 -1.557971835136 -0.626941561699 0.000999 0.022971 -0.999736
0.303175598383 -1.661120653152 -0.629374206066 0.000999 0.022971 -0.999736
0.322089672089 -1.719098687172 -0.630722403526 0.000999 0.022971 -0.999736
0.528927803040 -1.455791115761 -0.624555766582 0.000999 0.022971 -0.999736
0.340319871902 -1.952953696251 -0.636169016361 0.000999 0.022971 -0.999736
0.491483688354 -1.435813784599 -0.624095857143 0.000999 0.022971 -0.999736
0.599288105965 -1.619808435440 -0.628367125988 0.000999 0.022971 -0.999736
0.415963411331 -1.411611080170 -0.623543202877 0.000999 0.022971 -0.999736
0.553521871567 -1.665924191475 -0.629448592663 0.000999 0.022971 -0.999736
0.285831838846 -1.637933969498 -0.628836512566 0.000999 0.022971 -0.999736
0.365935504436 -1.712053537369 -0.630551695824 0.000999 0.022971 -0.999736
0.528436660767 -1.469810962677 -0.624882519245 0.000999 0.022971 -0.999736
0.594270646572 -1.581016540527 -0.627463936806 0.000999 0.022971 -0.999736
0.603485524654 -1.706144571304 -0.586580812931 0.999995 0.002938 -0.000979
0.602733790874 -1.401016235352 -0.581552982330 0.999995 0.002938 -0.000979
0.603312790394 -1.643109560013 -0.599863946438 0.999995 0.002938 -0.000979
0.603542685509 -1.742770671844 -0.614370286465 0.999995 0.002938 -0.000979
0.602484583855 -1.291607975960 -0.569631338120 0.999995 0.002944 -0.000981
0.083830296993 -1.078577756882 -0.616828203201 0.000991 0.012883 -0.999917
0.542338371277 -1.131232738495 -0.617225527763 0.000991 0.012883 -0.999917
0.010167941451 -1.124126553535 -0.617289364338 0.000985 0.008867 -0.999960
0.140568405390 -1.134344100952 -0.617366075516 0.000985 0.008867 -0.999960
-0.149259731174 -1.145393013954 -0.617462694645 -0.000985 0.008867 -0.999960
-0.147520616651 -1.121502876282 -0.617234528065 -0.000985 0.008867 -0.999960
-0.124900043011 -1.073266983032 -0.616635501385 -0.000997 0.018940 -0.999820
-0.525427699089 -1.110827445984 -0.616741836071 -0.000997 0.018940 -0.999820
-0.320581376553 -1.082479000092 -0.616515159607 -0.000997 0.018940 -0.999820
-0.693607509136 -1.079998970032 -0.615907967091 -0.000997 0.018940 -0.999820
-0.695983827114 -1.144865751266 -0.617221832275 -0.000999 0.022971 -0.999736
-0.627038002014 -1.160846233368 -0.530791461468 0.003250 -0.993503 -0.113760
-0.665444731712 -1.160242676735 -0.536936819553 0.003250 -0.993503 -0.113760
-0.859953939915 -1.161965250969 -0.526230514050 0.003250 -0.993503 -0.113760
-0.867355406284 -1.166171312332 -0.491194128990 0.003670 -0.955534 -0.294858
-0.728468894958 -1.185988426208 -0.426011621952 0.003670 -0.955534 -0.294858
-0.771845877171 -1.195120573044 -0.406535923481 0.001348 -0.848073 -0.529877
-0.882810175419 -1.208487987518 -0.385657608509 0.001348 -0.848073 -0.529877
-0.792799472809 -1.263608455658 -0.317124813795 0.001378 -0.657235 -0.753685
-0.794545590878 -1.268653035164 -0.312731266022 0.001378 -0.657235 -0.753685
-0.599552333355 -1.407247543335 -0.425430566072 -0.999995 -0.002938 -0.000979
-0.599417090416 -1.457710742950 -0.436183661222 -0.999995 -0.002938 -0.000979
-0.600010216236 -1.235143899918 -0.418221145868 -0.999995 -0.002938 -0.000979
-0.599841058254 -1.292679786682 -0.500253200531 -0.999995 -0.002938 -0.000979
-0.600034058094 -1.222821116447 -0.459849655628 -0.999995 -0.002938 -0.000979
-0.599492430687 -1.418917179108 -0.543949604034 -0.999995 -0.002938 -0.000979
-0.599765837193 -1.314414143562 -0.543292343616 -0.999995 -0.002938 -0.000979
-0.599790155888 -1.290358304977 -0.577861785889 -0.999995 -0.002944 -0.000981
-0.599592030048 -1.402291774750 -0.269035935402 -0.999995 -0.002938 -0.000979
-0.599231064320 -1.537261605263 -0.309030354023 -0.999995 -0.002938 -0.000979
-0.599302053452 -1.508233547211 -0.337750673294 -0.999995 -0.002938 -0.000979
-0.599079430103 -1.594690203667 -0.316608846188 -0.999995 -0.002938 -0.000979
-0.598928272724 -1.652014017105 -0.322737276554 -0.999995 -0.002938 -0.000979
-0.599027156830 -1.611670374870 -0.358948051929 -0.999995 -0.002938 -0.000979
-0.598692297935 -1.746395111084 -0.271357774734 -0.999995 -0.002938 -0.000979
-0.598530769348 -1.805528759956 -0.340395301580 -0.999995 -0.002938 -0.000979
-0.598816215992 -1.686565995216 -0.459421664476 -0.999995 -0.002938 -0.000979
-0.598379790783 -1.850991249084 -0.468976765871 -0.999995 -0.002938 -0.000979
-0.598479270935 -1.804512143135 -0.515019118786 -0.999995 -0.002938 -0.000979
-0.598147690296 -1.910829782486 -0.572234809399 -0.999995 -0.002938 -0.000979
-0.686622977257 -1.933111906052 -0.557031631470 -0.003450 0.980927 -0.194345
-0.673124551773 -1.927802562714 -0.530240535736 -0.003450 0.980927 -0.194345
-0.694584071636 -1.917495846748 -0.477609783411 -0.003450 0.980927 -0.194345
-0.834342896938 -1.900063514709 -0.431951224804 -0.001271 0.929088 -0.369856
-0.746864378452 -1.905814528465 -0.446963161230 -0.001271 0.929088 -0.369856
-0.687968790531 -1.874829053879 -0.369502335787 -0.001271 0.929088 -0.369856
-0.605683028698 -1.894799709320 -0.420202583075 -0.001271 0.929088 -0.369856
-0.835265398026 -1.864163637161 -0.347738087177 -0.001314 0.889912 -0.456129
-0.791332781315 -1.854036808014 -0.328170478344 -0.001314 0.889912 -0.456129
-0.805326163769 -1.828666806221 -0.305279940367 -0.001351 0.536176 -0.844105
-0.901766896248 -1.758803963661 -0.261613190174 -0.001347 0.526725 -0.850035
-0.771079123020 -1.774991035461 -0.271843940020 -0.001347 0.526725 -0.850035
-0.800793528557 -1.732805252075 -0.245675340295 -0.001347 0.526725 -0.850035
-0.801129519939 -1.735526919365 -0.247360050678 -0.001347 0.526725 -0.850035
-0.907315850258 -1.641603469849 -0.220594614744 -0.001168 0.220763 -0.975327
-0.814406096935 -1.653926849365 -0.223429217935 -0.001168 0.220763 -0.975327
-0.653102040291 -1.692589521408 -0.232247039676 -0.001168 0.220763 -0.975327
-0.804231584072 -1.568042874336 -0.210400164127 -0.001059 0.087863 -0.996132
-0.707911789417 -1.547779440880 -0.208645105362 -0.001059 0.087863 -0.996132
-0.800414323807 -1.549043536186 -0.208735138178 -0.001059 0.087863 -0.996132
-0.855636000633 -1.467680931091 -0.216149672866 0.001108 -0.142973 -0.989726
-0.903152942657 -1.517797827721 -0.208877474070 0.001108 -0.142973 -0.989726
-0.610314130783 -1.438031196594 -0.220370933414 0.001108 -0.142973 -0.989726
-0.606403112411 -1.437081813812 -0.220507562160 0.001108 -0.142973 -0.989726
-0.900220453739 -1.401298403740 -0.231358379126 0.001264 -0.362873 -0.931838
-0.820048034191 -1.357666611671 -0.248292565346 0.001264 -0.362873 -0.931838
-0.907432317734 -1.288638472557 -0.295562356710 0.001378 -0.657235 -0.753685
-0.822388231754 -1.316338419914 -0.271225929260 0.001378 -0.657235 -0.753685
-0.382513582706 -0.953100025654 -0.615088522434 -0.000987 0.008884 -0.999960
-0.605189025402 -0.996063113213 -0.615170121193 -0.000987 0.008884 -0.999960
-0.025018610060 -0.879846811295 -0.614916622639 -0.000987 0.008884 -0.999960
-0.327720552683 -1.029509544373 -0.615900218487 -0.000987 0.008884 -0.999960
-0.406060665846 -1.038192033768 -0.615867435932 -0.000987 0.008884 -0.999960
-0.511497914791 -0.953068017960 -0.614897489548 -0.000987 0.008884 -0.999960
-0.502333641052 -1.061431407928 -0.615947306156 -0.000987 0.008884 -0.999960
-0.174614593387 -0.997969746590 -0.615824997425 -0.000987 0.008884 -0.999960
-0.197372794151 -0.852473378181 -0.614399969578 -0.000987 0.008884 -0.999960
-0.133701533079 -0.971853733063 -0.615635752678 -0.000987 0.008884 -0.999960
-0.086641862988 -0.979507446289 -0.615778505802 -0.000987 0.008884 -0.999960
-0.043060496449 -0.820071101189 -0.614318251610 -0.000987 0.008884 -0.999960
-0.067066259682 -0.928480148315 -0.615319490433 -0.000987 0.008884 -0.999960
-0.328413903713 -0.923666834831 -0.614887058735 -0.000987 0.008884 -0.999960
0.540031731129 -0.821611464024 -0.613889813423 0.000987 0.008884 -0.999960
0.058195769787 -0.759390473366 -0.613746941090 0.000987 0.008884 -0.999960
0.600888252258 -0.787253260612 -0.613503873348 0.000987 0.008884 -0.999960
0.316852867603 -0.775725066662 -0.613660335541 0.000987 0.008884 -0.999960
0.091818027198 -1.003393292427 -0.616050243378 0.000987 0.008884 -0.999960
0.377484023571 -0.831186830997 -0.614134073257 0.000987 0.008884 -0.999960
0.146473884583 -0.784720182419 -0.613906383514 0.000987 0.008884 -0.999960
0.444474279881 -0.773314058781 -0.613517403603 0.000987 0.008884 -0.999960
0.098742514849 -0.860570371151 -0.614677071571 0.000987 0.008884 -0.999960
0.092176407576 -0.864013910294 -0.614716231823 0.000987 0.008884 -0.999960
0.070829600096 -1.009882211685 -0.616132080555 0.000987 0.008884 -0.999960
0.698538661003 -0.734671294689 -0.612908959389 0.000987 0.008884 -0.999960
0.154732748866 -0.917183220387 -0.615166246891 0.000987 0.008884 -0.999960
0.647817790508 -0.799465477467 -0.613576650620 0.000987 0.008884 -0.999960
0.549411356449 -0.985982179642 -0.615289747715 0.000985 0.008867 -0.999960
0.827658236027 -0.863409399986 -0.613871574402 0.000985 0.008867 -0.999960
0.384146213531 -0.931293368340 -0.615071594715 0.000985 0.008867 -0.999960
0.305758357048 -1.041672587395 -0.616101980209 0.000985 0.008867 -0.999960
0.503266692162 -1.057562112808 -0.615951180458 0.000985 0.008867 -0.999960
0.367307573557 -1.068918228149 -0.616240382195 0.000985 0.008867 -0.999960
0.557498514652 -0.860594511032 -0.614235222340 0.000985 0.008867 -0.999960
0.608623564243 -0.926282346249 -0.614708364010 0.000985 0.008867 -0.999960
0.833628952503 -0.779732704163 -0.613167047501 0.000985 0.008867 -0.999960
0.103973209858 -1.031469702721 -0.616306245327 0.000985 0.008867 -0.999960
0.658466160297 -0.875032186508 -0.614210665226 0.000985 0.008867 -0.999960
0.667415976524 -0.863409757614 -0.614101171494 0.000985 0.008867 -0.999960
0.546675443649 -0.981626570225 -0.615257382393 0.000985 0.008867 -0.999960
0.586719989777 -0.896970868111 -0.614495873451 0.000985 0.008867 -0.999960
0.286681652069 -1.081756949425 -0.616632103920 0.001001 0.023017 -0.999735
0.829441130161 -1.099015831947 -0.616275906563 0.001001 0.023017 -0.999735
0.849305927753 -1.101991891861 -0.616317331791 0.001001 0.023017 -0.999735
0.777848541737 -0.459652781487 -0.610544502735 0.000985 0.008867 -0.999960
0.456014215946 -0.714091420174 -0.612965524197 0.000985 0.008867 -0.999960
0.262624382973 -0.680057764053 -0.612864494324 0.000985 0.008867 -0.999960
0.561188817024 -0.582500278950 -0.611771106720 0.000985 0.008867 -0.999960
0.533988475800 -0.732509613037 -0.613045334816 0.000985 0.008867 -0.999960
0.659850060940 -0.653941571712 -0.612272799015 0.000985 0.008867 -0.999960
0.717485249043 -0.557893097401 -0.611419022083 0.000985 0.008867 -0.999960
0.698793053627 -0.575210690498 -0.611580789089 0.000985 0.008867 -0.999960
0.775152921677 -0.591156363487 -0.611641585827 0.000985 0.008867 -0.999960
0.428353011608 -0.593611001968 -0.611988782883 0.000985 0.008867 -0.999960
0.457479774952 -0.671650409698 -0.612610876560 0.000985 0.008867 -0.999960
0.836274862289 -0.534221827984 -0.611110031605 0.000985 0.008867 -0.999960
0.384647011757 -0.659377396107 -0.612577378750 0.000985 0.008867 -0.999960
0.662893176079 -0.531647324562 -0.611252009869 0.000985 0.008867 -0.999960
0.166783213615 -0.535711467266 -0.611585736275 0.000987 0.008884 -0.999960
0.506950497627 -0.511569797993 -0.611200153828 0.000987 0.008884 -0.999960
0.024963140488 -0.518239319324 -0.611483037472 0.000987 0.008884 -0.999960
0.189246729016 -0.582527041435 -0.612023413181 0.000987 0.008884 -0.999960
0.015736848116 -0.621994078159 -0.612479865551 0.000987 0.008884 -0.999960
0.384505927563 -0.521697998047 -0.611352741718 0.000987 0.008884 -0.999960
0.771490573883 -0.402904868126 -0.610040247440 0.000987 0.008884 -0.999960
0.405792295933 -0.516740560532 -0.611295580864 0.000987 0.008884 -0.999960
0.002231091261 -0.545982658863 -0.611758768559 0.000987 0.008884 -0.999960
0.431180566549 -0.402797490358 -0.610193848610 0.000987 0.008884 -0.999960
0.397711992264 -0.489563554525 -0.611039280891 0.000987 0.008884 -0.999960
0.070644319057 -0.453645497561 -0.610844254494 0.000987 0.008884 -0.999960
0.383253753185 -0.568721652031 -0.611803174019 0.000987 0.008884 -0.999960
0.188154876232 -0.458653181791 -0.610838770866 0.000987 0.008884 -0.999960
0.214270770550 -0.527258515358 -0.611483275890 0.000987 0.008884 -0.999960
-0.032501377165 -0.638055801392 -0.612609088421 -0.000987 0.008884 -0.999960
-0.274064928293 -0.618281364441 -0.612181246281 -0.000987 0.008884 -0.999960
-0.702132821083 -0.708229660988 -0.612618446350 -0.000987 0.008884 -0.999960
-0.266119211912 -0.679440736771 -0.612774014473 -0.000987 0.008884 -0.999960
-0.404421031475 -0.659354686737 -0.612445235252 -0.000987 0.008884 -0.999960
-0.145453631878 -0.735934495926 -0.613433599472 -0.000987 0.008884 -0.999960
-0.361246764660 -0.717984378338 -0.613048613071 -0.000987 0.008884 -0.999960
-0.377517968416 -0.657013475895 -0.612449407578 -0.000987 0.008884 -0.999960
-0.206236228347 -0.530017733574 -0.611404061317 -0.000987 0.008884 -0.999960
-0.681684315205 -0.728299558163 -0.612830579281 -0.000987 0.008884 -0.999960
-0.272143214941 -0.688566982746 -0.612855315208 -0.000987 0.008884 -0.999960
-0.466102331877 -0.639386117458 -0.612193286419 -0.000987 0.008884 -0.999960
-0.188265100121 -0.664934337139 -0.612712204456 -0.000987 0.008884 -0.999960
-0.288023918867 -0.641267895699 -0.612387239933 -0.000987 0.008884 -0.999960
-0.600381493568 -0.788600862026 -0.613423883915 -0.000985 0.008867 -0.999960
-0.806184530258 -0.876788496971 -0.613954722881 -0.000985 0.008867 -0.999960
-0.533664643764 -0.753755748272 -0.613199770451 -0.000985 0.008867 -0.999960
-0.722229361534 -0.847593367100 -0.613794565201 -0.000985 0.008867 -0.999960
-0.762209653854 -0.935040414333 -0.614482581615 -0.000985 0.008867 -0.999960
-0.700273394585 -0.879907429218 -0.614085018635 -0.000985 0.008867 -0.999960
-0.730310142040 -0.958375990391 -0.614708125591 -0.000985 0.008867 -0.999960
-0.292579174042 -0.801113545895 -0.613831162453 -0.000985 0.008867 -0.999960
-0.551159560680 -0.943192303181 -0.614758312702 -0.000985 0.008867 -0.999960
-0.736306488514 -0.804545044899 -0.613422632217 -0.000985 0.008867 -0.999960
-0.183561682701 -0.745520949364 -0.613476157188 -0.000985 0.008867 -0.999960
-0.090444535017 -0.744392335415 -0.613558471203 -0.000985 0.008867 -0.999960
-0.692033171654 -0.942780435085 -0.614616036415 -0.000985 0.008867 -0.999960
-0.353916168213 -0.823171496391 -0.613954246044 -0.000985 0.008867 -0.999960
-0.308328688145 -0.431481331587 -0.610472619534 -0.000985 0.008867 -0.999960
-0.699348807335 -0.402522534132 -0.610035836697 -0.000985 0.008867 -0.999960
-0.335563600063 -0.479838877916 -0.610861599445 -0.000985 0.008867 -0.999960
-0.352564215660 -0.435444891453 -0.610483407974 -0.000985 0.008867 -0.999960
-0.488938510418 -0.571818649769 -0.611550688744 -0.000985 0.008867 -0.999960
-0.257933020592 -0.465485543013 -0.610780954361 -0.000985 0.008867 -0.999960
-0.535030066967 -0.605929493904 -0.611811697483 -0.000985 0.008867 -0.999960
-0.732234716415 -0.510024309158 -0.610914409161 -0.000985 0.008867 -0.999960
-0.820124328136 -0.517173767090 -0.610930025578 -0.000985 0.008867 -0.999960
-0.204337745905 -0.469752967358 -0.610843300819 -0.000985 0.008867 -0.999960
-0.716160714626 -0.679518163204 -0.612333774567 -0.000985 0.008867 -0.999960
-0.314677596092 -0.479728639126 -0.610871136189 -0.000985 0.008867 -0.999960
-0.626909792423 -0.467002689838 -0.610608875751 -0.000985 0.008867 -0.999960
-0.807348608971 -0.681904852390 -0.612308025360 -0.000985 0.008867 -0.999960
-0.776324033737 -0.437220931053 -0.610286176205 -0.000985 0.008867 -0.999960
-0.617566585541 -0.321780174971 -0.609304785728 -0.000987 0.008884 -0.999960
-0.034462589771 -0.173140004277 -0.608176648617 -0.000987 0.008884 -0.999960
-0.451894491911 -0.266841590405 -0.608862757683 -0.000987 0.008884 -0.999960
-0.325583845377 -0.318266689777 -0.609418213367 -0.000987 0.008884 -0.999960
-0.103156693280 -0.125611633062 -0.607687413692 -0.000987 0.008884 -0.999960
-0.043972261250 -0.154477432370 -0.607993304729 -0.000987 0.008884 -0.999960
-0.232801526785 -0.179264783859 -0.608135342598 -0.000987 0.008884 -0.999960
-0.445200741291 -0.339162588120 -0.609557867050 -0.000987 0.008884 -0.999960
-0.277417719364 -0.297041773796 -0.609239459038 -0.000987 0.008884 -0.999960
-0.216339781880 -0.203140258789 -0.608372032642 -0.000987 0.008884 -0.999960
-0.184425219893 -0.337731003761 -0.609675526619 -0.000987 0.008884 -0.999960
-0.362683892250 -0.212111428380 -0.608384132385 -0.000987 0.008884 -0.999960
-0.727990269661 -0.373121470213 -0.609740316868 -0.000987 0.008884 -0.999960
-0.359612584114 -0.326489388943 -0.609479725361 -0.000987 0.008884 -0.999960
-0.484582692385 -0.188322484493 -0.608176827431 -0.000985 0.008867 -0.999960
-0.402876615524 -0.213968157768 -0.608392298222 -0.000985 0.008867 -0.999960
-0.795849561691 -0.171872779727 -0.608033180237 -0.000985 0.008867 -0.999960
-0.745944201946 -0.313751190901 -0.609216749668 -0.000985 0.008867 -0.999960
-0.077888958156 -0.066916652024 -0.607173502445 -0.000985 0.008867 -0.999960
-0.392224967480 -0.156241700053 -0.607911407948 -0.000985 0.008867 -0.999960
-0.544976115227 -0.226598650217 -0.608494579792 -0.000985 0.008867 -0.999960
-0.258032202721 -0.077472627163 -0.607257664204 -0.000985 0.008867 -0.999960
-0.735076665878 -0.207052722573 -0.608327686787 -0.000985 0.008867 -0.999960
-0.334055423737 -0.160025283694 -0.607944190502 -0.000985 0.008867 -0.999960
-0.772162079811 -0.251953840256 -0.608701109886 -0.000985 0.008867 -0.999960
-0.554852008820 -0.249073430896 -0.608681678772 -0.000985 0.008867 -0.999960
-0.757312595844 -0.070502430201 -0.607189059258 -0.000985 0.008867 -0.999960
-0.714819788933 -0.116279274225 -0.607571482658 -0.000985 0.008867 -0.999960
-0.735886812210 -0.333920985460 -0.609385013580 -0.000985 0.008867 -0.999960
-0.057346992195 -0.021567653865 -0.606734335423 -0.000985 0.008867 -0.999960
-0.077830955386 0.009064786136 -0.606435537338 -0.000985 0.008867 -0.999960
-0.325312972069 0.215092524886 -0.604423344135 -0.000985 0.008867 -0.999960
-0.488909691572 0.208700209856 -0.604481577873 -0.000985 0.008867 -0.999960
-0.451252430677 0.143388330936 -0.605118453503 -0.000985 0.008867 -0.999960
-0.660039782524 -0.016542643309 -0.606670558453 -0.000985 0.008867 -0.999960
-0.274153232574 0.030918270350 -0.606217980385 -0.000985 0.008867 -0.999960
-0.020985223353 -0.037568312138 -0.606891036034 -0.000985 0.008867 -0.999960
-0.513520419598 0.020284384489 -0.606315612793 -0.000985 0.008867 -0.999960
-0.594970047474 0.005281977355 -0.606459617615 -0.000985 0.008867 -0.999960
-0.024939132854 0.171990677714 -0.604850411415 -0.000985 0.008867 -0.999960
-0.467746615410 -0.001014791429 -0.606524109840 -0.000985 0.008867 -0.999960
-0.228775262833 0.252437233925 -0.604062080383 -0.000985 0.008867 -0.999960
-0.096609666944 0.054211400449 -0.605995535851 -0.000985 0.008867 -0.999960
-0.049833621830 0.498143017292 -0.601673960686 -0.000985 0.008867 -0.999960
-0.100112169981 0.291630119085 -0.603683650494 -0.000985 0.008867 -0.999960
-0.630502998829 -0.050322793424 -0.607000231743 -0.000985 0.008867 -0.999960
-0.104699738324 0.391674131155 -0.602709352970 -0.000985 0.008867 -0.999960
-0.659688234329 0.053513415158 -0.605988442898 -0.000985 0.008867 -0.999960
-0.041254129261 0.530877947807 -0.601355433464 -0.000985 0.008867 -0.999960
-0.573126614094 0.117390654981 -0.605368554592 -0.000985 0.008867 -0.999960
-0.351027131081 0.055558711290 -0.605976104736 -0.000985 0.008867 -0.999960
-0.045284409076 0.147269934416 -0.605090618134 -0.000985 0.008867 -0.999960
-0.337090045214 0.034338690341 -0.606183111668 -0.000985 0.008867 -0.999960
-0.043877664953 0.521435737610 -0.601447343826 -0.000985 0.008867 -0.999960
-0.287822842598 0.031344912946 -0.606213450432 -0.000985 0.008867 -0.999960
-0.284166693687 0.308350175619 -0.603516280651 -0.000985 0.008867 -0.999960
-0.501964271069 0.050247810781 -0.606024146080 -0.000985 0.008867 -0.999960
-0.268636465073 0.542949736118 -0.601533234119 0.000985 0.006896 -0.999976
-0.533579349518 0.345128506422 -0.603463292122 0.000985 0.006896 -0.999976
-0.075309768319 0.571622610092 -0.601020812988 0.000985 0.006896 -0.999976
-0.502545356750 0.400383442640 -0.602988719940 0.000985 0.006896 -0.999976
-0.810715377331 0.088182806969 -0.605869710445 0.000985 0.006896 -0.999976
-0.827728271484 0.576880753040 -0.602109968662 0.000985 0.006896 -0.999976
-0.380838394165 0.429947406054 -0.602576971054 0.000985 0.006896 -0.999976
-0.753232002258 0.322188347578 -0.603970825672 0.000985 0.006896 -0.999976
-0.651452898979 0.256973624229 -0.604323148727 0.000985 0.006896 -0.999976
-0.594365715981 0.575365185738 -0.601771295071 0.000985 0.006896 -0.999976
-0.647324919701 0.515497386456 -0.602314472198 0.000985 0.006896 -0.999976
-0.834555625916 0.366569370031 -0.603749215603 0.000985 0.006896 -0.999976
-0.235615581274 0.466101825237 -0.602078855038 0.000985 0.006896 -0.999976
-0.657316207886 0.459151118994 -0.602765917778 0.000985 0.006896 -0.999976
-0.816642045975 0.180537760258 -0.605163216591 0.000985 0.006896 -0.999976
-0.234798908234 0.551358580589 -0.601417243481 0.000985 0.006896 -0.999976
-0.634097516537 0.524603307247 -0.602224111557 0.000985 0.006896 -0.999976
-0.566934883595 0.504921734333 -0.602275729179 0.000985 0.006896 -0.999976
-0.551372110844 0.546864330769 -0.601927459240 0.000985 0.006896 -0.999976
-0.793023884296 0.012098449282 -0.606432437897 0.000985 0.006896 -0.999976
-0.845471918583 0.590748012066 -0.602029204369 0.000985 0.006896 -0.999976
-0.656106114388 0.305877298117 -0.603951334953 0.000985 0.006896 -0.999976
-0.728948831558 0.058272752911 -0.605978548527 0.000985 0.006896 -0.999976
-0.821431040764 0.242416366935 -0.604691147804 0.000985 0.006896 -0.999976
-0.539187014103 0.339616030455 -0.603514492512 0.000985 0.006896 -0.999976
-0.517397880554 0.409267097712 -0.602942228317 0.000985 0.006896 -0.999976
-0.110829837620 0.589831769466 -0.600933134556 0.000985 0.006896 -0.999976
-0.612739861012 0.565096199512 -0.601878404617 0.000985 0.006896 -0.999976
-0.728072524071 0.518177807331 -0.602414965630 0.000985 0.006896 -0.999976
-0.125172734261 0.671450078487 -0.600169479847 0.000987 0.008884 -0.999960
-0.228241592646 0.778595447540 -0.599280118942 0.000987 0.008884 -0.999960
-0.229532212019 0.860747635365 -0.598481893539 0.000987 0.008884 -0.999960
-0.659540176392 0.629443883896 -0.601378321648 0.000987 0.008884 -0.999960
-0.482771456242 0.777893781662 -0.599667847157 0.000987 0.008884 -0.999960
-0.258422434330 0.661200165749 -0.600468695164 0.000987 0.008884 -0.999960
-0.243940293789 0.840020060539 -0.598705351353 0.000987 0.008884 -0.999960
-0.409597396851 0.715506553650 -0.600166022778 0.000987 0.008884 -0.999960
-0.200856283307 0.844073653221 -0.598601400852 0.000987 0.008884 -0.999960
-0.064205691218 0.655078947544 -0.600237727165 0.000987 0.008884 -0.999960
-0.296112895012 0.850344002247 -0.598682880402 0.000987 0.008884 -0.999960
-0.257386744022 0.718412458897 -0.599909901619 0.000987 0.008884 -0.999960
-0.319607973099 0.661747097969 -0.600554943085 0.000987 0.008884 -0.999960
-0.153630852699 0.917908549309 -0.597811520100 0.000987 0.008884 -0.999960
-0.157484024763 0.640983879566 -0.600514590740 0.000987 0.008884 -0.999960
