-0.990096986294 0.393950223923 0.123646646738 -0.996381 0.011722 0.084186
-0.996149718761 -0.038196206093 0.107359841466 -0.997278 0.011609 0.072817
-0.993190109730 0.003655841574 0.139358073473 -0.996530 0.013856 0.082067
-0.991766750813 0.168860360980 0.131751388311 -0.996366 0.011747 0.084365
-0.976805448532 0.091528430581 0.140046343207 -0.571557 -0.531093 -0.625510
-0.991116821766 0.010338866152 0.159107267857 -0.993865 0.011974 0.109946
-0.988738059998 0.300300478935 0.148497998714 -0.994870 0.011882 0.100459
-0.965726077557 -0.134018301964 0.180179879069 0.015192 -0.999613 -0.023294
-0.933358013630 -0.140583366156 0.253063231707 -0.974661 -0.022611 0.222542
-0.769172728062 -0.357547819614 0.809268355370 0.177819 -0.060864 0.982179
-0.766577184200 -0.320978105068 0.810773432255 0.179664 -0.041100 0.982869
-0.805441021919 -0.741188108921 0.702868163586 0.165530 -0.461433 0.871596
-0.830604732037 -0.992923855782 0.545441627502 0.146057 -0.664034 0.733298
-0.818693101406 -0.941356241703 0.595942616463 -0.159552 0.547250 -0.821621
-0.817208290100 -0.930052995682 0.604658007622 -0.795689 -0.271507 0.541445
-0.740679204464 -0.555748939514 0.822193741798 -0.542146 -0.121289 0.831485
-0.744381606579 -0.513297200203 0.825728476048 -0.558909 -0.112365 0.821581
-0.749078154564 -0.483755528927 0.825480759144 -0.525788 -0.063095 0.848272
-0.742835104465 -0.214557632804 0.842727780342 -0.510748 -0.023154 0.859419
-0.741507768631 -0.157385677099 0.845041632652 -0.499942 -0.023033 0.865753
-0.730519056320 1.245951652527 0.854139268398 -0.436081 0.011857 0.899829
-0.735978960991 1.393979072571 0.848718583584 -0.477394 0.014710 0.878566
-0.868183732033 1.973072052002 0.645218372345 -0.960742 0.001212 0.277440
-0.903846442699 1.985904932022 0.510191380978 -0.974073 0.001172 0.226229
-0.816727995872 1.905657768250 0.761488854885 -0.833916 -0.004068 0.551876
-0.834238290787 1.967302441597 0.732250273228 -0.887728 -0.003957 0.460352
-0.858015775681 1.956936597824 0.675240039825 -0.947186 0.001238 0.320681
-0.867805600166 1.969342589378 0.646363258362 -0.947186 0.001238 0.320681
-0.838158428669 2.015032768250 0.725500524044 -0.888217 -0.009266 0.459331
-0.817158639431 2.041270017624 0.762489974499 -0.814169 0.121759 0.567718
-0.752599120140 1.513922214508 0.836048960686 -0.637238 0.015271 0.770516
-0.777171075344 1.568824052811 0.812930047512 -0.735652 0.012516 0.677244
-0.747618079185 1.333423614502 0.843056201935 -0.615999 0.012458 0.787648
-0.757555484772 1.205033779144 0.837380230427 -0.591296 0.015161 0.806312
-0.765770673752 1.115075469017 0.831796348095 -0.655197 0.012520 0.755354
-0.769001543522 1.374795794487 0.824160754681 -0.669886 0.015320 0.742306
-0.746292591095 1.079715967178 0.847699224949 -0.590006 0.012378 0.807304
-0.744748353958 0.891519606113 0.850610673428 -0.562529 0.004086 0.826768
-0.756306350231 0.900018215179 0.842742264271 -0.619451 0.006898 0.785005
-0.767386615276 0.882932841778 0.833819687366 -0.637566 0.009681 0.770335
-0.766896665096 0.539080321789 0.818598389626 -0.716707 0.001381 0.697373
-0.767524361610 0.119725681841 0.816515505314 0.177565 -0.010310 0.984055
-0.760077953339 0.232346728444 0.827096402645 -0.177962 0.012630 -0.983956
-0.753983438015 -0.197459578514 0.836259603500 -0.616849 -0.023671 0.786726
-0.766403973103 -0.149897679687 0.828115165234 -0.602681 -0.026446 0.797544
-0.746881246567 0.015427090228 0.845416128635 -0.491293 -0.014806 0.870868
-0.745137453079 0.160746574402 0.848414123058 -0.487890 -0.009357 0.872855
-0.805986583233 2.070584297180 0.767366409302 -0.694787 0.322291 0.642962
-0.801393330097 1.914586544037 0.782242417336 -0.777500 -0.001376 0.628881
-0.812074065208 -1.093871235847 0.519663453102 -0.737693 -0.342095 0.582048
-0.971259951591 0.690534532070 0.226621299982 -0.873420 -0.028437 0.486136
-0.965917289257 0.787599921227 0.243476614356 -0.945500 -0.016323 0.325212
-0.958790600300 0.367767393589 0.246477440000 -0.974395 -0.015429 0.224313
-0.962154865265 0.165268018842 0.220327153802 -0.972723 -0.013065 0.231601
-0.959584474564 0.114416293800 0.228589147329 -0.974693 -0.010633 0.223293
-0.956287622452 0.001687485725 0.236472949386 -0.974515 -0.015393 0.223795
-0.968212187290 1.907561302185 -0.212135285139 -0.997278 0.011609 -0.072817
-0.974442899227 1.774304270744 -0.211985290051 -0.799472 0.343087 0.493088
-1.026577711105 1.551648974419 -0.195762827992 -0.988109 0.153656 -0.005608
-0.966858565807 1.755791544914 -0.184802398086 -0.957505 -0.127405 -0.258750
-0.981137394905 1.668734431267 -0.111561916769 -0.997568 0.058806 -0.037422
-0.976603031158 1.774089813232 -0.103747084737 -0.999778 0.019053 -0.009025
-0.974740803242 1.913284659386 -0.089400954545 -0.999928 0.010923 -0.004965
-0.989952027798 1.488868117332 -0.027131544426 -0.999225 0.027842 0.027842
-0.989334106445 1.488344669342 -0.007120730355 -0.999021 0.028010 0.034234
-0.984764158726 1.602084517479 -0.019857287407 -0.998261 0.057371 0.013560
-0.983119845390 1.635708212852 -0.038414660841 -0.998261 0.057371 0.013560
-0.977025330067 1.767811298370 -0.021326567978 -0.999767 0.021016 0.005004
-0.979290008545 1.698114633560 0.008183105849 -0.998645 0.048943 0.017703
-1.035267710686 1.428570151329 -0.170370206237 -0.919860 0.022118 0.391623
-0.993017017841 1.411675810814 -0.064583957195 -0.999628 0.019282 0.019282
-1.018798232079 1.539621233940 -0.162301197648 -0.891869 0.166232 0.420638
-1.007524967194 1.063218474388 -0.263395309448 -0.634246 -0.012491 -0.773031
-1.009183287621 0.935687005520 -0.267069548368 -0.999569 0.003020 0.029192
-1.009084701538 0.967462122440 -0.266487896442 -0.999569 0.003020 0.029192
-1.010689020157 1.084620952606 -0.260061562061 -0.965561 -0.154646 0.209227
-1.029597163200 1.149506568909 -0.257859408855 -0.899044 -0.315480 0.303631
-0.986821472645 0.951692104340 -0.531710386276 -0.985045 -0.096949 -0.142431
-0.994464218616 0.941711068153 -0.480774134398 -0.986362 -0.019430 -0.163441
-1.007400155067 1.013786792755 -0.452818214893 -0.953341 -0.285611 -0.097812
-1.006867766380 1.000760793686 -0.415712118149 -0.986935 -0.144344 -0.071585
-0.896257460117 0.704781472683 -0.706407904625 -0.987428 -0.003362 0.158033
-0.896934986115 0.853632271290 -0.697171509266 -0.999160 -0.019551 0.036015
-0.897279679775 0.451972663403 -0.695119798183 -0.920305 0.009035 -0.391097
-0.909979879856 0.535269439220 -0.684430360794 -0.548079 0.006800 -0.836399
-0.901104748249 0.942041933537 -0.692205250263 -0.713999 -0.004159 -0.700135
-0.055715613067 2.159409761429 0.844938218594 -0.011447 0.934849 0.354861
-0.012509983964 2.173446178436 0.836087703705 0.003786 0.935020 0.354576
-0.224615380168 2.161312580109 0.844419121742 -0.155338 0.922232 0.354059
-0.075578302145 2.143137693405 0.857798337936 0.001118 0.157685 0.987489
-0.057667292655 2.200893402100 0.790317833424 0.001330 0.871255 0.490829
-0.568784952164 2.172816038132 0.773149251938 -0.144878 0.856095 0.496096
-0.342765867710 2.175159454346 0.815073668957 -0.061260 0.802073 0.594076
-0.657373487949 2.095735311508 0.828812241554 -0.183331 0.396977 0.899333
-0.427494376898 2.140609025955 0.838136374950 -0.072456 0.427901 0.900917
-0.245958209038 2.157004594803 0.846367776394 -0.172289 0.421311 0.890401
-0.287073135376 2.112137556076 0.857165634632 -0.032831 0.244407 0.969117
-0.521814286709 2.096986293793 0.848232984543 -0.079114 0.237341 0.968200
-0.572594106197 2.074361324310 0.848934710026 -0.108765 0.234166 0.966093
-0.554725885391 2.039154052734 0.857050061226 -0.089562 0.110498 0.989833
-0.212208300829 2.056348800659 0.868353247643 -0.012116 0.122263 0.992424
-0.114343792200 2.049993753433 0.869794666767 -0.005460 0.121210 0.992612
-0.057716153562 2.066067695618 0.867949962616 0.001087 0.120688 0.992690
-0.006531079300 2.079477787018 0.866302728653 0.001087 0.120688 0.992690
0.014315619133 2.030216455460 0.871798336506 0.001030 0.056668 0.998393
-0.579147040844 1.963688850403 0.861596286297 -0.080806 0.056453 0.995130
-0.663211941719 1.782113790512 0.859690070152 -0.108483 0.020820 0.993880
-0.603900969028 1.638109207153 0.868850052357 -0.073578 0.022393 0.997038
-0.544130802155 1.671879291534 0.872458338737 -0.071305 0.022349 0.997204
-0.527106642723 1.656549096107 0.873656868935 -0.051229 0.021955 0.998446
-0.525381922722 1.483442902565 0.877439498901 -0.049043 0.019826 0.998600
-0.574782431126 1.506758689880 0.873779416084 -0.071308 0.020222 0.997249
-0.594802021980 1.404733061790 0.874459087849 -0.071157 0.020179 0.997261
-0.662376523018 1.482325196266 0.866065859795 -0.157917 0.019314 0.987264
-0.655815184116 1.266435027122 0.871198475361 -0.103476 0.018517 0.994460
-0.642619609833 1.270722985268 0.872493207455 -0.103476 0.018517 0.994460
-0.512910842896 1.464251518250 0.875112056732 -0.049043 0.019826 0.998600
-0.521029531956 1.064271211624 0.885418891907 -0.046576 0.015525 0.998794
-0.565496742725 1.055816531181 0.882789731026 -0.068614 0.013723 0.997549
-0.573567628860 1.030991554260 0.882595539093 -0.068614 0.013723 0.997549
-0.631099104881 1.062646031380 0.877215504646 -0.100890 0.014103 0.994798
-0.608570694923 0.938686609268 0.881238579750 -0.105410 0.014127 0.994329
-0.628729224205 0.755019068718 0.880636096001 -0.102381 0.007544 0.994717
-0.524587333202 0.869760572910 0.887755513191 -0.046292 0.009258 0.998885
-0.506370782852 0.828294098377 0.885631322861 -0.046292 0.009258 0.998885
-0.569039285183 0.611054539680 0.886221289635 -0.067764 0.001043 0.997701
-0.653603315353 0.573024213314 0.878089666367 -0.155160 0.001116 0.987889
-0.636266350746 0.470181703568 0.879572451115 -0.106875 -0.005398 0.994258
-0.597059011459 0.470162183046 0.883778333664 -0.106875 -0.005398 0.994258
-0.560458719730 0.489507496357 0.886588335037 -0.067905 -0.003134 0.997687
-0.518129110336 0.452576190233 0.889088809490 -0.046104 -0.005123 0.998923
-0.550978839397 0.390625834465 0.886767923832 -0.066098 -0.009443 0.997768
-0.542078495026 0.230912536383 0.885849654675 -0.063742 -0.009405 0.997922
-0.598253369331 0.236528828740 0.881882548332 -0.107332 -0.009757 0.994175
-0.639007389545 0.263147056103 0.877766370773 -0.107334 -0.007589 0.994194
-0.654102146626 0.114363200963 0.874591231346 -0.159438 -0.010177 0.987156
-0.687515139580 -0.514618158340 0.846432268620 -0.226627 -0.083889 0.970362
-0.667815208435 -0.469249784946 0.853614032269 -0.128575 -0.093187 0.987312
-0.667506337166 -0.443224817514 0.856205523014 -0.139754 -0.096753 0.985448
-0.642950356007 -0.218151956797 0.869441092014 -0.073425 -0.020219 0.997096
-0.596064150333 -0.027187155560 0.878513157368 -0.103701 -0.018557 0.994435
-0.516391336918 0.118514314294 0.885734915733 -0.042270 -0.013403 0.999016
-0.504012763500 0.227895155549 0.884475767612 -0.042099 -0.009241 0.999071
-0.603831946850 -0.463295847178 0.860341310501 -0.071754 -0.103644 0.992023
-0.617855727673 -0.676089584827 0.819641590118 -0.087713 -0.302413 0.949133
-0.676604092121 -0.715123772621 0.796727418900 -0.177538 -0.399821 0.899235
-0.561547517776 -0.717721164227 0.809505701065 -0.080874 -0.415337 0.906065
-0.467391431332 -0.390862584114 0.870179712772 -0.020063 -0.062300 0.997856
-0.466565698385 -0.066001832485 0.883913755417 -0.029904 -0.025780 0.999220
-0.383491992950 0.637512803078 0.893755614758 0.999821 -0.000995 0.018902
-0.438370138407 1.975866913795 0.869091570377 -0.037347 0.056554 0.997701
-0.476539790630 1.689382433891 0.875489592552 -0.051229 0.021955 0.998446
-0.407023996115 1.583566427231 0.880277752876 -0.031902 0.021611 0.999257
-0.432155966759 1.697675228119 0.877017796040 -0.033958 0.021610 0.999190
-0.393911242485 1.364048838615 0.885174453259 -0.031838 0.019514 0.999303
-0.467473924160 1.520830512047 0.879527270794 -0.049043 0.019826 0.998600
-0.445314764977 1.252952218056 0.885590314865 -0.031774 0.017424 0.999343
-0.422828018665 1.275712132454 0.885881423950 -0.031774 0.017424 0.999343
-0.434547334909 1.086230874062 0.888775467873 -0.031645 0.015312 0.999382
-0.441922545433 1.064988970757 0.888861238956 -0.029606 0.015313 0.999444
-0.475709915161 1.150290489197 0.886241674423 -0.046768 0.017668 0.998750
-0.475970834494 0.953682303429 0.889152467251 -0.046576 0.015525 0.998794
-0.482066124678 0.889046430588 0.889563024044 -0.046292 0.009258 0.998885
-0.458215355873 0.751860141754 0.891880214214 -0.046292 0.009258 0.998885
-0.433430224657 0.862068653107 0.891698122025 -0.029428 0.009133 0.999525
-0.396979689598 0.779556512833 0.893538773060 -0.029428 0.009133 0.999525
-0.441661238670 0.614259362221 0.892808079720 -0.031266 0.003026 0.999507
-0.462812304497 0.632980406284 0.891980826855 -0.046010 0.003067 0.998936
-0.399174451828 0.591854274273 0.894138574600 -0.029251 0.003026 0.999568
-0.399399191141 0.440959304571 0.893603265285 -0.029250 -0.005043 0.999559
-0.313887268305 1.878482460976 0.876157641411 -0.019475 0.029725 0.999368
-0.205054998398 1.988371253014 0.873617529869 -0.011451 0.057254 0.998294
-0.097272805870 1.983283996582 0.874435186386 -0.003104 0.056902 0.998375
-0.012258576229 2.006278514862 0.873162090778 0.001030 0.056668 0.998393
-0.073015049100 1.948253154755 0.876006603241 0.001005 0.029133 0.999575
-0.150614351034 1.963633537292 0.875347852707 -0.003026 0.029251 0.999568
-0.144136726856 1.784386038780 0.879931688309 -0.002996 0.020974 0.999776
-0.173309326172 1.860680103302 0.878271639347 -0.002996 0.020974 0.999776
-0.053321287036 1.882541298866 0.877931833267 0.001005 0.029133 0.999575
-0.051052711904 1.747226595879 0.879292786121 0.010880 0.999940 0.000989
-0.213138431311 1.754259467125 0.876836180687 -0.009043 0.021100 0.999736
-0.091956421733 1.744057655334 0.880920827389 -0.002996 0.020974 0.999776
-0.377129971981 -0.032452661544 0.883584618568 -0.025675 -0.027729 0.999286
-0.384054869413 -0.295114636421 0.874223351479 0.999820 -0.000997 0.018940
-0.249325513840 -0.563677966595 0.854229569435 0.004907 0.999987 0.000981
-0.417230129242 -0.577792525291 0.851723134518 -0.019759 -0.187129 0.982137
-0.468824863434 -0.619057476521 0.842679858208 -0.029251 -0.188376 0.981661
-0.543688595295 -0.748315274715 0.797560870647 -0.086276 -0.403989 0.910686
-0.463286936283 -0.746247291565 0.804144740105 -0.052037 -0.396282 0.916653
-0.391384691000 -0.687247753143 0.827536702156 -0.036353 -0.289572 0.956466
-0.463510692120 -0.715315818787 0.816271305084 -0.031275 -0.296490 0.954524
-0.370257318020 -0.713644027710 0.820239245892 -0.031247 -0.291218 0.956146
-0.325755923986 -0.662065148354 0.837289810181 -0.028612 -0.289854 0.956643
-0.211912870407 -0.638777792454 0.844334125519 -0.019714 -0.186703 0.982219
-0.115443728864 -0.583794713020 0.856295704842 -0.015036 -0.188526 0.981953
-0.104085467756 -0.751632511616 0.815379619598 -0.016050 -0.290141 0.956849
-0.211531683803 -0.737357735634 0.817673504353 -0.026064 -0.289185 0.956918
-0.262234032154 -0.699003696442 0.827932476997 -0.026064 -0.289185 0.956918
-0.226863801479 -0.768355250359 0.805459499359 -0.032695 -0.385802 0.922002
-0.198758497834 -0.764342665672 0.808110237122 -0.022110 -0.386275 0.922118
-0.091658428311 -0.770110666752 0.808092951775 -0.009001 -0.387064 0.922009
-0.004553366452 -0.680223047733 0.837876081467 -0.006126 -0.290376 0.956893
-0.003348357277 -0.629168093204 0.848158657551 0.001140 -0.181191 0.983447
-0.022427793592 -0.498822569847 0.866897702217 -0.001083 -0.115898 0.993261
-0.094982221723 -0.401753753424 0.874652206898 -0.005213 -0.065688 0.997827
-0.040447972715 -0.393463075161 0.875439405441 -0.003128 -0.065688 0.997835
-0.056356973946 -0.262244641781 0.882631421089 -0.003055 -0.041757 0.999123
-0.025810647756 -0.218984916806 0.881179273129 -0.003055 -0.041757 0.999123
-0.103228949010 -0.080571092665 0.888879060745 -0.007061 -0.025218 0.999657
-0.177234679461 -0.036540105939 0.889541685581 -0.005043 -0.027235 0.999616
-0.120546236634 0.033255521208 0.891739308834 -0.004994 -0.016980 0.999843
-0.115241616964 0.095205046237 0.892794370651 -0.002985 -0.014924 0.999884
-0.093160949647 0.190767467022 0.894328236580 -0.002985 -0.014924 0.999884
-0.166400790215 0.203478634357 0.891030073166 -0.002985 -0.016913 0.999852
-0.280741453171 0.238785043359 0.893922567368 -0.008972 -0.010966 0.999900
-0.189210847020 0.376574128866 0.896352648735 -0.008972 -0.010966 0.999900
-0.148990377784 0.339980393648 0.896072626114 -0.002973 -0.010901 0.999936
-0.095572523773 0.391800493002 0.896815240383 -0.002956 -0.004926 0.999984
-0.098184943199 0.471607863903 0.897162675858 -0.002950 -0.004916 0.999984
-0.030602853745 0.540231764317 0.897495448589 -0.000981 -0.004907 0.999987
-0.072080463171 0.691956698895 0.897275745869 -0.000979 0.002938 0.999995
0.005070512183 0.887312114239 0.895878016949 0.000985 0.008867 0.999960
-0.081709302962 0.797143399715 0.896670699120 0.000985 0.008867 0.999960
-0.048055492342 0.982472777367 0.894777715206 0.000991 0.014865 0.999889
-0.041970055550 1.134644865990 0.892618477345 0.000991 0.014865 0.999889
-0.012452244759 1.216910004616 0.891197443008 0.000993 0.016879 0.999857
-0.078512117267 1.334973216057 0.889129400253 0.000993 0.016879 0.999857
-0.029446981847 1.354056000710 0.888792037964 0.000995 0.018902 0.999821
-0.001922762953 1.541124939919 0.885119438171 0.000995 0.018902 0.999821
-0.042614862323 1.630219459534 0.883291244507 0.000997 0.020933 0.999780
-0.017478825524 1.688401341438 0.882085621357 0.000997 0.020933 0.999780
-0.087717264891 1.603238582611 0.883849620819 -0.002996 0.020974 0.999776
-0.210504069924 1.595117568970 0.883503735065 -0.009043 0.021100 0.999736
-0.285132020712 1.707279205322 0.880446910858 -0.019281 0.021311 0.999587
-0.344153434038 1.575414180756 0.882098734379 -0.019281 0.021311 0.999587
-0.360691905022 1.397870898247 0.885379493237 -0.017218 0.019244 0.999667
-0.204862222075 1.386547088623 0.887711882591 -0.009043 0.019091 0.999777
-0.233528390527 1.517330050468 0.884874463081 -0.009043 0.019091 0.999777
-0.176267236471 1.474128246307 0.886182367802 -0.002996 0.018978 0.999815
-0.114045299590 1.395425558090 0.887909412384 -0.002996 0.018978 0.999815
-0.148065984249 1.305657386780 0.889476716518 -0.002991 0.016947 0.999852
-0.179118052125 1.145664930344 0.892211139202 -0.002991 0.016947 0.999852
-0.241086915135 1.217094063759 0.890476644039 -0.009007 0.017014 0.999815
-0.271000742912 1.320298433304 0.888385534286 -0.009025 0.017048 0.999814
-0.282044202089 1.193169474602 0.890546202660 -0.017184 0.017184 0.999705
-0.339626669884 1.156775236130 0.890182554722 -0.017184 0.017184 0.999705
-0.367324054241 0.994645357132 0.892115294933 -0.017115 0.015102 0.999739
-0.300573080778 0.971115887165 0.893598198891 -0.017115 0.015102 0.999739
-0.221162870526 0.934905588627 0.894930899143 -0.008990 0.014983 0.999847
-0.188229426742 0.976864516735 0.894597768784 -0.008990 0.014983 0.999847
-0.101836375892 1.127418160439 0.892689228058 -0.002979 0.014894 0.999885
-0.126235842705 1.015394091606 0.894219040871 -0.002979 0.014894 0.999885
-0.175382614136 0.956031620502 0.894937455654 -0.002979 0.014894 0.999885
-0.154069796205 0.869440019131 0.895873069763 -0.002961 0.008884 0.999956
-0.177773743868 0.905090212822 0.895500659943 -0.002961 0.008884 0.999956
-0.237982124090 0.815673053265 0.895858526230 -0.006951 0.008937 0.999936
-0.274971276522 0.770809292793 0.895958364010 -0.008937 0.008937 0.999920
-0.348381310701 0.884092569351 0.893762052059 -0.017014 0.009007 0.999815
-0.365809321404 0.593138813972 0.895073711872 -0.016913 0.002985 0.999852
-0.348000735044 0.453200519085 0.894893288612 -0.016947 -0.004984 0.999844
-0.356635302305 0.558648586273 0.895251333714 -0.016947 -0.004984 0.999844
-0.227960795164 0.512848317623 0.896744370461 -0.008902 -0.004945 0.999948
-0.251667827368 0.618990242481 0.896673321724 -0.008884 0.002961 0.999956
-0.214272454381 0.682081401348 0.896828413010 -0.008884 0.002961 0.999956
-0.127072274685 0.707933902740 0.897139549255 -0.002944 0.002944 0.999991
-0.102180078626 0.617683053017 0.897418320179 -0.002944 0.002944 0.999991
-0.330606341362 0.567606151104 0.895725846291 -0.016913 0.002985 0.999852
-0.309871971607 0.205923303962 0.892666637897 -0.010880 -0.999940 -0.000989
-0.295967370272 0.196859210730 0.889724612236 -0.017184 -0.017184 0.999705
-0.247904673219 0.109368197620 0.892055273056 -0.009025 -0.017048 0.999814
-0.285193711519 0.091062001884 0.891352295876 -0.017184 -0.017184 0.999705
-0.341142714024 0.091358169913 0.890408098698 -0.017149 -0.017149 0.999706
-0.370740145445 -0.197662129998 0.878556787968 -0.894028 -0.447678 -0.017269
-0.287339597940 -0.018950996920 0.888829469681 -0.015283 -0.027509 0.999505
-0.324924081564 -0.033588647842 0.887813627720 -0.017320 -0.027508 0.999471
-0.228482365608 -0.052520871162 0.888616621494 -0.011140 -0.027344 0.999564
-0.215141996741 0.117821998894 0.892542123795 -0.011031 -0.017048 0.999794
-0.250431686640 -0.158043593168 0.885268032551 -0.013375 -0.042183 0.999020
-0.186822369695 -0.213806703687 0.880387067795 -0.009222 -0.042012 0.999075
-0.231597289443 -0.201639115810 0.883679330349 -0.013375 -0.042183 0.999020
-0.225039824843 -0.292397230864 0.879963755608 -0.013375 -0.042183 0.999020
-0.331527352333 -0.280697494745 0.878931105137 -0.015496 -0.042356 0.998982
-0.348761618137 -0.313203930855 0.877160966396 -0.015805 -0.064273 0.997807
-0.302072614431 -0.436666011810 0.869804024696 -0.015803 -0.066371 0.997670
-0.256332606077 -0.454466164112 0.869287788868 -0.013667 -0.066234 0.997711
-0.160843864083 -0.397320955992 0.874271392822 -0.009443 -0.066098 0.997768
-0.179810881615 -0.309071660042 0.879805266857 -0.009222 -0.042012 0.999075
-0.109669700265 -0.446495264769 0.871554911137 -0.009443 -0.066098 0.997768
-0.117883309722 -0.470831543207 0.869451105595 -0.012000 -0.110184 0.993839
-0.144957438111 -0.561965882778 0.855604290962 -0.012000 -0.110184 0.993839
-0.052291858941 0.401818573475 0.896884560585 -0.000981 -0.004907 0.999987
-0.005252384581 0.326191097498 0.896171391010 -0.000987 -0.010858 0.999941
-0.051029480994 0.232671976089 0.895031511784 -0.002973 -0.012883 0.999913
-0.031551305205 0.203078716993 0.892847359180 -0.008972 -0.999900 0.010966
-0.033627435565 0.099818095565 0.893059194088 -0.000993 -0.016879 0.999857
0.005978598259 -0.060917541385 0.889697790146 -0.001003 -0.025067 0.999685
-0.073566131294 -0.087362781167 0.888829350471 -0.003014 -0.027126 0.999627
-0.583959937096 0.165411844850 0.882433712482 -0.063873 -0.011518 0.997892
-0.603688836098 0.106394693255 0.879783093929 -0.105413 -0.011954 0.994357
-0.607194125652 0.090310238302 0.879229128361 -0.102820 -0.009741 0.994652
-0.630120873451 0.028422210366 0.876061081886 -0.103476 -0.018517 0.994460
-0.814295589924 0.136681362987 0.718706369400 -0.940474 -0.013886 0.339581
-0.812639415264 0.289840698242 0.729624748230 -0.938584 -0.011369 0.344863
-0.850429356098 0.421705663204 0.612549901009 -0.962425 -0.010950 0.271328
-0.868745684624 0.457315355539 0.545806884766 -0.967446 -0.018117 0.252430
-0.873202383518 0.546986460686 0.534648001194 -0.970337 -0.017991 0.241085
-0.889521360397 0.591451883316 0.472594827414 -0.970197 -0.018033 0.241647
-0.891982793808 0.471029847860 0.453330546618 -0.972394 -0.017897 0.232659
-0.904253423214 0.548100292683 0.407862931490 -0.971719 -0.017928 0.235460
-0.914152324200 0.422373503447 0.357020825148 -0.973097 -0.015484 0.229875
-0.915032982826 0.632516860962 0.367804825306 -0.973874 -0.015421 0.226565
-0.926316916943 0.597827911377 0.316833078861 -0.974515 -0.015393 0.223795
-0.934536874294 0.620325446129 0.282438248396 -0.974515 -0.015393 0.223795
-0.924301326275 -0.050087098032 0.286448717117 -0.974395 -0.015429 0.224313
-0.924168169498 0.118929371238 0.296428978443 -0.973408 -0.010671 0.228828
-0.930765390396 0.388021707535 0.283667176962 -0.973907 -0.013049 0.226573
-0.925506412983 0.471152812243 0.311683088541 -0.974515 -0.015393 0.223795
-0.916007518768 0.345486044884 0.343874126673 -0.972562 -0.015475 0.232129
-0.916207134724 0.128625065088 0.330557405949 -0.972751 -0.010690 0.231607
-0.905704557896 0.170246243477 0.376670897007 -0.972751 -0.010690 0.231607
-0.907568752766 0.015703584999 0.360910385847 -0.972723 -0.013065 0.231601
-0.907604098320 -0.072150096297 0.356073021889 -0.973256 -0.013072 0.229351
-0.891076326370 0.156488373876 0.436273723841 -0.971923 -0.013118 0.234931
-0.897374391556 0.285391479731 0.417940378189 -0.971758 -0.015539 0.235469
-0.898005545139 0.396505564451 0.422976225615 -0.971890 -0.015503 0.234923
-0.906655430794 0.257382780313 0.377469062805 -0.973097 -0.015484 0.229875
-0.883659958839 0.308093637228 0.475723296404 -0.970337 -0.017991 0.241085
-0.854485154152 0.003659009933 0.573947846889 -0.967826 -0.013225 0.251274
-0.869345843792 0.084195703268 0.520218729973 -0.968557 -0.013202 0.248440
-0.858513832092 0.196389585733 0.568764626980 -0.969133 -0.013210 0.246186
-0.864835560322 0.287452340126 0.549257755280 -0.969099 -0.015611 0.246178
-0.860668480396 0.399178296328 0.572792708874 -0.967446 -0.018117 0.252430
-0.846171081066 0.165754377842 0.613812208176 -0.964622 -0.013347 0.263299
-0.840613663197 0.110169753432 0.631139099598 -0.964622 -0.013347 0.263299
-0.842076599598 -0.028033189476 0.617682278156 -0.963831 -0.013370 0.266178
-0.822970986366 -0.026269204915 0.683068990707 -0.955908 -0.018549 0.293079
-0.831024289131 0.106027700007 0.664528191090 -0.956849 -0.016050 0.290141
-0.823964595795 0.227472588420 0.693940341473 -0.956196 -0.013572 0.292411
-0.805239439011 -0.012506276369 0.736063480377 -0.940620 -0.019041 0.338928
-0.788564920425 0.030521446839 0.776683926582 -0.906275 -0.019730 0.422227
-0.799520969391 0.082309477031 0.755896270275 -0.903292 -0.019780 0.428569
-0.820122539997 0.563078284264 0.716019511223 -0.946656 -0.006220 0.322186
-0.835702359676 0.603019237518 0.670926392078 -0.939696 -0.011352 0.341822
-0.838447868824 0.656701207161 0.664312303066 -0.953938 -0.008639 0.299880
-0.852646589279 0.707567214966 0.619912028313 -0.958177 -0.013495 0.285858
-0.879059672356 0.781408905983 0.526775598526 -0.969670 -0.015620 0.243919
-0.878056585789 0.603459358215 0.519289731979 -0.969813 -0.015584 0.243352
-0.903616011143 0.785501122475 0.426608502865 -0.972562 -0.015475 0.232129
-0.909048616886 0.662490785122 0.395518213511 -0.973874 -0.015421 0.226565
-0.929374754429 0.802922666073 0.316705852747 -0.974666 -0.012996 0.223287
-0.898151040077 0.853598535061 0.453184694052 -0.972751 -0.010690 0.231607
-0.888887345791 0.827100276947 0.490343511105 -0.969278 -0.013179 0.245614
-0.876874148846 0.855596423149 0.539035558701 -0.969306 -0.010783 0.245621
-0.849360585213 0.901118040085 0.637404322624 -0.950837 -0.011186 0.309488
-0.803713977337 0.867569684982 0.756218254566 -0.916186 0.001289 0.400751
-0.804006755352 0.598576545715 0.756340742111 -0.916599 0.001286 0.399807
-0.809213399887 0.631560623646 0.744049787521 -0.926251 -0.003833 0.376888
-0.780359148979 0.780305445194 0.796915292740 -0.810552 0.006857 0.585627
-0.934582650661 0.978743255138 0.302468359470 -0.975710 0.003514 0.219037
-0.926075339317 1.502120375633 0.331060171127 -0.980100 0.008119 0.198340
-0.919563531876 1.711564660072 0.353571861982 -0.981166 0.008090 0.192997
-0.923545897007 1.825593113899 0.328660726547 -0.981145 0.010401 0.192993
-0.900218427181 1.815377593040 0.441989660263 -0.978085 0.003489 0.208177
-0.915802896023 1.742911815643 0.371096402407 -0.977973 0.005828 0.208650
-0.903327703476 1.575940012932 0.435167044401 -0.977375 0.008174 0.211356
-0.911994040012 1.544957756996 0.396043568850 -0.977495 0.005825 0.210878
-0.909354805946 1.433879852295 0.411488205194 -0.976783 0.008189 0.214073
-0.916080951691 1.104649424553 0.384271293879 -0.975822 -0.003506 0.218537
-0.890012204647 1.123483181000 0.496714532375 -0.972648 -0.003537 0.232257
-0.888589620590 1.084105372429 0.501553237438 -0.968344 -0.005970 0.249549
-0.866162002087 1.152249097824 0.587705910206 -0.959503 -0.006096 0.281633
-0.840870082378 1.101505517960 0.667141139507 -0.946668 -0.003732 0.322190
-0.823193728924 1.035220861435 0.712725400925 -0.932691 -0.001266 0.360674
-0.803105294704 0.949575304985 0.757371246815 -0.907768 -0.001299 0.419470
-0.807625353336 1.023879647255 0.747664034367 -0.900357 0.001307 0.435151
-0.777527987957 0.977232158184 0.798343658447 -0.806018 0.009612 0.591812
-0.793771207333 1.142936468124 0.771940112114 -0.857723 0.004027 0.514097
-0.839468002319 1.230051279068 0.672292828560 -0.946173 -0.001240 0.323658
-0.847479820251 1.224097490311 0.648810505867 -0.945907 -0.003729 0.324417
-0.856440722942 1.207679867744 0.621278166771 -0.959249 -0.001213 0.282560
-0.886235594749 1.316143274307 0.512813150883 -0.968656 0.001189 0.248404
-0.903044104576 1.376125335693 0.441442251205 -0.973432 0.001174 0.228974
-0.901107370853 1.336106538773 0.449887067080 -0.973308 0.001177 0.229498
-0.887239873409 1.408372282982 0.508275568485 -0.973826 0.003533 0.227265
-0.902617454529 1.445020556450 0.441854447126 -0.973816 0.005888 0.227263
-0.881045579910 1.522486925125 0.530870735645 -0.969075 0.003576 0.246739
-0.859028160572 1.367863178253 0.613219022751 -0.959249 0.001213 0.282560
-0.845955073833 1.374625444412 0.654119729996 -0.945148 0.001242 0.326641
-0.836525917053 1.373774647713 0.681484043598 -0.945912 -0.001243 0.324419
-0.834442436695 1.485223650932 0.686637163162 -0.923189 -0.001277 0.384343
-0.815303087234 1.346041321754 0.730817019939 -0.894688 0.001310 0.446689
-0.794459342957 1.466826319695 0.767059326172 -0.843320 0.004061 0.537396
-0.817625224590 1.540227770805 0.725486874580 -0.890978 0.001316 0.454044
-0.908358454704 1.838996529579 0.403256654739 -0.978085 0.003489 0.208177
0.814961612225 0.194223999977 0.768484711647 0.898706 -0.019854 0.438103
0.812098562717 0.669683516026 0.784839987755 0.884423 -0.003966 0.466669
0.822713136673 0.537598311901 0.763421654701 0.892530 -0.009256 0.450893
0.829008281231 0.363752841949 0.743454337120 0.933647 -0.014011 0.357919
0.827507436275 0.453182339668 0.750356256962 0.934027 -0.008895 0.357091
0.837400138378 0.520754396915 0.727373182774 0.925966 -0.014166 0.377341
0.831190288067 0.716377973557 0.748224854469 0.916701 -0.006465 0.399521
0.829984128475 0.838102400303 0.752805888653 0.916701 -0.006465 0.399521
0.826449096203 0.896316528320 0.761104166508 0.868154 -0.004013 0.496279
0.857433617115 0.668803274632 0.677613496780 0.939808 -0.019024 0.341172
0.848176896572 0.691235125065 0.704542756081 0.946858 -0.011257 0.321456
0.857867360115 0.564627528191 0.671223342419 0.952907 -0.018684 0.302688
0.812502384186 0.020083419979 0.763876199722 0.903171 -0.027851 0.428376
0.892833232880 0.045903164893 0.497531771660 0.970152 -0.020437 0.241636
0.880590260029 0.011345956475 0.543124616146 0.968720 -0.020508 0.247307
0.884422302246 -0.054759614170 0.522667467594 0.967784 -0.023014 0.250728
0.867638826370 0.083853907883 0.598940730095 0.964560 -0.023228 0.262840
0.843847572803 0.195297300816 0.691266357899 0.956288 -0.023566 0.291476
0.871578752995 0.175449162722 0.592307507992 0.964730 -0.023173 0.262221
0.880772173405 0.177418276668 0.556518137455 0.968520 -0.022974 0.247873
0.884160459042 0.161492213607 0.541866600513 0.968571 -0.020556 0.247886
0.890855073929 0.214995145798 0.520207405090 0.970152 -0.020437 0.241636
0.902466535568 0.177376851439 0.470034033060 0.970713 -0.020449 0.239370
0.912061035633 0.203948035836 0.433140277863 0.971540 -0.020365 0.235997
0.908610999584 -0.055735725909 0.425316900015 0.971540 -0.020365 0.235997
0.911182224751 -0.078898072243 0.412691056728 0.972087 -0.020377 0.233732
0.932406246662 0.017250729725 0.332719951868 0.972219 -0.020329 0.233189
0.932922840118 -0.050995126367 0.324321985245 0.972759 -0.020341 0.230926
0.947170138359 -0.016610737890 0.266788244247 0.973898 -0.022704 0.225849
0.951573193073 0.144972696900 0.262484818697 0.974192 -0.020221 0.224814
0.951316416264 0.131386518478 0.262430727482 0.973545 -0.020257 0.227597
0.940368413925 0.100532092154 0.306431710720 0.973545 -0.020257 0.227597
0.939117550850 0.090182319283 0.310877442360 0.972759 -0.020341 0.230926
0.938346982002 0.319529831409 0.334896832705 0.972579 -0.022785 0.231452
0.921641230583 0.387010484934 0.412026405334 0.971904 -0.022826 0.234266
0.896887183189 0.275610178709 0.501785218716 0.970466 -0.025317 0.239904
0.892954945564 0.311080396175 0.521265685558 0.970326 -0.025376 0.240467
0.902656495571 0.415066599846 0.492814004421 0.970326 -0.025376 0.240467
0.878712356091 0.529870212078 0.597235321999 0.965344 -0.023188 0.259947
0.886638581753 0.678456246853 0.580169022083 0.965562 -0.020699 0.259350
0.874474763870 0.841503739357 0.634424686432 0.950251 -0.018730 0.310923
0.900747656822 0.758440792561 0.535275936127 0.969098 -0.022987 0.245602
0.901644527912 0.798682630062 0.535326719284 0.969441 -0.020473 0.244468
0.907518148422 0.850343585014 0.516250193119 0.968720 -0.020508 0.247307
0.922750532627 0.840725481510 0.453605532646 0.972219 -0.020329 0.233189
0.927770972252 0.771568536758 0.426359355450 0.972579 -0.022785 0.231452
0.917478799820 0.743712902069 0.466764777899 0.972579 -0.022785 0.231452
0.909847855568 0.645891785622 0.488130778074 0.969816 -0.022947 0.242756
0.898766160011 0.552322387695 0.522797763348 0.969615 -0.025421 0.243312
0.913878321648 0.516093194485 0.458077311516 0.972393 -0.025241 0.231980
0.926851987839 0.458804309368 0.397931963205 0.971848 -0.025227 0.234253
0.933422267437 0.423902273178 0.366436272860 0.973061 -0.025196 0.229167
0.934375107288 0.540028631687 0.374794960022 0.973898 -0.022704 0.225849
0.945333719254 0.444934964180 0.317734092474 0.974541 -0.022664 0.223059
0.944695532322 0.283477425575 0.304532289505 0.973244 -0.022745 0.228646
0.952306687832 0.223188593984 0.266164004803 0.974020 -0.022652 0.225324
0.952599883080 0.224117144942 0.264980316162 0.974020 -0.022652 0.225324
0.954911887646 0.633065879345 0.295465111732 0.974541 -0.022664 0.223059
0.950866460800 0.667187213898 0.316547781229 0.974541 -0.022664 0.223059
0.938820123672 0.813351809978 0.383013337851 0.974236 -0.017843 0.224824
0.947398304939 0.917910575867 0.354255467653 0.974357 -0.017802 0.224304
0.920097112656 0.899842560291 0.469642311335 0.972931 -0.017907 0.230400
0.957856297493 0.861850142479 0.304791659117 0.973589 -0.017875 0.227608
0.963151693344 0.756184875965 0.271916300058 0.974070 -0.020268 0.225336
0.866601586342 0.502292037010 0.636599242687 0.958071 -0.023488 0.285567
0.866841137409 0.477144926786 0.633986115456 0.962598 -0.018347 0.270310
0.863927185535 0.254362165928 0.627142786980 0.964560 -0.023228 0.262840
0.875382840633 0.399208098650 0.597931087017 0.967573 -0.025494 0.251302
0.829828917980 0.920342564583 0.754588127136 0.907291 -0.006509 0.420452
0.847046375275 1.460130810738 0.726671159267 0.890428 -0.003957 0.455107
0.853701114655 1.571887493134 0.714208185673 0.923324 -0.006421 0.383969
0.857518315315 1.533976912498 0.704357206821 0.923324 -0.006421 0.383969
0.840525925159 0.921115577221 0.731411814690 0.909229 -0.011740 0.416132
0.876554071903 1.018730998039 0.637812793255 0.948843 -0.013715 0.315450
0.866179764271 1.133144378662 0.673061847687 0.946094 -0.011248 0.323697
0.865497291088 1.159679532051 0.675899922848 0.946118 -0.008749 0.323705
0.882318556309 1.520205259323 0.636562108994 0.960538 -0.006072 0.278082
0.884895026684 0.966123461723 0.608274221420 0.960555 -0.013460 0.277765
0.901379585266 0.972807407379 0.550204932690 0.968720 -0.020508 0.247307
0.916553378105 1.165214776993 0.501285076141 0.968557 -0.013202 0.248440
0.901757121086 1.119386315346 0.556513428688 0.968557 -0.013202 0.248440
0.913644313812 1.267421960831 0.516177833080 0.968755 -0.008382 0.247877
0.908479154110 1.406039953232 0.539987385273 0.968355 -0.003582 0.249551
0.912769794464 1.567239880562 0.526080250740 0.969220 -0.003568 0.246170
0.918240725994 1.684043884277 0.504564285278 0.974582 -0.003518 0.224001
0.922740459442 1.419423937798 0.482428312302 0.973303 -0.003531 0.229497
0.926732182503 1.364706039429 0.464443743229 0.973694 -0.005901 0.227785
0.932277023792 1.290908336639 0.438753396273 0.973042 -0.005912 0.230551
0.934382557869 1.120373129845 0.423644423485 0.973408 -0.010671 0.228828
0.952457845211 1.089646339417 0.342175871134 0.978530 -0.008145 0.205945
0.960865020752 1.317865371704 0.307468265295 0.978758 -0.001158 0.205018
0.949804842472 1.548203825951 0.362254112959 0.976541 -0.001164 0.215328
0.954859137535 1.740660071373 0.336110919714 0.981453 -0.001148 0.191699
0.958991587162 1.732836604118 0.315167307854 0.981019 0.001147 0.193909
0.958637177944 1.679584264755 0.317436188459 0.980927 0.003450 0.194345
0.941586017609 1.176222920418 0.394310504198 0.975938 -0.010595 0.217791
0.942606508732 1.039077997208 0.383301973343 0.974833 -0.008251 0.222785
0.724481403828 -1.363585829735 0.357940107584 0.192593 -0.538352 0.820418
0.680687487125 -1.368720054626 0.364958882332 0.195998 -0.539375 0.818938
0.702998697758 -1.317871451378 0.393387168646 0.192751 -0.550935 0.811984
0.510354220867 -0.783330261707 0.765892088413 0.066674 -0.420454 0.904861
0.307344913483 -0.821757912636 0.759651720524 0.041207 -0.405423 0.913200
-0.026831317693 -0.805719017982 0.772587776184 -0.009075 -0.405761 0.913934
-0.262680441141 -0.795256018639 0.771774828434 -0.033045 -0.405794 0.913367
-0.748894751072 -1.073671936989 0.538329660892 -0.394043 -0.491338 0.776735
-0.751557111740 -1.437743186951 0.296908438206 -0.276429 -0.501321 0.819917
-0.636320531368 -1.044655561447 0.590057790279 -0.182905 -0.545692 0.817782
-0.618372559547 -0.853823840618 0.712658941746 -0.152122 -0.515441 0.843315
-0.556786417961 -0.787003099918 0.757436871529 -0.103651 -0.481338 0.870385
-0.574372708797 -0.903627514839 0.689370512962 -0.119998 -0.510353 0.851552
-0.570878505707 -0.965893089771 0.651827156544 -0.136623 -0.536207 0.832957
-0.598688840866 -1.036963820457 0.601699829102 -0.142830 -0.531562 0.834890
-0.710772871971 -1.475809574127 0.286714673042 -0.140067 -0.535203 0.833030
-0.718557953835 -1.458300948143 0.295283794403 -0.269105 -0.505545 0.819760
-0.631489813328 -1.480722188950 0.297017633915 -0.130971 -0.548903 0.825562
-0.567564070225 -1.476009488106 0.310172259808 -0.127457 -0.546452 0.827735
-0.586303889751 -1.424634456635 0.341314762831 -0.127561 -0.549830 0.825479
-0.562198281288 -1.351592183113 0.393788307905 -0.127870 -0.551164 0.824541
-0.537171781063 -1.107401490211 0.564255475998 -0.121391 -0.554305 0.823414
-0.567072689533 -1.067269444466 0.587044596672 -0.118316 -0.556521 0.822366
-0.525728642941 -0.962782323360 0.660226821899 -0.104525 -0.508304 0.854811
-0.474338978529 -0.933214128017 0.684018135071 -0.083453 -0.510619 0.855747
-0.410475045443 -1.047008752823 0.619752883911 -0.090215 -0.534130 0.840575
-0.490057319403 -1.069437742233 0.596717238426 -0.096676 -0.558412 0.823911
-0.467280983925 -1.203765511513 0.507650017738 -0.097121 -0.569681 0.816108
-0.476838380098 -1.288154125214 0.448452949524 -0.099771 -0.559583 0.822747
-0.540715694427 -1.423041939735 0.349222391844 -0.099694 -0.556264 0.825004
-0.475050747395 -1.447069406509 0.340785592794 -0.096906 -0.559743 0.822981
-0.513654589653 -1.512546300888 0.291741997004 -0.090522 -0.556065 0.826195
-0.419138997793 -1.385419607162 0.388239026070 -0.072795 -0.566660 0.820730
-0.342791467905 -1.319785714149 0.440001070499 -0.072742 -0.563392 0.822981
-0.359179645777 -1.279131054878 0.466373264790 -0.072742 -0.563392 0.822981
-0.395694911480 -1.250883698463 0.482715338469 -0.072847 -0.569924 0.818462
-0.357249438763 -1.219915509224 0.507768213749 -0.072847 -0.569924 0.818462
-0.377983957529 -1.158117651939 0.548693835735 -0.069687 -0.558918 0.826289
-0.392950713634 -1.035667419434 0.628692686558 -0.066376 -0.538065 0.840286
-0.330867469311 -1.057657837868 0.619596242905 -0.066218 -0.536791 0.841113
-0.351356804371 -0.919538080692 0.702648937702 -0.059875 -0.508239 0.859132
-0.227314844728 -0.850501537323 0.746666908264 -0.039331 -0.467900 0.882906
-0.281464904547 -0.979033112526 0.672111690044 -0.045528 -0.509085 0.859511
-0.249820917845 -1.033603787422 0.640047907829 -0.045901 -0.538288 0.841510
-0.205043330789 -1.026219010353 0.647276997566 -0.048749 -0.536237 0.842658
-0.277384459972 -1.186847209930 0.536764502525 -0.052088 -0.572967 0.817921
-0.224257469177 -1.289430618286 0.468369960785 -0.052015 -0.566537 0.822393
-0.335879385471 -1.381988644600 0.397763848305 -0.052015 -0.566537 0.822393
-0.313151508570 -1.432105898857 0.364406347275 -0.052052 -0.569754 0.820165
-0.270873546600 -1.452046394348 0.353069454432 -0.049279 -0.573049 0.818038
-0.247622996569 -1.535935163498 0.294292002916 -0.029274 -0.589659 0.807122
-0.218015342951 -1.506213426590 0.317138224840 -0.032078 -0.592751 0.804747
-0.116557441652 -1.353568911552 0.428243041039 -0.031912 -0.567476 0.822771
-0.201950609684 -1.356952309608 0.422617584467 -0.031912 -0.567476 0.822771
-0.181461215019 -1.245053887367 0.501147508621 -0.031956 -0.573822 0.818356
-0.109257772565 -1.236150264740 0.510162889957 -0.031956 -0.573822 0.818356
-0.133729904890 -1.177118539810 0.550238192081 -0.031939 -0.562403 0.826246
-0.154229313135 -1.066073417664 0.623599469662 -0.028938 -0.538789 0.841944
-0.162948653102 -1.005934476852 0.661553382874 -0.028638 -0.508658 0.860492
-0.162241101265 -0.924410402775 0.709676861763 -0.028638 -0.508658 0.860492
-0.121670834720 -0.867804825306 0.741015613079 -0.025503 -0.465761 0.884543
-0.038722675294 -0.882552385330 0.734610140324 -0.009309 -0.466767 0.884331
0.012922547758 -0.902526021004 0.724478542805 0.006625 -0.467756 0.883833
0.085549883544 -0.863311886787 0.744652807713 0.006625 -0.467756 0.883833
0.127675890923 -0.893994033337 0.727753937244 0.020063 -0.466810 0.884130
0.223224252462 -0.906979084015 0.718305587769 0.036534 -0.466829 0.883592
0.401184797287 -0.878889143467 0.724230468273 0.067750 -0.468717 0.880746
0.644415616989 -0.785932123661 0.750119447708 0.128138 -0.479438 0.868171
0.643386483192 -0.825681865215 0.728196918964 0.141040 -0.481282 0.865145
0.464855194092 -0.939973235130 0.683760941029 0.077531 -0.511703 0.855657
0.420224785805 -0.898371040821 0.712355613708 0.071679 -0.507373 0.858740
0.337526798248 -0.974636733532 0.673086643219 0.056963 -0.507107 0.859998
0.256759077311 -0.978983521461 0.674947321415 0.039924 -0.507999 0.860432
0.056989096105 -1.001115322113 0.667322814465 0.006714 -0.508944 0.860773
0.048216536641 -0.928574502468 0.710209846497 0.006714 -0.508944 0.860773
-0.087030805647 -1.059989333153 0.629546344280 -0.012238 -0.539823 0.841689
-0.026103328913 -1.081765651703 0.616471230984 -0.012238 -0.539823 0.841689
0.072687759995 -1.089094042778 0.611566364765 0.006784 -0.538618 0.842523
0.066985189915 -1.026017546654 0.651991188526 0.006784 -0.538618 0.842523
0.148371398449 -1.057340502739 0.630334854126 0.023340 -0.539569 0.841618
0.263965129852 -1.094933748245 0.601742386818 0.043023 -0.537097 0.842423
0.330140888691 -1.014466285706 0.649322390556 0.060461 -0.535711 0.842234
0.470332920551 -1.049389719963 0.614822387695 0.081238 -0.537312 0.839462
0.658549547195 -0.978257477283 0.632883429527 0.162564 -0.532433 0.830715
0.661435961723 -1.094617486000 0.555673480034 0.179241 -0.546759 0.817880
0.590740144253 -1.087711572647 0.573291301727 0.140655 -0.552257 0.821723
0.381412744522 -1.139279961586 0.563659906387 0.066593 -0.559666 0.826038
0.323239564896 -1.133349537849 0.572314381599 0.066593 -0.559666 0.826038
0.279367566109 -1.162878394127 0.554800152779 0.046156 -0.560869 0.826617
0.191588267684 -1.174531221390 0.551082849503 0.026287 -0.563099 0.825971
-0.012005105615 -1.144234538078 0.575150907040 -0.012332 -0.563166 0.826252
-0.107418909669 -1.253149867058 0.498306572437 -0.012339 -0.574430 0.818460
0.035970084369 -1.285448074341 0.477029055357 0.006840 -0.573173 0.819406
0.209616690874 -1.225768685341 0.514937698841 0.026301 -0.574471 0.818102
0.257307410240 -1.254645466805 0.492269456387 0.046363 -0.571808 0.819076
0.276199340820 -1.213504314423 0.519998908043 0.046288 -0.573695 0.817760
0.333678483963 -1.274703025818 0.473869740963 0.066895 -0.570744 0.818399
0.433107614517 -1.232643365860 0.494718074799 0.096892 -0.568335 0.817072
0.552067875862 -1.181659698486 0.515159904957 0.118780 -0.564570 0.816794
0.663654685020 -1.142770528793 0.522740304470 0.176445 -0.559495 0.809835
0.714134871960 -1.137943267822 0.515079438686 0.187006 -0.564060 0.804279
0.593700289726 -1.269740343094 0.448144733906 0.121779 -0.559007 0.820171
0.371111690998 -1.293810725212 0.457631289959 0.066799 -0.564238 0.822906
0.154810503125 -1.338787674904 0.437947720289 0.026265 -0.568151 0.822505
0.041589669883 -1.381702661514 0.410330802202 0.009569 -0.570037 0.821564
-0.048039894551 -1.357445955276 0.426729679108 -0.012350 -0.569452 0.821932
-0.002789125312 -1.496282100677 0.330097585917 -0.012347 -0.577554 0.816259
0.045079916716 -1.473426699638 0.345868051052 0.006844 -0.576293 0.817214
0.066723838449 -1.454182982445 0.359266191721 0.009582 -0.576280 0.817196
0.128212094307 -1.491453289986 0.332162439823 0.026361 -0.575774 0.817184
0.257510006428 -1.415737152100 0.380889922380 0.043488 -0.573767 0.817863
0.331931233406 -1.411744356155 0.379428982735 0.046256 -0.570494 0.819998
0.359557956457 -1.444898247719 0.354785919189 0.069679 -0.567383 0.820501
0.502696216106 -1.415952086449 0.361679315567 0.093665 -0.560547 0.822808
0.570019185543 -1.353465557098 0.394837647676 0.124473 -0.552075 0.824451
0.587216973305 -1.435011982918 0.337764382362 0.121588 -0.552274 0.824748
0.671464502811 -1.430084943771 0.326603263617 0.152965 -0.536119 0.830168
0.642080545425 -1.490393877029 0.292654812336 0.127561 -0.549830 0.825479
0.499688863754 -1.481138944626 0.317656934261 0.093887 -0.561879 0.821874
0.348909586668 -1.539052605629 0.288594752550 0.040676 -0.582083 0.812111
0.340053856373 -1.495390176773 0.320374161005 0.046410 -0.586450 0.808654
0.205556124449 -1.515617012978 0.312022864819 0.023609 -0.590235 0.806886
-0.676266610622 -0.912486672401 0.666036248207 -0.213938 -0.505259 0.836029
-0.732451081276 -1.206432461739 0.455903589725 -0.310938 -0.534175 0.786114
0.773182988167 -1.418521523476 0.306573331356 0.386943 -0.493797 0.778742
-0.074447177351 -2.370558500290 -0.354040861130 -0.014346 -0.911608 0.410810
-0.696646690369 -2.265506505966 -0.349663943052 -0.070148 -0.217829 -0.973463
-0.401155769825 -2.339513540268 -0.348576843739 -0.052669 -0.425401 -0.903471
-0.960718095303 -1.971721172333 -0.401025623083 -0.839678 -0.543001 0.009526
-0.878253102303 -1.992550730705 -0.658391594887 -0.616128 -0.333262 -0.713668
-0.835912168026 -2.166561841965 -0.585881292820 -0.617039 -0.698875 -0.361713
-0.892520666122 -2.116358280182 -0.549874305725 -0.814845 -0.523053 -0.249886
-0.885817289352 -2.125886917114 -0.551748275757 -0.821457 -0.504676 -0.265537
-0.718409597874 -2.256424188614 -0.456199377775 -0.343695 -0.934797 -0.089601
-0.853532195091 -2.195114135742 -0.417744100094 -0.603521 -0.790568 -0.103753
-0.907017230988 -2.139961719513 -0.416279375553 -0.869193 -0.478415 -0.124991
-0.899782121181 -2.136424064636 -0.468823850155 -0.853492 -0.491315 -0.173667
-0.920213162899 -2.011617183685 -0.572311818600 -0.951061 -0.223859 -0.213005
-0.921245336533 -1.988862752914 -0.600835859776 -0.832469 -0.446806 -0.327657
-0.957844853401 -1.976329922676 -0.414772778749 -0.849406 -0.526218 -0.040053
-0.937773227692 -2.031788587570 -0.455243945122 -0.970868 -0.182917 -0.154776
-0.948224663734 -2.019969463348 -0.390300244093 -0.978602 -0.174001 -0.109830
-0.914935410023 -2.107468366623 -0.411192417145 -0.218141 -0.042182 -0.975005
-0.040553577244 -2.365397930145 -0.411319077015 -0.006509 -0.420452 -0.907291
-0.901999115944 -2.171130180359 -0.365013808012 -0.788445 -0.613549 -0.043724
0.065542325377 -2.367323875427 -0.410474121571 0.003896 -0.419467 -0.907762
-0.203371301293 -2.365327596664 -0.353040397167 -0.038867 -0.899310 0.435582
0.064347654581 -2.373010873795 -0.362088918686 0.007145 -0.999261 0.037766
-0.325622975826 -2.335173845291 -0.468615114689 -0.066103 -0.530230 -0.845273
-0.542066693306 -2.292545557022 -0.493566185236 -0.236647 -0.965777 -0.106172
-0.609749913216 -2.274887561798 -0.481247603893 -0.279412 -0.953675 -0.111503
