-0.360451728106 1.398243784904 -0.493029892445 0.001067 0.097074 -0.995277
-0.214224830270 1.380261659622 -0.494771063328 0.001067 0.097074 -0.995277
-0.175452083349 1.648679971695 -0.468546062708 0.001067 0.097074 -0.995277
-0.390313148499 1.122732520103 -0.519946873188 0.001067 0.097074 -0.995277
-0.278686165810 1.389590859413 -0.493866533041 0.001067 0.097074 -0.995277
-0.305454134941 1.305136919022 -0.502119421959 0.001067 0.097074 -0.995277
-0.220575317740 1.067743778229 -0.525300621986 0.001067 0.097074 -0.995277
-0.146430253983 1.271583557129 -0.505380332470 0.001067 0.097074 -0.995277
-0.041613072157 1.342034220695 -0.498487204313 0.001067 0.097074 -0.995277
-0.433185130358 0.967576146126 -0.535108089447 0.001067 0.097074 -0.995277
-0.145687893033 1.171118974686 -0.515194356441 0.001067 0.097074 -0.995277
-0.445509672165 0.848923861980 -0.546700179577 0.001067 0.097074 -0.995277
-0.371559321880 1.049720525742 -0.527077198029 0.001067 0.097074 -0.995277
-0.043935269117 0.991375684738 -0.532742142677 0.001067 0.097074 -0.995277
-0.024496227503 1.189483523369 -0.513387560844 0.001067 0.097074 -0.995277
-0.525428473949 0.851023793221 -0.546503484249 0.001067 0.097074 -0.995277
-0.186707794666 0.822631180286 -0.549241364002 0.001067 0.097074 -0.995277
-0.299216657877 0.849134504795 -0.546664178371 0.001067 0.097074 -0.995277
-0.270767420530 0.852717995644 -0.546311140060 0.001067 0.097074 -0.995277
-0.347384870052 0.907780408859 -0.540940344334 0.001067 0.097074 -0.995277
-0.350481092930 0.823848068714 -0.549139738083 0.001067 0.097074 -0.995277
-0.018868029118 1.275510430336 -0.504983305931 0.001067 0.097074 -0.995277
-0.296715766191 0.882684707642 -0.543386518955 0.001067 0.097074 -0.995277
-0.043946772814 1.028348803520 -0.529130399227 0.001067 0.097074 -0.995277
-0.297855943441 1.069604873657 -0.525126993656 0.001067 0.097074 -0.995277
-0.004436463118 1.164229631424 -0.515852451324 0.001067 0.097074 -0.995277
-0.155229687691 0.840987205505 -0.547444880009 0.001067 0.097074 -0.995277
-0.229315102100 1.275512933731 -0.505005240440 0.001067 0.097074 -0.995277
-0.087829716504 1.355383753777 -0.497188001871 0.001067 0.097074 -0.995277
-0.131182610989 0.861339688301 -0.545454204082 0.001067 0.097074 -0.995277
-0.416283696890 0.839110910892 -0.547655701637 0.001067 0.097074 -0.995277
-0.259632527828 0.933142662048 -0.538453519344 0.001067 0.097074 -0.995277
-0.264622628689 1.028044939041 -0.529183328152 0.001067 0.097074 -0.995277
-0.097999170423 1.960992932320 -0.441614329815 0.001057 0.085581 -0.996331
-0.201703071594 1.883758306503 -0.448261618614 0.001057 0.085581 -0.996331
-0.174848377705 1.758054256439 -0.459062278271 0.001057 0.085581 -0.996331
-0.315724670887 1.714715242386 -0.462799966335 0.001057 0.085581 -0.996331
-0.189802259207 1.935173511505 -0.443841814995 0.001057 0.085581 -0.996331
-0.113587491214 1.662254691124 -0.467289745808 0.001057 0.085581 -0.996331
-0.038442056626 2.021162748337 -0.436437726021 0.001057 0.085581 -0.996331
-0.351169824600 1.801212072372 -0.455369591713 0.001057 0.085581 -0.996331
-0.060158204287 1.759833931923 -0.458898723125 0.001057 0.085581 -0.996331
-0.071366518736 1.990667819977 -0.439061552286 0.001057 0.085581 -0.996331
-0.033302675933 2.041616439819 -0.434679448605 0.001057 0.085581 -0.996331
-0.109555944800 1.994199514389 -0.438761591911 0.001057 0.085581 -0.996331
-0.073400668800 1.968265652657 -0.440987020731 0.001057 0.085581 -0.996331
-0.192253693938 1.958319187164 -0.441750228405 -0.007500 0.095363 -0.995414
-0.138377889991 1.991470336914 -0.438955068588 -0.007500 0.095363 -0.995414
-0.543711185455 1.856040596962 -0.449025750160 -0.007500 0.095363 -0.995414
-0.537209510803 1.897674322128 -0.445070236921 -0.007500 0.095363 -0.995414
-0.566474676132 1.688895940781 -0.464930027723 -0.007500 0.095363 -0.995414
-0.492857933044 1.910598039627 -0.444150507450 -0.007500 0.095363 -0.995414
-0.401322007179 1.866648435593 -0.449042201042 -0.007500 0.095363 -0.995414
-0.098235428333 2.078236818314 -0.430905193090 -0.007500 0.095363 -0.995414
-0.365111142397 1.951490163803 -0.441148757935 -0.007500 0.095363 -0.995414
-0.492071926594 2.019964694977 -0.433641284704 -0.007500 0.095363 -0.995414
-0.391122281551 1.881945967674 -0.447645694017 -0.007500 0.095363 -0.995414
-0.622246146202 2.004505157471 -0.436414480209 0.024967 0.092269 -0.995421
-0.604377388954 1.973606586456 -0.438822805882 0.024967 0.092269 -0.995421
-0.681435644627 1.876669168472 -0.448675572872 0.007473 0.088608 -0.996039
-0.711396694183 1.872588396072 -0.449076205492 0.001057 0.085581 -0.996331
-0.713313400745 1.727574229240 -0.461665034294 0.001057 0.085581 -0.996331
-0.595212101936 1.022312879562 0.639001667500 0.935364 -0.032254 -0.352213
-0.739986598492 1.516163110733 0.235404327512 0.958132 -0.237214 -0.160351
-0.655406594276 1.530628919601 0.452054858208 0.937128 -0.072492 -0.341373
-0.776286542416 1.066863894463 0.195436999202 0.001010 0.035367 -0.999374
-0.798979938030 0.623814761639 0.181535854936 0.001005 0.029133 -0.999575
-0.781085312366 0.664393782616 0.182729870081 0.001005 0.029133 -0.999575
-0.762002170086 0.935943126678 0.194154590368 0.999573 -0.029192 -0.001007
-0.791827678680 0.324739575386 0.173006996512 0.001005 0.027126 -0.999632
-0.786432266235 0.101291790605 0.167115554214 0.001001 0.025017 -0.999686
-0.782983660698 -0.360153555870 0.156038910151 0.000999 0.022971 -0.999736
-0.778516411781 -0.609435260296 0.174337774515 0.999999 -0.000978 0.000978
-0.778487145901 -0.582419157028 0.152295827866 0.999999 -0.000978 0.000978
-0.776361823082 0.293480753899 0.186799272895 0.999889 -0.014865 0.000991
-0.776320815086 0.296549260616 0.174966499209 0.999889 -0.014865 -0.000991
-0.654142439365 1.519864797592 0.503329694271 -0.868749 -0.386280 0.309940
-0.722498893738 1.553150653839 0.329394340515 -0.909238 -0.300151 0.288438
-0.770609617233 1.034746527672 0.220844686031 -0.001010 -0.035367 0.999374
-0.789497613907 0.726623177528 0.202724471688 -0.830983 0.006800 0.556256
-0.792483568192 0.654892563820 0.197812631726 -0.935661 0.014003 0.352623
-0.801273941994 0.488982528448 0.180044323206 -0.936167 0.003780 0.351535
-0.802950143814 0.066772744060 0.175265774131 -0.935528 -0.006330 0.353197
-0.782906949520 0.087211526930 0.193323135376 -0.001001 -0.025017 0.999686
-0.802252948284 -0.390360295773 0.167497515678 -0.935843 -0.006315 0.352362
-0.775221407413 0.402044236660 0.201728940010 -0.001005 -0.027126 0.999632
-0.793692648411 0.274965912104 0.195699870586 -0.435960 -0.019877 0.899747
-0.616383731365 0.878814101219 0.651284635067 -0.926728 0.035192 0.374080
-0.631415963173 0.993539094925 0.606092512608 -0.924694 0.029997 0.379529
-0.668449044228 0.985763311386 0.515762686729 -0.934189 0.024415 0.355943
-0.615950167179 0.740947544575 0.663860142231 -0.919808 0.030093 0.391213
-0.664007663727 0.306393742561 0.542416572571 0.001077 0.994066 -0.108776
-0.740113675594 0.282796442509 0.323228836060 0.001077 0.994296 -0.106647
-0.621698200703 0.564578533173 0.662846684456 -0.916264 0.024906 0.399800
-0.688175201416 0.252295881510 0.513611793518 -0.943254 -0.008769 0.331955
-0.705289006233 0.246323093772 0.464991331100 -0.943254 -0.008769 0.331955
-0.621623098850 0.957489848137 0.597379505634 0.924694 -0.029997 -0.379529
-0.663251638412 0.966775715351 0.513200938702 -0.001133 -0.984851 -0.173397
-0.625291228294 0.508385300636 0.631124377251 -0.000978 -0.000978 -0.999999
-0.762428581715 0.252380400896 0.239774689078 0.961185 0.006076 -0.275839
-0.694313764572 0.249992415309 0.453756511211 0.943254 0.008769 -0.331955
-0.676353812218 0.273509770632 0.505192339420 0.943254 0.008769 -0.331955
-0.617364048958 0.346033632755 0.652599751949 0.909687 -0.022380 -0.414691
-0.615542829037 0.535467386246 0.645185649395 0.911070 -0.024979 -0.411494
-0.611941099167 0.624819874763 0.647205531597 0.915778 -0.027592 -0.400735
-0.757224738598 0.216614678502 0.300032973289 -0.001077 -0.994296 0.106647
-0.698946893215 0.233491793275 0.457162976265 -0.001077 -0.994296 0.106647
-0.629016160965 0.252145767212 0.629631817341 -0.001077 -0.994066 0.108776
-0.801842093468 -0.808821678162 0.193470522761 -0.954177 -0.006156 0.299181
-0.790904343128 -0.717910826206 0.233025386930 -0.957099 -0.006112 0.289697
-0.802711069584 -0.698030889034 0.184401795268 0.001016 0.999131 -0.041673
-0.741153180599 -0.714080929756 0.351798772812 0.944481 0.047545 -0.325107
-0.799513280392 -0.775458335876 0.169233068824 0.952535 0.006161 -0.304368
-0.700187444687 -0.615208327770 0.432332694530 0.937980 0.024247 -0.345840
-0.714065909386 -0.585919260979 0.419681489468 0.001356 0.560008 -0.828486
-0.661649465561 -0.345768392086 0.561369240284 0.001273 0.378186 -0.925729
-0.653052270412 -0.239422917366 0.593816637993 0.001162 0.212622 -0.977134
-0.716610550880 0.156364470720 0.388853758574 0.952780 -0.001229 -0.303660
-0.650483548641 0.209970787168 0.573277771473 0.934187 0.001261 -0.356781
-0.648896098137 0.245775088668 0.598442137241 0.001077 0.994066 -0.108776
-0.665423274040 -0.428600758314 0.537796556950 0.935739 0.021761 -0.352022
-0.645622253418 -0.282350361347 0.593483030796 0.933859 -0.003791 -0.357621
-0.719546854496 -0.605856537819 0.421114921570 -0.937672 -0.024305 0.346670
-0.714797377586 -0.594454109669 0.434738278389 -0.937980 -0.024247 0.345840
-0.672410428524 0.171382203698 0.515945792198 -0.001122 -0.986665 0.162760
-0.781509160995 0.182329729199 0.223965466022 -0.961185 -0.006076 0.275839
-0.775389432907 0.165882945061 0.245003908873 -0.963183 0.003616 0.268823
-0.760410547256 0.158045083284 0.298227429390 -0.952780 0.001229 0.303660
-0.722326219082 0.166129946709 0.416628926992 -0.943059 0.001246 0.332624
-0.716820299625 0.161058053374 0.432203829288 -0.943059 -0.001246 0.332624
-0.648600697517 0.229650959373 0.616773307323 -0.934689 0.006324 0.355410
-0.678486108780 -0.381771206856 0.545273482800 -0.935624 -0.016548 0.352609
-0.642823338509 0.064792491496 0.636500477791 -0.938252 0.013928 0.345672
-0.655949711800 -0.209433913231 0.605175018311 -0.934187 0.001261 0.356781
-0.573359549046 -2.127150297165 -0.463512390852 -0.274989 -0.751849 -0.599254
-0.543778538704 -2.120779991150 -0.475489795208 -0.089316 -0.704281 -0.704281
-0.555930435658 -2.079607486725 -0.513601779938 -0.092168 -0.651028 -0.753437
-0.443661928177 -2.115165710449 -0.492828249931 -0.073826 -0.722334 -0.687593
-0.432052314281 -2.146304845810 -0.459995537996 -0.073763 -0.759328 -0.646514
-0.427516162395 -2.073618650436 -0.534711599350 -0.095462 -0.679987 -0.726984
-0.608874440193 -1.877141952515 -0.541557550430 -0.994943 -0.018445 -0.098735
-0.609555542469 -1.816159248352 -0.537507474422 -0.998936 0.003067 -0.046010
-0.573448419571 -1.778446555138 -0.580254077911 -0.108961 -0.130514 -0.985441
-0.553879559040 -1.943344116211 -0.558980047703 -0.091309 -0.176531 -0.980051
-0.410694509745 -2.108140707016 -0.444735080004 0.999995 -0.002938 0.000979
-0.410870075226 -2.150378704071 -0.374498665333 0.999999 -0.000978 -0.000978
-0.410872280598 -2.162049055099 -0.334985882044 0.999999 -0.000978 -0.000978
-0.410888791084 -2.184143304825 -0.289466083050 0.999999 -0.000978 -0.000978
-0.411444395781 -2.201007127762 -0.240792587399 0.985511 -0.043051 0.164058
-0.579361677170 -2.144253015518 -0.370365142822 -0.951142 -0.290736 0.103928
-0.554654657841 -2.188754320145 -0.314202755690 -0.852808 -0.508210 0.120175
-0.515000462532 -2.203422307968 -0.289122283459 -0.102359 -0.993219 -0.055116
-0.411783188581 -2.196012020111 -0.385476529598 0.785522 -0.586462 -0.197529
-0.475099712610 -2.025485515594 -0.550092160702 -0.068313 -0.178573 -0.981552
-0.502109646797 -1.960446953773 -0.560113012791 -0.073744 -0.182546 -0.980428
-0.513292968273 -1.938584089279 -0.563247978687 -0.071893 -0.147323 -0.986472
-0.496779441833 -1.808230042458 -0.583692550659 -0.076152 -0.137073 -0.987629
-0.561427712440 -1.747637987137 -0.585820078850 -0.117359 -0.136717 -0.983634
-0.417470604181 -1.766875624657 -0.594414710999 -0.051720 -0.134471 -0.989567
-0.410850942135 -1.849369525909 -0.576083540916 0.993988 -0.016402 -0.108256
-0.410331219435 -1.822496891022 -0.526826262474 0.999999 -0.000979 0.000979
-0.410631000996 -1.983045458794 -0.546631753445 0.999995 -0.002938 0.000979
-0.532564222813 1.521674752235 0.740506947041 -0.956196 0.013572 0.292411
-0.500269532204 1.528036355972 0.757137715816 -0.072516 0.005255 0.997353
-0.507143795490 1.606685161591 0.752957522869 -0.059450 0.365946 0.928735
-0.509540319443 1.637880802155 0.732978105545 -0.037712 0.571272 0.819894
-0.483012378216 1.604185461998 0.707418799400 0.991705 0.003295 0.128493
-0.539165794849 1.601468324661 0.715463101864 -0.954848 -0.001223 0.297091
-0.385491341352 -0.993174791336 -0.596899509430 0.053746 0.480958 -0.875095
-0.352168619633 -1.049893975258 -0.626021087170 0.053746 0.480958 -0.875095
-0.243432670832 -0.958736777306 -0.570456266403 0.039504 0.480863 -0.875906
-0.269325733185 -1.050398111343 -0.621992409229 0.039504 0.480863 -0.875906
-0.299331188202 -1.112191796303 -0.657286703587 0.039504 0.480863 -0.875906
-0.198204278946 -1.077402591705 -0.633920311928 0.022945 0.481844 -0.875957
-0.164664939046 -1.047257184982 -0.616444051266 0.022945 0.481844 -0.875957
-0.163277685642 -1.095438003540 -0.642899572849 0.022945 0.481844 -0.875957
-0.044303424656 -0.986534595490 -0.580810546875 0.009337 0.481539 -0.876375
-0.024587560445 -1.043064236641 -0.611685216427 0.009337 0.481539 -0.876375
-0.086416721344 -1.283285021782 -0.663840770721 0.000981 -0.004907 -0.999987
-0.100687190890 -1.247235536575 -0.664014577866 0.000981 -0.004907 -0.999987
-0.055032625794 -1.226756334305 -0.664048075676 0.000981 -0.004907 -0.999987
-0.042286250740 -1.685811042786 -0.662039339542 0.000981 -0.004907 -0.999987
-0.042357809842 -1.669058203697 -0.662112116814 0.000981 -0.004907 -0.999987
-0.030630324036 -1.313180565834 -0.663643181324 0.000981 -0.004907 -0.999987
-0.020297259092 -1.748986601830 -0.653645634651 -0.003594 -0.255199 -0.966882
-0.045109368861 -1.956016421318 -0.598744511604 -0.003594 -0.255199 -0.966882
-0.072037070990 -1.977831959724 -0.586002171040 -0.009603 -0.577572 -0.816283
-0.033710189164 -2.003786087036 -0.568044066429 -0.009603 -0.577572 -0.816283
-0.122030094266 -2.033701658249 -0.531250596046 -0.044800 -0.945924 0.321281
-0.328093379736 -2.021331310272 -0.534979403019 -0.102630 -0.942333 0.318554
-0.419796586037 -1.298266410828 -0.564028561115 -0.999999 0.000978 0.000978
-0.419542640448 -1.095575571060 -0.569865107536 -0.999999 0.000978 0.000978
-0.419932901859 -1.400613665581 -0.582511603832 -0.999999 0.000978 -0.000978
-0.419731765985 -1.202477693558 -0.606333434582 -0.999999 0.000978 -0.000978
-0.419810473919 -1.206414580345 -0.650685906410 -0.999999 0.000978 -0.000978
-0.419668853283 -1.135910153389 -0.617153286934 -0.999999 0.000978 -0.000978
-0.420086383820 -1.466281175613 -0.626688838005 -0.999999 0.000978 -0.000978
-0.420201152563 -1.558093547821 -0.635094463825 -0.999999 0.000978 -0.000978
-0.420196712017 -1.554014921188 -0.647789120674 -0.999999 0.000978 -0.000978
-0.388908326626 -1.386500954628 -0.663759887218 0.000981 -0.004907 -0.999987
-0.388852357864 -1.284108400345 -0.664204359055 0.000981 -0.004907 -0.999987
-0.378806084394 -1.192286014557 -0.664590895176 0.000981 -0.004907 -0.999987
-0.390462338924 -1.676850438118 -0.662500977516 0.000981 -0.004907 -0.999987
-0.333381563425 -1.592114925385 -0.662799596786 0.000981 -0.004907 -0.999987
-0.372767716646 -1.578671336174 -0.662905871868 0.000981 -0.004907 -0.999987
-0.287660062313 -1.194467306137 -0.664470732212 0.000981 -0.004907 -0.999987
-0.284847617149 -1.301655173302 -0.664001941681 0.000981 -0.004907 -0.999987
-0.295026719570 -1.264745950699 -0.664174556732 0.000981 -0.004907 -0.999987
-0.254176020622 -1.404556274414 -0.663517832756 0.000981 -0.004907 -0.999987
-0.242216140032 -1.574877738953 -0.662763774395 0.000981 -0.004907 -0.999987
-0.250434130430 -1.381998896599 -0.663611233234 0.000981 -0.004907 -0.999987
-0.132370695472 -1.201175808907 -0.664253056049 0.000981 -0.004907 -0.999987
-0.196330755949 -1.342682123184 -0.663716256618 0.000981 -0.004907 -0.999987
-0.208997309208 -1.275037050247 -0.664025425911 0.000981 -0.004907 -0.999987
-0.176473617554 -1.420452713966 -0.663354456425 0.000981 -0.004907 -0.999987
-0.206757813692 -1.704343557358 -0.662158548832 0.000981 -0.004907 -0.999987
-0.140279978514 -1.635973334312 -0.662374734879 0.000981 -0.004907 -0.999987
-0.114703275263 -1.529788374901 -0.662804722786 0.000981 -0.004907 -0.999987
-0.203425198793 -1.892157196999 -0.614404499531 -0.010833 -0.256374 -0.966517
-0.175192862749 -1.832938909531 -0.630390822887 -0.010833 -0.256374 -0.966517
-0.122974589467 -1.857223391533 -0.624526143074 -0.010833 -0.256374 -0.966517
-0.278328448534 -2.022775888443 -0.546979308128 -0.043518 -0.576963 -0.815610
-0.377375513315 -1.858152151108 -0.619671106339 -0.025599 -0.254770 -0.966663
-0.370411217213 -1.935671687126 -0.599335968494 -0.025599 -0.254770 -0.966663
-0.414761364460 -1.903669834137 -0.606599986553 -0.025599 -0.254770 -0.966663
-0.400698840618 -1.766539216042 -0.643291831017 -0.025599 -0.254770 -0.966663
-0.299263298512 -1.819050908089 -0.632015645504 -0.018191 -0.255884 -0.966536
-0.299019634724 -1.752336859703 -0.649684906006 -0.018191 -0.255884 -0.966536
-0.263234257698 -1.892512559891 -0.613243460655 -0.018191 -0.255884 -0.966536
-0.141018182039 -2.201202392578 -0.343558758497 -0.036786 -0.993211 -0.110357
-0.008805155754 -2.202091693878 -0.363601237535 -0.014213 -0.993783 -0.110420
-0.026013843715 -2.202903270721 -0.338968485594 -0.012443 -0.783901 0.620761
-0.065153591335 -2.169805049896 -0.333670735359 -0.000981 0.004907 0.999987
-0.053294051439 -2.122956275940 -0.333859771490 -0.000981 0.004907 0.999987
-0.102323964238 -2.190304994583 -0.333626866341 -0.000981 0.004907 0.999987
-0.189928933978 -2.161356687546 -0.333858937025 -0.000981 0.004907 0.999987
-0.308213651180 -2.159289598465 -0.334011524916 -0.000981 0.004907 0.999987
-0.340569555759 -2.182593822479 -0.386234104633 -0.112095 -0.987620 -0.109736
-0.413606405258 -2.164463996887 -0.416158318520 -0.079907 -0.722064 -0.687196
-0.343612849712 -2.136240959167 -0.407070487738 0.030543 0.255337 -0.966370
-0.223883584142 -2.147727012634 -0.407474368811 0.015692 0.254700 -0.966893
-0.222485989332 -2.161062479019 -0.410961508751 0.015692 0.254700 -0.966893
-0.306783050299 -2.188532829285 -0.338592290878 -0.067488 -0.782578 0.618883
-0.170117720962 -1.950630187988 -0.500554084778 0.000983 0.004916 0.999987
-0.099283464253 -1.963109850883 -0.500580191612 0.000981 0.004907 0.999987
-0.068002291024 -2.024940013885 -0.500834584236 -0.003592 -0.257437 0.966288
-0.208065256476 -2.035867452621 -0.504899799824 -0.013270 -0.256964 0.966330
-0.401774138212 -2.018920898438 -0.504612624645 -0.028150 -0.258246 0.965669
-0.348684251308 -1.907938599586 -0.531687557697 0.000981 -0.004907 -0.999987
-0.393099695444 -1.728720903397 -0.532519638538 0.000981 -0.004907 -0.999987
-0.317045420408 -1.983893752098 -0.531319260597 0.000981 -0.004907 -0.999987
-0.333722233772 -1.826356649399 -0.532023608685 0.000981 -0.004907 -0.999987
-0.278035938740 -1.751723647118 -0.532280087471 0.000981 -0.004907 -0.999987
-0.232601389289 -1.822108983994 -0.531919240952 0.000981 -0.004907 -0.999987
-0.189022332430 -1.743118762970 -0.532209336758 0.000981 -0.004907 -0.999987
-0.149248123169 -1.991515994072 -0.531082451344 0.000981 -0.004907 -0.999987
-0.103813543916 -1.723551511765 -0.532190859318 0.000981 -0.004907 -0.999987
-0.048816636205 -2.027939796448 -0.530802309513 0.000981 -0.004907 -0.999987
-0.011110634543 -1.816284537315 -0.531675577164 0.000981 -0.004907 -0.999987
-0.121431767941 -2.207385063171 -0.278924226761 -0.039628 -0.990695 -0.130206
-0.051853906363 -2.203269004822 -0.324553370476 -0.009949 -0.991551 -0.129333
-0.161362782121 -2.177923679352 -0.255422353745 -0.999999 0.000978 -0.000978
-0.812975764275 0.997335731983 0.087485753000 -0.983956 0.012630 0.177962
-0.821757614613 1.029824733734 0.114182099700 -0.977957 0.008159 0.208646
-0.819556593895 1.046828627586 0.123921498656 -0.978074 0.005815 0.208175
-0.811966001987 0.961289703846 0.092663243413 -0.973826 0.003533 0.227265
-0.362919121981 -2.157152891159 -0.428576797247 -0.076857 -0.685911 -0.723615
-0.149675145745 -2.116327047348 -0.475080728531 -0.020888 -0.616887 -0.786775
-0.165255650878 -2.085603713989 -0.483583033085 -0.999999 0.000978 -0.000978
-0.142652332783 -2.057977914810 -0.515832126141 -0.020567 -0.549828 -0.835025
-0.861700773239 -0.241332203150 -0.248746141791 -0.984462 0.001133 -0.175594
-0.859142124653 -0.141547203064 -0.262849301100 -0.984462 0.001133 -0.175594
-0.859824180603 -0.700221896172 -0.261374980211 -0.984392 0.001135 -0.175987
-0.853872060776 -0.079765193164 -0.274630665779 -0.441440 0.001310 -0.897290
-0.857964873314 0.053529307246 -0.268122583628 -0.983924 0.001137 -0.178585
-0.862792491913 0.088860198855 -0.240410268307 -0.999917 0.000989 0.012857
-0.863180875778 -0.466423749924 -0.238741397858 -0.999917 0.000991 0.012883
-0.862817287445 -0.276739954948 -0.213570579886 -0.999987 0.000981 0.004907
-0.804395973682 0.280628979206 -0.532415747643 -0.822819 0.012322 -0.568170
-0.799595773220 0.522457242012 -0.534185349941 -0.821932 0.012350 -0.569452
-0.796186864376 0.680173575878 -0.535598278046 -0.821564 0.009569 -0.570037
-0.818079888821 0.286662489176 -0.511569797993 -0.862391 0.012146 -0.506098
-0.855292856693 0.268524080515 -0.262911379337 -0.989221 0.019132 -0.145176
-0.860478758812 0.212346494198 -0.225019782782 -0.998259 0.019902 -0.055517
-0.832925081253 0.118015088141 0.108059696853 -0.521441 0.057317 0.851360
-0.038124471903 -1.379848003387 -0.664150714874 0.894158 -0.003939 -0.447735
-0.049094602466 -1.403115272522 -0.673252165318 0.000981 -0.004907 -0.999987
-0.076681718230 -1.609243869781 -0.672397553921 0.000981 -0.004907 -0.999987
-0.061757415533 -1.210035920143 -0.674109220505 0.000981 -0.004907 -0.999987
-0.086665302515 -1.335308670998 -0.673601746559 0.000981 -0.004907 -0.999987
-0.048828154802 -1.961186051369 -0.607450008392 -0.005991 -0.255196 -0.966871
-0.240107700229 -1.484163999557 -0.665868222713 -0.894688 -0.001310 -0.446689
-0.239411726594 -1.247460484505 -0.667776763439 -0.894688 -0.001310 -0.446689
-0.230437472463 -1.605265140533 -0.672603487968 0.000981 -0.004907 -0.999987
-0.207447677851 -1.386114716530 -0.673521399498 0.000981 -0.004907 -0.999987
-0.202496424317 -1.786319255829 -0.652466177940 -0.018148 -0.255285 -0.966695
-0.341217726469 -1.436839342117 -0.672883450985 0.894158 -0.003939 -0.447735
-0.341867536306 -1.145396113396 -0.674725234509 0.000981 -0.004907 -0.999987
-0.382897794247 -1.224676609039 -0.674441277981 0.000981 -0.004907 -0.999987
-0.393450140953 -1.553410291672 -0.664648473263 -0.894688 -0.001310 -0.446689
-0.386961221695 -1.698259949684 -0.671700716019 -0.030615 -0.255941 -0.966208
-0.426092445850 2.214678049088 -0.352429270744 -0.123868 0.989783 -0.070616
-0.531153857708 2.181998729706 -0.407050043344 -0.105902 0.917356 -0.383722
-0.384036839008 2.213757514954 -0.373221367598 -0.109370 0.912337 -0.394562
-0.366423338652 2.054410696030 -0.459296733141 0.999999 -0.000978 0.000978
-0.370120137930 1.851941466331 -0.497718453407 -0.048943 0.017703 -0.998645
-0.411118298769 1.823698520660 -0.496202141047 -0.048943 0.017703 -0.998645
-0.475457459688 1.820511102676 -0.493488132954 -0.042873 0.030325 -0.998620
-0.566656947136 2.126670122147 -0.427866756916 -0.994189 0.079401 0.072691
-0.547443389893 2.154522418976 -0.443705618382 -0.119422 0.797624 -0.591215
-0.378829449415 2.162849664688 -0.466694116592 -0.120297 0.738118 -0.663860
-0.435216575861 2.073554039001 -0.482297539711 -0.058304 0.073705 -0.995574
-0.508384764194 2.066861152649 -0.478539317846 -0.058304 0.073705 -0.995574
-0.386203795671 2.051920413971 -0.486699491739 -0.056111 0.073715 -0.995700
-0.379701107740 2.060539960861 -0.486442446709 -0.056111 0.073715 -0.995700
-0.558574557304 1.953260898590 -0.480860382318 -0.588273 0.058119 -0.806571
-0.522212982178 2.203815460205 -0.336864650249 -0.122861 0.988741 -0.085418
-0.100240036845 2.140461206436 -0.465716302395 -0.005901 0.227785 -0.973694
-0.169971078634 2.066386461258 -0.477383196354 -0.003326 0.140800 -0.990032
-0.161768779159 2.002458810806 -0.486491650343 -0.001104 0.138020 -0.990429
-0.124034024775 1.913745403290 -0.496965795755 -0.001073 0.104070 -0.994569
-0.090169213712 1.943608522415 -0.493883103132 0.001071 0.101730 -0.994811
-0.013562150300 2.089751720428 -0.474436700344 -0.001102 0.137718 -0.990471
-0.064563557506 2.098455190659 -0.473156988621 -0.001104 0.138020 -0.990429
-0.254646360874 2.146442413330 -0.462530165911 -0.021709 0.351181 -0.936056
-0.252440154552 2.141650199890 -0.463840812445 -0.013095 0.232137 -0.972595
-0.223842859268 2.012203454971 -0.484860628843 -0.003326 0.140800 -0.990032
-0.254966795444 1.961915969849 -0.491697669029 -0.003232 0.104516 -0.994518
-0.200606733561 1.833518743515 -0.505237162113 0.001073 0.104070 -0.994569
-0.304093658924 1.861432433128 -0.502263128757 0.001073 0.104070 -0.994569
-0.275763720274 2.037906408310 -0.480820834637 -0.007792 0.143599 -0.989605
-0.311244249344 2.110566139221 -0.469857811928 -0.012349 0.147066 -0.989050
-0.289625525475 2.156451940536 -0.455361157656 -0.081443 0.833004 -0.547239
-0.229573771358 2.187013626099 -0.415407329798 -0.051898 0.834579 -0.548438
-0.119397051632 2.188493490219 -0.421010166407 -0.028964 0.834449 -0.550323
-0.088981926441 2.173174142838 -0.445530742407 -0.009534 0.832222 -0.554361
-0.317277610302 2.213333129883 -0.330465942621 -0.091885 0.995600 -0.018377
-0.015015184879 1.983732104301 -0.546635866165 0.001374 0.630540 -0.776155
-0.094741195440 1.881481885910 -0.587558031082 0.000993 0.016879 -0.999857
-0.041440397501 1.835721731186 -0.572602987289 -0.001223 -0.954848 -0.297091
-0.049965865910 1.821060657501 -0.525286316872 -0.001223 -0.954848 -0.297091
-0.124448329210 1.826803207397 -0.544002950191 0.003679 -0.955321 -0.295548
-0.200848475099 1.806762099266 -0.480396300554 0.003679 -0.955321 -0.295548
-0.315446555614 1.823071718216 -0.540788114071 0.021106 -0.954730 -0.296724
-0.413734912872 1.814194321632 -0.530278682709 0.054736 -0.953433 -0.296595
-0.416503012180 1.859804391861 -0.522682487965 -0.999999 0.000978 -0.000978
-0.386311888695 2.007285594940 -0.521974086761 -0.035214 0.629618 -0.776106
-0.350614428520 1.956692218781 -0.564684689045 -0.035214 0.629618 -0.776106
-0.295941889286 2.027690649033 -0.509082019329 -0.015260 0.631198 -0.775472
-0.262139499187 1.987531185150 -0.542259275913 -0.015260 0.631198 -0.775472
-0.176983878016 1.883416771889 -0.587517857552 -0.000993 0.016879 -0.999857
-0.416303962469 2.044249057770 -0.471803754568 -0.999999 0.000978 0.000978
-0.032655544579 -0.435350835323 0.653950393200 -0.014474 -0.432900 0.901326
-0.339382231236 -0.422995895147 0.641975581646 -0.117352 -0.953322 0.278217
-0.258168846369 -0.426995545626 0.640201747417 0.078176 0.426540 -0.901084
-0.703517377377 -0.994143605232 0.248501583934 0.196456 -0.558909 0.805621
-0.609405279160 -0.414155840874 0.600467622280 0.986665 -0.162760 0.001122
-0.646329581738 -0.578424215317 0.505068004131 0.189364 0.478628 -0.857355
-0.024042528123 -1.333679556847 0.176185339689 -0.018148 -0.255285 0.966695
-0.005649693310 -1.280850291252 0.190444439650 -0.018148 -0.255285 0.966695
-0.153123497963 -1.282506465912 0.187045589089 -0.043175 -0.255349 0.965885
-0.203922897577 -1.270608782768 0.187917277217 -0.043175 -0.255349 0.965885
-0.239028602839 -1.302046418190 0.178070947528 -0.043175 -0.255349 0.965885
-0.322329133749 -1.251577854156 0.187181964517 -0.058707 -0.253562 0.965536
-0.346361279488 -1.283704161644 0.177257999778 -0.058707 -0.253562 0.965536
-0.480084657669 -1.118337750435 0.212358906865 -0.066490 -0.254671 0.964739
-0.571793794632 -1.255347609520 0.169899642467 -0.066490 -0.254671 0.964739
-0.639789640903 -1.139866113663 0.195539683104 -0.069155 -0.255245 0.964400
-0.664371609688 -1.131126165390 0.196109876037 -0.069155 -0.255245 0.964400
-0.126907229424 -1.347105264664 0.190452501178 0.032158 0.998965 -0.032158
-0.752624690533 0.428574383259 0.182609692216 0.521865 -0.034424 0.852333
-0.736045837402 1.106679201126 0.198194473982 0.635757 -0.035242 0.771084
-0.779976248741 0.723731458187 0.195253804326 0.025881 -0.036233 0.999008
-0.769409716129 0.041374802589 0.173445165157 -0.001003 -0.027071 0.999633
-0.785019636154 -0.015875142068 0.172173380852 0.017321 -0.025472 0.999525
-0.766655623913 -0.615750610828 0.157315850258 -0.001001 -0.025017 0.999686
-0.745765209198 -0.405361145735 0.151896551251 0.579506 -0.023512 0.814628
-0.741948366165 -0.165436625481 0.155918821692 0.525586 -0.020477 0.850494
-0.735514998436 0.246531173587 0.161077558994 0.992395 -0.014319 0.122260
-0.738704502583 -0.303766310215 0.125165760517 0.992395 -0.014319 0.122260
-0.736320793629 -0.348289430141 0.100357040763 0.992395 -0.014319 0.122260
-0.738134503365 -0.560623645782 0.091306246817 0.996627 -0.007430 0.081726
-0.740068018436 -0.200684115291 0.148898676038 0.996627 -0.007430 0.081726
-0.738308846951 -0.794728219509 0.063910022378 0.996530 -0.013856 0.082067
-0.743194341660 -0.746849596500 0.131517857313 0.996744 -0.011701 0.079782
-0.740592598915 -0.859841585159 0.026027444750 0.998212 -0.007286 -0.059331
-0.739397406578 -0.813827455044 0.040092449635 0.998212 -0.007286 -0.059331
-0.739466428757 -0.729491174221 0.032055992633 0.996678 0.003171 -0.081383
-0.733801543713 -0.255464792252 0.081036031246 0.996669 -0.005285 -0.081382
-0.735369563103 -0.404169708490 0.069549195468 0.996669 -0.005285 -0.081382
-0.735593318939 -0.269896298647 0.059732381254 0.996669 -0.005285 -0.081382
-0.744776010513 -0.397800683975 -0.043124288321 0.996311 -0.003176 -0.085761
-0.742312014103 -0.363858640194 -0.015529915690 0.996311 -0.003176 -0.085761
-0.738644301891 -0.189419433475 0.021323105320 0.996311 -0.003176 -0.085761
-0.741146624088 -0.273759543896 -0.005001491867 0.996311 -0.003176 -0.085761
-0.739932775497 -0.151286974549 0.004789665341 0.996286 -0.005305 -0.085942
-0.731588482857 -0.039052024484 0.094899006188 0.996286 -0.005305 -0.085942
-0.739157319069 -0.052298918366 0.007471941411 0.996286 -0.005305 -0.085942
-0.734904468060 -0.053529523313 0.057154059410 0.996286 -0.005305 -0.085942
-0.732151746750 0.159682899714 0.126577615738 0.990033 -0.016780 0.139835
-0.727843284607 0.532285690308 0.135495945811 0.990111 -0.014511 0.139531
-0.725651741028 0.749921381474 0.141075044870 0.986712 -0.012461 0.161998
-0.723719000816 1.075039386749 0.153208136559 0.986712 -0.012461 0.161998
-0.729693651199 0.966417133808 0.181931868196 0.987130 -0.012438 0.159433
-0.729837417603 1.014191269875 0.080667108297 0.994785 -0.003219 -0.101947
-0.725645422935 0.948982357979 0.123608797789 0.994785 -0.003219 -0.101947
-0.729951858521 0.778971016407 0.067959487438 0.997340 0.007357 -0.072515
-0.734710931778 0.916315019131 0.015148341656 0.997340 0.007357 -0.072515
-0.728004634380 0.790768146515 0.095684863627 0.997340 0.007357 -0.072515
-0.726357460022 0.653862953186 0.120781145990 0.997373 -0.003146 -0.072365
-0.728590130806 0.524482667446 0.096391297877 0.997373 -0.003146 -0.072365
-0.730402648449 0.760991752148 0.060219123960 0.997373 -0.003146 -0.072365
-0.727750003338 0.378578543663 0.114897765219 0.997373 -0.003146 -0.072365
-0.734911561012 0.310965865850 0.040429472923 0.995578 -0.009666 -0.093436
-0.737050890923 0.370936214924 0.011234166101 0.995578 -0.009666 -0.093436
-0.735534667969 0.555424988270 0.007031560875 0.995578 -0.009666 -0.093436
-0.737393260002 0.395389020443 0.004932333250 0.995578 -0.009666 -0.093436
-0.740137636662 0.286594808102 -0.013014466502 0.995476 -0.003201 -0.094960
-0.739786684513 0.007592886686 -0.002729486208 0.995476 -0.003201 -0.094960
-0.743381023407 -0.034993201494 -0.039717670530 0.995476 -0.003201 -0.094960
-0.743285059929 0.248452186584 -0.052835315466 0.999976 -0.004926 -0.004926
-0.744751691818 0.004474073648 -0.147685497999 0.999976 -0.004926 -0.004926
-0.744554579258 -0.043968450278 -0.059287253767 0.999976 -0.004926 -0.004926
-0.745544493198 -0.266955524683 -0.168772056699 0.999987 -0.000981 -0.004907
-0.745609760284 -0.241804957390 -0.185013547540 0.999987 -0.000981 -0.004907
-0.745646417141 -0.295038878918 -0.190235182643 0.999987 -0.000981 -0.004907
-0.745482027531 -0.392449855804 -0.147310510278 0.999987 -0.000981 -0.004907
-0.745337367058 -0.352909207344 -0.116735264659 0.999928 -0.004965 0.010923
-0.745877504349 -0.374250650406 -0.078553095460 0.999928 -0.004965 0.010923
-0.745791435242 -0.447847843170 -0.120747908950 0.999928 -0.004965 0.010923
-0.746025562286 -0.367453843355 -0.062152825296 0.999928 -0.004965 0.010923
-0.746423661709 -0.743433773518 -0.154132544994 0.999936 0.002973 0.010901
-0.745845556259 -0.733910620213 -0.207784309983 0.999936 0.002973 0.010901
-0.746316015720 -0.823741972446 -0.141044229269 0.999889 0.000993 0.014894
-0.745691955090 -0.870212078094 -0.177540421486 0.999889 0.000993 0.014894
-0.735366582870 -0.855797171593 -0.361804366112 0.997533 0.003140 0.070131
-0.745578706264 -0.722217559814 -0.224487230182 0.997533 0.003140 0.070131
-0.731789290905 -0.908528208733 -0.409636735916 0.997533 0.003140 0.070131
-0.738002836704 -0.720180690289 -0.333644896746 0.997668 0.005234 0.068047
-0.738693833351 -0.770781815052 -0.319521725178 0.997668 0.005234 0.068047
-0.734163165092 -0.831324338913 -0.380586832762 0.997668 0.005234 0.068047
-0.734765470028 -0.626504242420 -0.383275777102 0.997701 -0.001043 0.067764
-0.734277784824 -0.647887885571 -0.390966594219 0.997701 -0.001043 0.067764
-0.744926035404 -0.221532389522 -0.224100366235 0.997701 -0.001043 0.067764
-0.734299957752 -0.654562711716 -0.390815377235 0.997701 -0.001043 0.067764
-0.745118319988 -0.336224108934 -0.224268034101 0.997701 -0.001043 0.067764
-0.738340795040 -0.553390741348 -0.329067647457 0.997701 -0.001043 0.067764
-0.739050567150 -0.176747545600 -0.324466198683 0.998375 0.003104 0.056902
-0.743662714958 -0.212229117751 -0.243296489120 0.998375 0.003104 0.056902
-0.744480073452 -0.176547482610 -0.230842486024 0.998375 0.003104 0.056902
-0.733528316021 -0.514502406120 -0.404156774282 0.998375 0.003104 0.056902
-0.735985755920 -0.193791806698 -0.376534074545 0.998375 0.003104 0.056902
-0.740929961205 -0.085256382823 -0.288132011890 0.998360 -0.005184 0.057020
-0.736618161201 -0.057822614908 -0.360618263483 0.998360 -0.005184 0.057020
-0.739013552666 -0.094664618373 -0.322167187929 0.998360 -0.005184 0.057020
-0.739149034023 0.046927809715 -0.307896554470 0.998360 -0.005184 0.057020
-0.742938935757 0.014172203839 -0.244911670685 0.998360 -0.005184 0.057020
-0.744292318821 0.218689441681 -0.158685982227 0.999956 -0.002961 -0.008884
-0.743667244911 0.238976001740 -0.096318922937 0.999956 -0.002961 -0.008884
-0.744537353516 0.241058334708 -0.191380158067 0.999956 -0.002961 -0.008884
-0.742803394794 0.318402498960 -0.059352848679 0.999814 -0.017048 -0.009025
-0.743479371071 0.341579616070 -0.176654666662 0.999814 -0.017048 -0.009025
-0.740340769291 0.500617146492 -0.134859949350 0.999814 -0.017048 -0.009025
-0.740011394024 0.539242625237 -0.040423788130 0.999904 -0.012934 0.004975
-0.736898899078 0.734310865402 -0.152618557215 0.999904 -0.012934 0.004975
-0.738536357880 0.615569114685 -0.127965003252 0.999904 -0.012934 0.004975
-0.736944139004 0.767892122269 -0.098808825016 0.999948 0.008919 0.004955
-0.737368583679 0.832026481628 -0.116547130048 0.999948 0.008919 0.004955
-0.738660752773 0.936753034592 -0.075692377985 0.999880 0.010966 0.010966
-0.737203180790 1.073322296143 -0.021156210452 0.999371 0.001013 -0.035439
-0.736106812954 1.069197654724 0.009749549441 0.999371 0.001013 -0.035439
-0.737013876438 0.843458712101 -0.183552756906 0.999936 0.006951 0.008937
-0.734691917896 0.810053467751 -0.260946363211 0.998897 0.023857 0.040454
-0.738278448582 0.576326191425 -0.222196727991 0.998944 -0.017598 0.042442
-0.738656997681 0.492544770241 -0.248511537910 0.998944 -0.017598 0.042442
-0.738924324512 0.564186513424 -0.212120398879 0.998944 -0.017598 0.042442
-0.737437784672 0.541645705700 -0.256528407335 0.998944 -0.017598 0.042442
-0.728915810585 0.734304547310 -0.375830590725 0.998944 -0.017598 0.042442
-0.733366310596 0.431680172682 -0.417410135269 0.999080 -0.019590 0.038149
-0.741381168365 0.341655582190 -0.252145320177 0.999080 -0.019590 0.038149
-0.730147242546 0.658167839050 -0.380129694939 0.999080 -0.019590 0.038149
-0.738845407963 0.369615912437 -0.304716348648 0.999080 -0.019590 0.038149
-0.731218814850 0.626415848732 -0.368769913912 0.999080 -0.019590 0.038149
-0.741512537003 0.293312847614 -0.271535605192 0.999277 0.005093 0.037689
-0.737713992596 0.240814149380 -0.364005923271 0.999277 0.005093 0.037689
-0.744024097919 0.292205840349 -0.205425187945 0.999277 0.005093 0.037689
-0.742408275604 0.294473886490 -0.248171776533 0.999277 0.005093 0.037689
-0.737024307251 0.145151883364 -0.368846148252 0.999277 0.005093 0.037689
-0.732049703598 0.144835546613 -0.443306744099 0.991973 0.005493 0.126331
-0.731235325336 0.167438000441 -0.450441449881 0.991973 0.005493 0.126331
-0.721996963024 -0.404390126467 -0.499217420816 0.991973 0.005493 0.126331
-0.729492485523 -0.217700198293 -0.449648797512 0.991973 0.005493 0.126331
-0.726115286350 -0.317148417234 -0.471258908510 0.991973 0.005493 0.126331
-0.731220364571 -0.573744058609 -0.435232043266 0.988281 0.001114 0.152643
-0.728598952293 -0.481237530708 -0.452452361584 0.988281 0.001114 0.152643
-0.728159189224 -0.710612893105 -0.453333467245 0.988161 0.005595 0.153316
-0.718816041946 -0.899551272392 -0.498630613089 0.984029 0.012601 0.177561
-0.731218218803 0.289519667625 -0.459254771471 0.993668 0.007618 0.112101
-0.723207771778 0.272594392300 -0.528726875782 0.993668 0.007618 0.112101
-0.723959267139 0.099732831120 -0.509377002716 0.993668 0.007618 0.112101
-0.724683761597 0.496352374554 -0.477027088404 0.993509 -0.023156 0.111370
-0.720686852932 0.510111212730 -0.509636104107 0.993509 -0.023156 0.111370
-0.718002915382 0.570239186287 -0.520626127720 0.993509 -0.023156 0.111370
-0.720810830593 0.735505044460 -0.468203872442 0.991868 -0.021104 0.125511
-0.721018493176 0.731840431690 -0.467158257961 0.991868 -0.021104 0.125511
-0.725800931454 0.561057090759 -0.456809312105 0.991868 -0.021104 0.125511
-0.410349518061 -0.374130994081 0.649657070637 0.097812 0.285611 -0.953341
-0.304712235928 -0.365792274475 0.661132752895 0.070497 0.288396 -0.954912
-0.312909334898 -0.408344000578 0.647432982922 0.065406 0.296249 -0.952869
-0.233017876744 -0.384680658579 0.659937620163 0.041597 0.296222 -0.954213
-0.137109875679 -0.391483485699 0.661658048630 0.036567 0.303886 -0.952007
-0.045891601592 -0.425217092037 0.652391254902 0.011151 0.303543 -0.952753
-0.020726867020 -0.404590815306 0.659309387207 0.013682 0.307228 -0.951537
-0.212328821421 -0.309196561575 0.680937170982 0.036872 0.201012 -0.978895
-0.585667490959 -0.282678067684 0.654797315598 0.115440 0.211852 -0.970460
-0.517835557461 -0.311419665813 0.656159162521 0.129717 0.290191 -0.948136
-0.554170668125 -0.243670195341 0.667794167995 0.103514 0.241533 -0.964856
-0.431589514017 -0.204925909638 0.685843765736 0.067656 0.164985 -0.983973
-0.208357617259 -0.216686964035 0.697243392467 0.030493 0.134395 -0.990459
-0.203428745270 -0.243783295155 0.693838238716 0.037210 0.127418 -0.991151
-0.069886714220 -0.206365704536 0.702358603477 0.012163 0.127155 -0.991808
-0.014439162798 -0.298158526421 0.688165485859 0.012816 0.199236 -0.979868
-0.049605894834 -0.188211187720 0.704849302769 0.009911 0.124435 -0.992178
-0.303968667984 -0.100623331964 0.705944240093 0.036488 0.102831 -0.994029
-0.465850234032 -0.142240285873 0.692785739899 0.055766 0.119498 -0.991267
-0.493603676558 -0.149020954967 0.689972102642 0.080072 0.117207 -0.989874
-0.504314303398 -0.102115027606 0.694805800915 0.073358 0.131579 -0.988588
-0.516125559807 -0.009221956134 0.700352847576 0.059779 0.055431 -0.996671
-0.451912373304 0.004134061281 0.704621970654 0.039478 0.056550 -0.997619
-0.418756455183 -0.089788675308 0.701399683952 0.054640 0.046069 -0.997443
-0.305600643158 0.002696515061 0.710296332836 0.021869 0.046861 -0.998662
-0.248316749930 0.056798227131 0.714105725288 0.036600 0.036600 -0.998660
-0.205061674118 0.061963431537 0.715106129646 0.009187 0.035726 -0.999319
-0.156145110726 -0.072567492723 0.711430490017 0.021525 0.027675 -0.999385
-0.055617742240 -0.083494395018 0.712349057198 0.007075 0.029309 -0.999545
-0.019034847617 -0.030290387571 0.714009821415 0.003008 0.025067 -0.999681
-0.062311816961 0.173927575350 0.717471599579 0.002956 0.006896 -0.999972
-0.157161056995 0.099557101727 0.716404795647 0.008937 0.006951 -0.999936
-0.168938905001 0.191344052553 0.716961562634 0.012908 0.004965 -0.999904
-0.267614126205 0.188956171274 0.715417802334 0.021058 0.005014 -0.999766
-0.301934897900 0.163871660829 0.714514315128 0.023063 0.005014 -0.999721
-0.394227147102 0.089456245303 0.711324155331 0.039723 0.005093 -0.999198
-0.435421884060 0.160824224353 0.710083305836 0.037689 0.005093 -0.999277
-0.469133108854 0.097650252283 0.708431303501 0.052667 0.005163 -0.998599
-0.511648893356 0.099987059832 0.706066727638 0.059946 0.017879 -0.998042
-0.487713217735 0.453764915466 0.707798182964 0.052559 -0.003092 -0.998613
-0.489609658718 0.340542495251 0.707975268364 0.052559 -0.003092 -0.998613
-0.396868735552 0.357505977154 0.711846888065 0.037537 -0.003044 -0.999291
-0.369361579418 0.335725843906 0.712913274765 0.037537 -0.001015 -0.999295
-0.366666108370 0.578375279903 0.712575376034 0.037537 -0.001015 -0.999295
-0.288417071104 0.441541731358 0.714975833893 0.023017 -0.001001 -0.999735
-0.320394814014 0.275998324156 0.714489579201 0.023017 -0.001001 -0.999735
-0.250415265560 0.408809363842 0.715906620026 0.023017 -0.001001 -0.999735
-0.199181139469 0.261075973511 0.716963171959 0.012857 -0.000989 -0.999917
-0.203451082110 0.345515012741 0.716793656349 0.012857 -0.000989 -0.999917
-0.150875940919 0.562929093838 0.717094838619 0.010880 -0.000989 -0.999940
-0.158775240183 0.428844213486 0.717205464840 0.010880 -0.000989 -0.999940
-0.044232435524 0.513139009476 0.717822849751 0.002944 -0.000981 -0.999995
-0.102435439825 0.397556632757 0.717807292938 0.002944 -0.000981 -0.999995
-0.027154216543 0.376558870077 0.718086302280 0.002944 -0.000981 -0.999995
-0.042522683740 0.271731615067 0.718195199966 0.002944 -0.000981 -0.999995
-0.001345760189 0.127856627107 0.717285394669 0.002967 0.008902 -0.999956
-0.066270463169 0.782490372658 0.716858625412 0.002950 -0.004916 -0.999984
-0.100022435188 0.810478329659 0.716638088226 0.002950 -0.004916 -0.999984
-0.194622233510 0.939707875252 0.715183913708 0.010901 -0.004955 -0.999928
-0.143439650536 0.890491068363 0.715931415558 0.010901 -0.004955 -0.999928
-0.205580562353 0.760852336884 0.715764701366 0.010901 -0.002973 -0.999936
-0.224893376231 0.625375092030 0.716058611870 0.010901 -0.002973 -0.999936
-0.264148384333 0.758101105690 0.714660406113 0.023063 -0.003008 -0.999730
-0.248358219862 0.799477875233 0.714854180813 0.023063 -0.003008 -0.999730
-0.308957278728 0.755563974380 0.713637292385 0.023063 -0.003008 -0.999730
-0.334308147430 0.930425941944 0.712381184101 0.023063 -0.003008 -0.999730
-0.381865292788 0.686318218708 0.711586594582 0.037613 -0.005083 -0.999279
-0.408712595701 0.714021503925 0.710458278656 0.037613 -0.005083 -0.999279
-0.421274483204 0.926943302155 0.709037899971 0.039723 -0.005093 -0.999198
-0.448539137840 0.727055788040 0.708861589432 0.039723 -0.005093 -0.999198
-0.503106415272 0.675766825676 0.706142008305 0.054839 -0.005173 -0.998482
-0.490211009979 0.628808498383 0.707080304623 0.054839 -0.005173 -0.998482
-0.495228827000 0.558170080185 0.707087993622 0.054726 -0.003098 -0.998497
-0.560773789883 0.572608411312 0.703418374062 0.054726 -0.003098 -0.998497
-0.546802222729 0.813665449619 0.702870607376 0.059208 -0.005194 -0.998232
-0.521409392357 0.892561793327 0.703890800476 0.059208 -0.005194 -0.998232
-0.462104201317 1.073099017143 0.706342995167 0.059208 -0.005194 -0.998232
-0.545246958733 0.968595027924 0.702034533024 0.059208 -0.005194 -0.998232
-0.370448857546 1.225898504257 0.709562242031 0.039804 -0.005103 -0.999195
-0.423160582781 1.153892517090 0.707835316658 0.039804 -0.005103 -0.999195
-0.363421559334 1.094977617264 0.710480928421 0.039723 -0.005093 -0.999198
-0.404677212238 1.059131145477 0.709054350853 0.039723 -0.005093 -0.999198
-0.326276272535 1.032618999481 0.712113440037 0.023063 -0.005014 -0.999721
-0.317879110575 1.116204261780 0.711923599243 0.023063 -0.005014 -0.999721
-0.279907166958 0.964239120483 0.713474750519 0.023063 -0.005014 -0.999721
-0.226694896817 1.090158462524 0.714094698429 0.023063 -0.005014 -0.999721
-0.201414048672 1.249624371529 0.713722765446 0.010901 -0.004955 -0.999928
-0.167370021343 0.991312026978 0.715246140957 0.010901 -0.004955 -0.999928
-0.145199820399 1.164373397827 0.714675784111 0.008919 -0.004955 -0.999948
-0.192916244268 1.277532935143 0.713673532009 0.008919 -0.004955 -0.999948
-0.097057901323 1.156045198441 0.715099036694 0.002950 -0.004916 -0.999984
-0.097560614347 1.209498882294 0.714844703674 0.002950 -0.004916 -0.999984
-0.069665804505 0.865284800529 0.716504216194 0.002950 -0.004916 -0.999984
-0.002613345627 0.895880818367 0.716552674770 0.002950 -0.004916 -0.999984
-0.035283841193 1.158506870270 0.715237081051 0.002950 -0.004916 -0.999984
-0.030293459073 1.275278329849 0.714675843716 0.002950 -0.004916 -0.999984
-0.049016706645 1.397736549377 0.714145421982 0.002944 -0.002944 -0.999991
-0.131287902594 1.403244018555 0.713767170906 0.008902 -0.002967 -0.999956
-0.146190151572 1.315848231316 0.713945269585 0.008902 -0.002967 -0.999956
-0.189924061298 1.462917208672 0.712989628315 0.008902 -0.002967 -0.999956
-0.110773712397 1.644062638283 0.713079690933 0.008902 -0.002967 -0.999956
-0.264764338732 1.529014587402 0.711401820183 0.023063 -0.003008 -0.999730
-0.235014870763 1.486244797707 0.712225794792 0.023063 -0.003008 -0.999730
-0.254416048527 1.334971070290 0.712363541126 0.023017 -0.003002 -0.999731
-0.283033311367 1.453728079796 0.711279213428 0.023017 -0.003002 -0.999731
-0.396616458893 1.351264357567 0.707912206650 0.039723 -0.005093 -0.999198
-0.427623629570 1.628673195839 0.705417573452 0.041842 -0.005103 -0.999111
-0.423720896244 1.644484400749 0.705505430698 0.041842 -0.005103 -0.999111
-0.491698533297 1.347003221512 0.702862620354 0.063479 -0.005203 -0.997970
-0.503755807877 1.371784687042 0.701978445053 0.063479 -0.005203 -0.997970
-0.459236115217 1.258172750473 0.705452442169 0.063610 -0.007300 -0.997948
-0.523659944534 1.243340253830 0.701513528824 0.063610 -0.007300 -0.997948
-0.521204650402 1.641352772713 0.699295818806 0.065688 -0.005213 -0.997827
-0.463785260916 1.595401406288 0.703295171261 0.065688 -0.005213 -0.997827
-0.003155701561 1.581855058670 0.713553130627 0.000981 -0.002944 -0.999995
-0.018553173169 1.596432685852 0.713470280170 0.000981 -0.002944 -0.999995
-0.134142220020 -0.061370760202 -0.552425980568 -0.000978 0.000978 0.999999
-0.654847443104 -0.097428977489 -0.552409410477 -0.000978 0.000978 0.999999
-0.536136448383 0.455655038357 -0.552665710449 -0.000978 0.000978 0.999999
-0.427099078894 -0.314600110054 -0.552308619022 -0.000978 0.000978 0.999999
-0.264643520117 0.153004378080 -0.552525341511 -0.000978 0.000978 0.999999
-0.650959134102 -0.283478915691 -0.552323102951 -0.000978 0.000978 0.999999
-0.533541083336 -0.151002511382 -0.552384495735 -0.000978 0.000978 0.999999
-0.567974388599 -0.380453705788 -0.552278101444 -0.000978 0.000978 0.999999
-0.337564051151 -0.240582317114 -0.552342951298 -0.000978 0.000978 0.999999
-0.518141984940 -0.305411726236 -0.552312910557 -0.000978 0.000978 0.999999
-0.272078663111 -0.358113646507 -0.552288413048 -0.000978 0.000978 0.999999
-0.195654749870 -0.189501881599 -0.552366554737 -0.000978 0.000978 0.999999
