-0.796959757805 0.261283159256 0.601587414742 -0.954408 -0.003685 0.298483
-0.784997463226 0.346537023783 0.640549302101 -0.954408 -0.003685 0.298483
-0.753765583038 0.394527614117 0.741005897522 -0.955534 -0.003670 0.294858
-0.755781352520 0.451210111380 0.735007822514 -0.955540 -0.001223 0.294859
-0.866009831429 0.930787980556 0.373875498772 -0.957321 0.001220 0.289025
-0.858565688133 0.453255444765 0.402827233076 -0.955321 0.003679 0.295548
-0.862987995148 0.695247828960 0.385940909386 -0.956430 0.003664 0.291937
-0.813267290592 0.469058901072 0.549015939236 -0.955534 0.003670 0.294858
-0.840527713299 0.720177888870 0.458711892366 -0.955534 0.003670 0.294858
-0.849300384521 0.464116126299 0.432682216167 -0.955534 0.003670 0.294858
-0.835793614388 0.718562841415 0.474016308784 -0.955534 0.003670 0.294858
-0.815582811832 0.512595474720 0.541145801544 -0.955534 0.003670 0.294858
-0.786543488503 0.550723552704 0.634847819805 -0.956644 -0.001219 0.291258
-0.801326513290 0.622032761574 0.586636066437 -0.956644 -0.001219 0.291258
-0.773157000542 0.750108480453 0.679444015026 -0.956644 -0.001219 0.291258
-0.839538455009 0.747542440891 0.461806565523 -0.956644 -0.001219 0.291258
-0.814863085747 0.656625628471 0.542380034924 -0.956644 -0.001219 0.291258
-0.793088495731 0.561842203140 0.613429963589 -0.956644 -0.001219 0.291258
-0.760945081711 0.715442180634 0.719356775284 -0.956644 -0.001219 0.291258
-0.823489367962 0.925791680813 0.514319419861 -0.957110 -0.003667 0.289700
-0.820866346359 0.926282644272 0.522987902164 -0.957110 -0.003667 0.289700
-0.855108499527 0.836017370224 0.410477668047 -0.957321 0.001220 0.289025
-0.840901374817 0.855296313763 0.457037597895 -0.956436 0.001222 0.291939
-0.835521638393 0.826627314091 0.474845767021 -0.956436 0.001222 0.291939
-0.847546577454 0.302421420813 0.440159529448 -0.955321 0.003679 0.295548
-0.792626142502 0.403943359852 0.616364181042 -0.955321 0.003679 0.295548
-0.783243358135 0.417445302010 0.646511912346 -0.955321 0.003679 0.295548
-0.740872681141 0.296817630529 0.780998468399 -0.954408 -0.003685 0.298483
0.477268904448 2.087740421295 0.686902821064 -0.001294 0.909655 0.415362
0.200413033366 2.075632810593 0.713419079781 -0.001294 0.909655 0.415362
0.289989680052 2.052676677704 0.763701796532 -0.001294 0.909655 0.415362
0.526520490646 2.132142543793 0.589648365974 -0.001294 0.909655 0.415362
0.210215926170 2.058583021164 0.750763893127 -0.001294 0.909655 0.415362
0.406390815973 2.119502305984 0.617333114147 -0.001294 0.909655 0.415362
0.503852844238 2.078969955444 0.706113576889 -0.001294 0.909655 0.415362
0.251421540976 2.101321935654 0.657152533531 -0.001294 0.909655 0.415362
0.400850504637 2.151344776154 0.547587871552 -0.001294 0.909655 0.415362
0.271564066410 2.173410415649 0.499257177114 -0.001294 0.909655 0.415362
0.206004232168 2.166003465652 0.515479862690 -0.001294 0.909655 0.415362
0.217563867569 2.115774154663 0.625497162342 -0.001294 0.909655 0.415362
0.141380846500 2.093889713287 0.673430562019 -0.001294 0.909655 0.415362
0.252842098475 2.178142070770 0.488893240690 -0.001294 0.909655 0.415362
0.304310709238 2.188956499100 0.465206742287 -0.001294 0.909655 0.415362
0.446628391743 2.187498331070 0.468400746584 -0.001294 0.909655 0.415362
0.202511817217 2.116106510162 0.624768972397 -0.001294 0.909655 0.415362
0.052730757743 2.095684051514 0.669500172138 0.001294 0.909655 0.415362
0.242978036404 2.047520637512 0.772760987282 0.001340 0.856545 0.516071
0.455465525389 -2.392025470734 0.134208425879 0.304017 -0.891083 0.336964
0.495791763067 -2.383278131485 0.069356910884 0.613976 -0.773881 0.155380
0.450013786554 -2.433278083801 -0.074370682240 0.555013 -0.831841 0.001357
0.382136315107 -2.400990962982 0.128295272589 0.005053 -0.031329 -0.999496
-0.490664243698 -2.398024797440 -0.038597799838 -0.782802 -0.622085 0.015240
-0.503694593906 -2.380246639252 0.016598813236 -0.784151 -0.620382 0.015267
-0.501174092293 -2.382629871368 0.032143950462 -0.783734 -0.619334 0.046769
-0.451752692461 -2.428679943085 -0.012182597071 -0.552047 -0.831600 0.060711
-0.207005530596 -2.474769353867 -0.064753770828 -0.049411 -0.989374 0.136743
0.032323230058 -2.483186244965 -0.069338157773 0.040841 -0.994540 0.096032
-0.469390541315 -2.391207933426 0.121248975396 -0.594557 -0.781025 0.191053
0.189054355025 -2.474231004715 -0.055563844740 0.048466 -0.982314 0.180859
-0.234211102128 -2.438870429993 0.090392827988 -0.048667 -0.962108 0.268292
-0.042220965028 -2.431592226028 0.129909813404 -0.025295 -0.898622 0.437995
-0.109874665737 -2.522193908691 -0.260286480188 -0.013248 -0.254115 0.967083
0.322708159685 -2.467841386795 -0.086899183691 0.082325 -0.995589 -0.045005
0.026212666184 -2.488716840744 -0.130902364850 0.040357 -0.995831 0.081804
-0.153273358941 -2.480511426926 -0.097072884440 -0.050662 -0.997080 0.057130
-0.117820844054 -2.481975078583 -0.140432164073 -0.077623 -0.995975 -0.044824
-0.733789861202 -2.165044546127 0.174791619182 0.003891 -0.416339 0.909201
-0.717691719532 -2.206839561462 0.157242253423 -0.070262 -0.453258 0.888606
-0.705652832985 -2.067793369293 0.181579127908 0.990829 0.079404 0.109325
-0.633056461811 -2.078583717346 0.149108335376 -0.009186 -0.037765 0.999244
-0.537772953510 -2.181544542313 0.148879885674 -0.021227 -0.013140 0.999688
-0.544669270515 -2.174868822098 0.148823767900 -0.021227 -0.013140 0.999688
-0.632221698761 -2.261251688004 0.142004460096 -0.062708 -0.069309 0.995622
-0.620927035809 -2.302423477173 0.140168473125 -0.021914 -0.046959 0.998656
-0.750372350216 -1.955860376358 0.224101066589 0.973058 -0.017865 0.229866
-0.733911156654 -1.845239281654 0.234761446714 0.019204 -0.150246 0.988462
-0.712329506874 -1.877472519875 0.179296225309 0.996016 0.031430 0.083453
-0.709669768810 -1.972758769989 0.184606492519 0.992964 0.036776 0.112558
-0.653969585896 -1.864545106888 0.161257758737 0.009405 -0.063742 0.997922
-0.649482309818 -1.949742794037 0.155814334750 0.009405 -0.063742 0.997922
-0.577775597572 -1.936206698418 0.156444996595 -0.009296 -0.048545 0.998778
-0.634878039360 -2.049927949905 0.150353565812 -0.009296 -0.048545 0.998778
-0.921373724937 1.892686367035 -0.149525359273 -0.126060 0.991746 -0.023427
-0.916533231735 1.927924633026 -0.144966706634 -0.985955 0.028762 -0.164518
-0.911389529705 1.956650018692 -0.170935228467 -0.985955 0.028762 -0.164518
-0.893293261528 1.166422247887 0.197829127312 -0.051758 -0.998190 -0.030632
-0.935999333858 1.881854891777 -0.125477343798 -0.738196 0.672515 -0.052830
-0.967948079109 1.779309034348 -0.143075451255 -0.992057 0.125785 0.001094
-0.721907496452 1.782468795776 0.829758226871 -0.923189 0.001277 -0.384343
-0.922546863556 0.973651409149 -0.116663031280 -0.126672 -0.663164 0.737677
-0.940550267696 0.973632752895 -0.119566790760 -0.117021 -0.653246 0.748048
-0.908984184265 0.857002675533 -0.295208245516 -0.126972 -0.911127 0.392078
-0.764409840107 -0.608200550079 0.630267381668 -0.092192 0.721437 -0.686316
-0.860746562481 -1.163702607155 -0.174653753638 -0.003158 0.996874 0.078950
-0.729507327080 -1.163173079491 -0.177036389709 -0.003158 0.996874 0.078950
-0.256839513779 -1.162443280220 -0.165397182107 -0.003214 0.995232 0.097488
-0.562994599342 -1.161375045776 -0.189693748951 -0.003214 0.995232 0.097488
-0.878571629524 -1.002306580544 0.078272774816 -0.048346 0.998805 0.007200
-0.423562586308 -1.124353885651 -0.320745408535 -0.003641 0.959898 0.280324
-0.857006788254 -1.159938454628 -0.203769430518 -0.003641 0.959898 0.280324
-0.716637670994 -1.127934575081 -0.311742454767 -0.003641 0.959898 0.280324
-0.660434186459 -1.126532077789 -0.315918862820 -0.003641 0.959898 0.280324
-0.857662677765 -1.141859173775 -0.265651404858 -0.003641 0.959898 0.280324
-0.377291470766 -1.154587745667 -0.214668959379 -0.003631 0.962200 0.272321
-0.562993168831 -1.157500863075 -0.207543015480 -0.003631 0.962200 0.272321
-0.394386470318 -1.145425319672 -0.247175633907 -0.003631 0.962200 0.272321
-0.744977355003 -1.160290122032 -0.200790151954 -0.003631 0.962200 0.272321
-0.354385912418 -1.156429529190 -0.207807421684 -0.003631 0.962200 0.272321
-0.760714292526 -1.727257490158 0.267522394657 0.946568 -0.013791 0.322209
-0.720026254654 -1.683732628822 0.190278008580 0.998091 0.026349 0.055859
-0.723197996616 -1.539133071899 0.193663001060 0.998259 0.019902 0.055517
-0.612355411053 -1.642212748528 0.172411188483 0.033203 -0.067478 0.997168
-0.626708447933 -1.544700145721 0.179411903024 0.033203 -0.067478 0.997168
-0.589810848236 -1.728883028030 0.166484206915 0.011295 -0.040048 0.999134
-0.620644927025 -1.832775831223 0.162627279758 0.011295 -0.040048 0.999134
-0.618589162827 -1.690101623535 0.169528931379 0.033076 -0.060816 0.997601
-0.576439738274 -1.670026063919 0.169360935688 0.033076 -0.060816 0.997601
-0.881802439690 1.928052067757 -0.352850496769 -0.985757 0.031202 -0.165256
-0.892429769039 1.966953277588 -0.282371401787 -0.985757 0.031202 -0.165256
-0.908640921116 2.041881322861 -0.167704403400 -0.984183 0.060256 -0.166590
-0.916187465191 2.081821203232 -0.108956888318 -0.984183 0.060256 -0.166590
-0.909977972507 2.092397451401 -0.141814261675 -0.984183 0.060256 -0.166590
-0.903919756413 2.131213188171 -0.162648528814 -0.982952 0.068078 -0.170792
-0.885826647282 2.056561708450 -0.296809345484 -0.982952 0.068078 -0.170792
-0.763127446175 -1.541983962059 0.281456142664 0.928826 -0.014093 0.370249
-0.756991744041 -1.571611762047 0.264213651419 0.946270 -0.016337 0.322963
-0.742615461349 -1.589259624481 0.256260216236 -0.015867 -0.068757 0.997507
-0.701534986496 -1.393919348717 0.189895018935 0.039166 -0.045517 0.998196
-0.620331168175 -1.341034293175 0.189098224044 0.039166 -0.045517 0.998196
-0.683333992958 -1.447231411934 0.186741068959 0.032484 -0.040868 0.998636
-0.639653325081 -1.411168217659 0.186740592122 0.032484 -0.040868 0.998636
0.116995744407 2.300801753998 -0.311010777950 0.001034 0.998136 -0.061026
0.190519005060 2.299160718918 -0.337334573269 0.001034 0.998136 -0.061026
0.294277518988 2.296751499176 -0.375984340906 0.001034 0.998136 -0.061026
0.361972630024 2.303769588470 -0.262065649033 0.001036 0.997999 -0.063217
0.235814034939 2.300777912140 -0.310622483492 0.001036 0.997999 -0.063217
0.242043271661 2.302432537079 -0.284023076296 0.001036 0.997999 -0.063217
0.429573386908 2.263992071152 -0.254451423883 0.003238 -0.109009 -0.994035
0.395977050066 2.252742290497 -0.253206759691 0.001081 -0.113516 -0.993536
-0.890783369541 0.538683414459 -0.414976924658 -0.081212 0.001055 0.996696
-0.906351864338 0.519439101219 -0.416265904903 -0.083307 0.001055 0.996523
-0.881955623627 -0.030620893463 -0.414596498013 -0.120688 0.001087 0.992690
-0.887862682343 -0.175410300493 -0.415284007788 -0.123096 -0.001089 0.992394
-0.905270397663 0.260290682316 -0.416775882244 -0.119057 -0.005461 0.992872
-0.877421379089 0.122692540288 -0.099552914500 -0.998817 -0.048346 -0.005143
-0.878495097160 0.136274784803 -0.043571736664 -0.998586 -0.052666 -0.007229
-0.870164453983 0.116239912808 -0.077965505421 0.080285 0.996606 0.018198
-0.876822650433 0.117597050965 -0.014189874753 0.102381 0.994717 -0.007544
-0.902476847172 0.126239717007 -0.101210273802 0.034165 0.999081 0.025883
-0.876331567764 0.136952966452 0.067576333880 -0.996756 -0.035560 0.072197
-0.853290140629 0.117974035442 0.068122878671 0.133624 0.988817 -0.066231
-0.840095281601 0.118678659201 0.111211232841 0.155248 0.986351 -0.054862
-0.851186931133 0.125624492764 0.222543388605 -0.015989 -0.996671 0.079947
-0.829983592033 0.127759575844 0.226368650794 0.999780 -0.020974 0.000999
-0.829794108868 0.134422093630 0.201932713389 0.999633 -0.027071 0.001003
-0.849936068058 0.172620788217 0.239688679576 -0.074973 0.996375 -0.040203
-0.835451602936 0.175995752215 0.302260011435 -0.065480 0.997225 -0.035423
-0.767315745354 0.187998458743 0.616957187653 -0.499263 0.858963 0.113665
-0.802254557610 0.183115094900 0.535311102867 -0.120688 0.992690 0.001087
-0.819406211376 0.156807065010 0.499434769154 -0.939831 -0.094382 0.328343
-0.766448616982 0.153567418456 0.655854225159 -0.947395 -0.008715 0.319948
-0.872431695461 0.135489791632 0.336815148592 -0.048998 -0.996288 0.070775
-0.864212691784 0.331275820732 -0.405397713184 0.166415 -0.005660 -0.986039
-0.876006722450 0.498035877943 -0.408247470856 0.145143 0.001108 -0.989410
-0.885745763779 0.390737831593 -0.414575904608 -0.083483 -0.001057 0.996509
-0.877504944801 0.131012648344 -0.347576290369 -0.998260 -0.058965 -0.001034
-0.878512740135 0.144932225347 -0.248704612255 -0.998260 -0.058965 -0.001034
-0.844328165054 0.018241032958 -0.395027846098 0.107564 0.009779 -0.994150
-0.849524140358 -0.035810802132 -0.396212667227 0.112339 0.011997 -0.993598
-0.834243655205 -0.115027084947 -0.396403282881 0.111609 0.025416 -0.993427
-0.865878820419 -0.435474246740 -0.401871711016 0.164210 0.007927 -0.986394
-0.364285588264 -1.020979642868 -0.444337606430 0.001382 0.736866 0.676037
-0.842267811298 -1.026597499847 -0.437145769596 0.001382 0.736866 0.676037
-0.641580402851 -1.022931456566 -0.441588014364 0.001382 0.736866 0.676037
-0.822520911694 -1.027196764946 -0.436537981033 0.001382 0.736866 0.676037
-0.432319492102 -1.017240047455 -0.448253929615 0.001382 0.736866 0.676037
-0.220215573907 -1.030951142311 -0.433023691177 -0.004143 0.749912 0.661525
-0.366682678461 -1.058899164200 -0.402142077684 -0.004143 0.749912 0.661525
-0.209233224392 -1.044075846672 -0.418116629124 -0.004143 0.749912 0.661525
-0.201848670840 -1.109631061554 -0.343900144100 -0.004143 0.749912 0.661525
-0.699244379997 -1.107375979424 -0.348974972963 -0.004143 0.749912 0.661525
-0.555855453014 -1.087658524513 -0.370558977127 -0.004143 0.749912 0.661525
-0.877995729446 -0.769885301590 -0.384019017220 0.976423 -0.046955 -0.210696
-0.879327774048 -0.773054599762 -0.390481173992 0.983764 -0.041039 -0.174709
-0.866760492325 -0.689208447933 -0.396345466375 0.191662 -0.199593 -0.960952
-0.838957011700 -0.943243861198 0.256407707930 0.122799 -0.779699 0.613995
-0.845791995525 -0.994794309139 0.108718022704 0.052992 -0.998530 0.011430
-0.837268888950 -0.994574189186 0.082665629685 0.052559 -0.998613 0.003092
-0.868958711624 -0.993215501308 -0.237824916840 0.062946 -0.997537 -0.030940
-0.840703964233 -0.991549253464 -0.257881551981 0.063873 -0.997892 0.011518
-0.862835168839 -0.988053500652 -0.327979296446 0.029956 -0.992997 -0.114278
-0.865674495697 -0.952310383320 -0.338165909052 0.088625 -0.215945 -0.972375
-0.872424006462 -0.997138559818 -0.009641189128 0.063348 -0.997991 -0.001038
-0.875757873058 -0.997173488140 -0.019727032632 0.055519 -0.998299 -0.017808
0.895262718201 1.954717636108 -0.267781555653 0.985757 0.031202 -0.165256
0.902942478657 2.005884170532 -0.212567642331 0.985757 0.031202 -0.165256
0.893742382526 2.023024320602 -0.262303054333 0.984183 0.060256 -0.166590
0.900393843651 2.063589572906 -0.208612486720 0.984183 0.060256 -0.166590
0.863886415958 2.123037576675 -0.396468251944 0.982952 0.068078 -0.170792
0.886763691902 2.061721086502 -0.289341121912 0.982952 0.068078 -0.170792
0.534109473228 2.300303697586 -0.310647338629 0.009405 0.997922 -0.063742
0.656948864460 2.294121265411 -0.391477108002 -0.001046 0.997236 -0.074296
0.635879099369 2.302500963211 -0.279321074486 -0.001046 0.997236 -0.074296
0.702788710594 2.307852745056 -0.157232344151 0.357624 0.933865 -0.001264
0.803291857243 2.286279678345 0.155833080411 0.196406 0.666545 -0.719126
0.883179724216 1.892250418663 -0.369731426239 0.126060 0.991746 -0.023427
0.934785783291 1.881525158882 -0.108166977763 0.956866 0.280527 0.075576
0.091115973890 2.228613853455 -0.275416076183 -0.003682 -0.953706 0.300718
-0.042207870632 2.232921361923 -0.261913299561 0.001223 -0.954848 0.297091
-0.372374236584 2.218645811081 -0.306472957134 -0.003691 -0.953483 0.301424
-0.590562105179 2.279783487320 -0.256414353848 0.001083 -0.115898 -0.993261
-0.658346354961 2.247077941895 -0.252516806126 -0.001085 -0.118289 -0.992979
-0.062836781144 2.221593379974 -0.297846466303 0.003682 -0.953706 0.300718
-0.199894130230 2.222638130188 -0.294246166945 -0.001227 -0.953006 0.302950
-0.257777601480 2.290318250656 -0.257761955261 -0.003257 -0.114005 -0.993475
-0.398991495371 2.265134811401 -0.254633754492 0.001081 -0.113516 -0.993536
-0.444764107466 2.250594854355 -0.252938181162 -0.003238 -0.109009 -0.994035
-0.714477002621 -0.391127109528 0.790703177452 -0.138569 0.336132 -0.931565
0.883708357811 1.900238513947 -0.346400380135 0.985955 0.028762 -0.164518
0.913029789925 1.897403597832 -0.171131223440 0.985955 0.028762 -0.164518
-0.435580015182 2.300628185272 -0.312222868204 -0.001036 0.997999 -0.063217
-0.467573404312 2.295581102371 -0.393147915602 -0.001036 0.997999 -0.063217
-0.281625270844 2.303124189377 -0.272755980492 -0.001036 0.997999 -0.063217
-0.392856955528 2.295583486557 -0.393935561180 -0.001034 0.998136 -0.061026
-0.225377321243 2.296938896179 -0.373119235039 -0.001034 0.998136 -0.061026
-0.175631403923 2.297436237335 -0.365191906691 -0.001034 0.998136 -0.061026
-0.021228346974 2.296236276627 -0.383531302214 0.001036 0.998128 -0.061152
-0.003503121436 2.298112392426 -0.353923857212 -0.001036 0.997999 -0.063217
-0.033174067736 2.260600328445 -0.254489064217 0.001125 -0.165311 -0.986241
-0.873547494411 1.677391886711 -0.088186256588 -0.029808 -0.976505 -0.213424
-0.048854582012 -2.313841104507 0.139373719692 0.001166 0.975939 0.218041
-0.912872791290 -1.003840446472 0.065179400146 -0.046198 0.998906 0.007186
-0.909296989441 0.126248925924 0.024106733501 0.036015 0.999160 -0.019551
-0.908832252026 0.137182027102 0.134380429983 0.082497 -0.995468 0.047298
-0.911982178688 0.133451104164 0.039666999131 0.082067 -0.996530 0.013856
-0.883039712906 -2.126042842865 -0.153568416834 -0.593969 -0.801930 0.064097
-0.919496119022 -2.065180063248 -0.130226448178 -0.853168 -0.501950 0.141951
-0.927478075027 -2.037391901016 -0.084593296051 -0.886371 -0.429359 0.173199
-0.744714021683 -2.322107791901 -0.214727178216 -0.496082 -0.761315 -0.417495
0.216761812568 -2.400535583496 -0.429630309343 0.001013 -0.035439 0.999371
0.031986016780 -2.489903450012 -0.349679678679 -0.388693 -0.071283 -0.918606
-0.662325441837 -2.336959600449 -0.131142392755 -0.419806 -0.905756 -0.058044
-0.641407072544 -2.339162111282 -0.246022999287 -0.419806 -0.905756 -0.058044
-0.687661349773 -2.319744110107 -0.369976490736 -0.294206 -0.955230 -0.031298
-0.698745071888 -2.313998222351 -0.367002129555 -0.509555 -0.860128 -0.023100
-0.843265175819 -2.189388990402 -0.255403578281 -0.878721 -0.475463 -0.042233
-0.861342728138 -2.150419950485 -0.191500157118 -0.985880 -0.166031 -0.021756
-0.857664048672 -2.150535583496 -0.392192482948 -0.403592 -0.914894 0.009084
-0.433478325605 -2.353610038757 -0.102255955338 0.078478 0.436447 -0.896301
-0.412317782640 -2.382128715515 -0.114538684487 0.055639 0.432899 -0.899724
-0.485162824392 -2.273381948471 0.022169537842 0.160020 0.982981 0.090237
-0.404199123383 -2.291097879410 0.064961850643 0.126224 0.984544 0.121415
-0.361921638250 -2.293337345123 0.041292473674 0.085989 0.991741 0.095161
-0.331808000803 -2.302862167358 0.112907305360 0.090952 0.991260 0.095557
-0.257738649845 -2.302495956421 0.058139000088 0.033875 0.995499 0.088513
-0.173467665911 -2.304053306580 0.048947151750 0.011836 0.995333 0.095767
0.103771328926 -2.309349060059 0.105120308697 0.001048 0.997066 0.076536
0.158878564835 -2.311005830765 0.126640379429 0.001048 0.997066 0.076536
0.145850598812 -2.309285640717 0.104295797646 0.001048 0.997066 0.076536
0.193845778704 -2.303269624710 0.043203048408 -0.011836 0.995333 0.095767
0.248861029744 -2.299591302872 0.021947495639 -0.033875 0.995499 0.088513
0.299416154623 -2.301310539246 0.068658895791 -0.068506 0.993896 0.086475
0.413685560226 -2.284026622772 0.017095863819 -0.126224 0.984544 0.121415
0.447591811419 -2.294747352600 0.140728697181 -0.112442 0.971546 0.208459
0.539743602276 -2.161889791489 0.149110361934 0.021227 -0.013140 0.999688
0.556579470634 -2.252506971359 0.147317558527 0.062708 -0.069309 0.995622
0.672286033630 -2.202486038208 0.143819332123 0.021914 -0.046959 0.998656
0.908106386662 -2.072476387024 -0.088001102209 0.853168 -0.501950 0.141951
0.863116621971 -2.146584510803 -0.211910218000 0.403592 -0.914894 0.009084
0.863167047501 -2.154728889465 -0.079847872257 0.985880 -0.166031 -0.021756
0.844746649265 -2.173851490021 -0.401833623648 0.878721 -0.475463 -0.042233
0.465275287628 -2.271334171295 -0.068196885288 -0.108035 0.702968 -0.702968
0.391990751028 -2.306698799133 -0.076988153160 -0.055639 0.432899 -0.899724
0.431140989065 -2.364213705063 -0.107225909829 -0.078478 0.436447 -0.896301
0.481036424637 -2.331165790558 -0.123833552003 -0.616874 0.379994 -0.689254
0.511286020279 -2.385803222656 -0.149293765426 0.236377 -0.281671 -0.929939
0.514741718769 -2.368862152100 -0.205656811595 -0.851940 -0.522688 -0.031553
0.524355113506 -2.368652105331 -0.394032180309 0.276280 -0.958705 -0.067479
0.827081561089 -2.223421573639 -0.143517911434 0.740906 -0.669528 -0.052820
0.791913509369 -2.246325254440 -0.346992850304 0.740906 -0.669528 -0.052820
0.836477160454 -2.214474439621 -0.088243812323 0.858505 -0.511245 -0.039963
0.801426529884 -2.248710632324 -0.142567574978 0.686496 -0.726129 -0.038217
0.772400081158 -2.263616561890 -0.345796138048 0.585898 -0.809630 -0.034958
0.740609407425 -2.288419485092 -0.287682175636 0.573207 -0.818668 -0.034867
0.761117219925 -2.275661468506 -0.252205014229 0.573207 -0.818668 -0.034867
0.696750640869 -2.315510988235 -0.354442596436 0.509555 -0.860128 -0.023100
0.726815342903 -2.304843425751 -0.085215434432 0.509555 -0.860128 -0.023100
0.634574055672 -2.335780620575 -0.380723774433 0.294206 -0.955230 -0.031298
0.678471207619 -2.331082344055 -0.111714579165 0.294206 -0.955230 -0.031298
0.626493930817 -2.354038238525 -0.123388960958 0.419806 -0.905756 -0.058044
0.619982242584 -2.353200435638 -0.182567775249 0.419806 -0.905756 -0.058044
0.597897231579 -2.352970123291 -0.310179710388 0.290183 -0.954919 -0.062639
0.588716864586 -2.361459732056 -0.223718672991 0.290183 -0.954919 -0.062639
0.638417720795 -1.479565858841 0.183943539858 -0.032484 -0.040868 0.998636
0.604113698006 -1.377608299255 0.186910003424 -0.032484 -0.040868 0.998636
0.702100455761 -1.608246564865 0.177688539028 -0.033203 -0.067478 0.997168
0.680218994617 -1.632937550545 0.175313442945 -0.033203 -0.067478 0.997168
0.583495676517 -1.603951334953 0.174017742276 -0.033203 -0.067478 0.997168
0.545658349991 -1.803235650063 0.162916913629 -0.011295 -0.040048 0.999134
0.633685350418 -1.911926269531 0.158052757382 -0.009405 -0.063742 0.997922
0.618803918362 -1.925230026245 0.157061189413 -0.009405 -0.063742 0.997922
0.612648010254 -2.050165176392 0.150537073612 0.009296 -0.048545 0.998778
0.693832576275 -2.130991697311 0.146573111415 0.009186 -0.037765 0.999244
0.700007438660 -2.131673336029 0.176454067230 -0.994348 0.068075 0.081467
0.747649729252 -2.178698778152 0.175349235535 -0.989260 -0.061179 0.132748
0.872850835323 1.165763020515 0.190481841564 0.041283 -0.998204 -0.043400
0.831154823303 0.176806896925 0.314193636179 -0.148406 -0.983340 0.104970
0.842884898186 1.151969552040 0.281595706940 -0.160307 0.984406 0.072435
0.906163156033 1.164603114128 0.247437879443 0.052926 -0.996956 -0.057247
0.887126743793 0.484042376280 -0.414638757706 0.081212 0.001055 0.996696
0.895914494991 0.375481843948 -0.415449738503 0.083483 -0.001057 0.996509
0.900365531445 0.092210009694 -0.416844516993 0.120688 0.001087 0.992690
0.903778195381 0.022223562002 -0.417265206575 0.123096 -0.001089 0.992394
0.919445753098 -0.854075789452 -0.375483691692 0.047845 0.236770 0.970387
0.886947870255 -0.903455257416 -0.361408144236 0.046574 0.283223 0.957923
0.868986606598 1.158218741417 0.140078157187 -0.105860 0.994208 -0.018553
0.840508282185 1.153171777725 0.035725709051 -0.105860 0.994208 -0.018553
0.852918028831 1.153395891190 -0.005578458309 -0.088506 0.995423 -0.036058
0.944304287434 1.156994819641 -0.028470952064 0.083534 -0.276306 0.957433
0.957490742207 1.086575150490 -0.051143772900 0.100994 -0.292490 0.950920
0.933003365993 1.046652436256 -0.068537741899 0.103183 -0.467856 0.877761
0.907359421253 1.004510283470 -0.088418185711 0.122433 -0.485410 0.865672
0.970043838024 0.972992241383 -0.124687597156 0.117021 -0.653246 0.748048
0.839027404785 1.154042005539 0.224163800478 -0.111848 0.993340 0.027685
0.705423355103 2.248032331467 -0.193739593029 0.996020 0.088606 -0.009608
0.771139144897 2.285964012146 -0.209974944592 0.158991 0.983828 -0.082484
0.802021980286 2.270427703857 -0.337166637182 0.158991 0.983828 -0.082484
0.826572537422 2.281776428223 -0.135030388832 0.259968 0.962514 -0.077356
0.895178258419 2.198239564896 -0.138974845409 0.939198 0.295648 -0.174639
0.876732409000 2.215045690536 -0.211364343762 0.950967 0.259599 -0.168134
0.719787299633 2.289273738861 -0.380936086178 0.246970 0.966567 -0.068951
0.888105928898 2.165540695190 -0.226324841380 0.967445 0.187791 -0.169659
0.860539853573 2.253870487213 0.076193094254 0.788330 0.614082 0.037941
0.883297443390 2.201395034790 0.142609134316 0.933659 0.333937 0.129486
0.717468440533 2.293512344360 0.136701703072 0.160928 0.986950 0.005627
0.712838053703 2.274031877518 0.262063831091 0.251996 0.963213 0.093379
0.858157992363 2.172527551651 0.254669159651 0.900864 0.384427 0.201643
0.838330090046 2.197510480881 0.281763345003 0.818468 0.376654 0.433868
0.819518923759 2.214839458466 0.295378953218 0.678370 0.605392 0.416310
0.805917024612 2.236721992493 0.288151681423 0.675199 0.497603 0.544515
0.701912939548 2.265722513199 0.043186169118 0.990067 0.139840 0.014543
-0.697279334068 2.261338949203 0.242946088314 -0.997201 0.054981 0.050669
-0.700915515423 2.269877672195 0.070914477110 -0.990067 0.139840 0.014543
-0.696819484234 2.297827243805 0.085574664176 -0.993197 0.116399 -0.003264
-0.194463491440 2.301479578018 0.202512353659 0.000978 -0.999999 0.000978
-0.264437407255 2.301479578018 0.236154243350 0.000978 -0.999999 0.000978
-0.357970654964 2.301479578018 0.260585308075 0.000978 -0.999999 0.000978
-0.703649997711 2.275053501129 -0.088583558798 -0.994811 0.101730 0.001071
-0.733262419701 2.292721509933 -0.287390828133 -0.183610 0.975504 -0.121157
-0.773006975651 2.276944398880 -0.363803088665 -0.246970 0.966567 -0.068951
-0.590039789677 2.301980495453 -0.286206185818 0.001046 0.997236 -0.074296
-0.513766467571 2.300122022629 -0.316505551338 -0.009405 0.997922 -0.063742
-0.838427603245 2.251007795334 -0.318972498178 -0.887494 0.443035 -0.126785
-0.857740044594 2.206178665161 -0.332232028246 -0.950967 0.259599 -0.168134
-0.891858398914 2.219848394394 -0.120128169656 -0.939198 0.295648 -0.174639
-0.771572709084 2.287748575211 -0.187622547150 -0.158991 0.983828 -0.082484
-0.816438257694 2.276695966721 -0.233032077551 -0.259968 0.962514 -0.077356
-0.871852934361 2.171796321869 0.199941769242 0.606770 0.788070 -0.103809
-0.890419781208 2.186048746109 0.199607864022 0.606770 0.788070 -0.103809
-0.867213070393 2.171091079712 0.216971099377 -0.900864 0.384427 0.201643
-0.818688571453 2.239719629288 0.258993506432 -0.786602 0.580330 0.210889
-0.736508786678 2.269343614578 0.246708393097 -0.251996 0.963213 0.093379
-0.810395658016 2.248443841934 0.231308788061 -0.365489 0.922687 0.122749
-0.783907055855 2.276345491409 -0.328569114208 -0.357624 0.933865 -0.001264
0.770533740520 2.265420913696 0.165744483471 0.254115 0.967083 0.013248
0.536927342415 2.301324367523 -0.258891761303 -0.001083 -0.115898 -0.993261
0.593396604061 2.229563474655 -0.274128079414 0.001223 -0.954848 0.297091
0.879733681679 0.517284452915 -0.408786922693 -0.145143 0.001108 -0.989410
0.856853246689 0.745818853378 -0.406352430582 -0.093040 -0.007486 -0.995634
0.924150824547 0.873924255371 -0.260883122683 0.126972 -0.911127 0.392078
0.961654007435 0.854803323746 -0.318563550711 0.129842 -0.946376 0.295826
0.916478812695 1.168362617493 0.100045189261 0.029251 -0.999568 0.003026
0.775416731834 -1.121196985245 -0.333722352982 0.004143 0.749912 0.661525
0.483826726675 -1.103315114975 -0.352477371693 0.004143 0.749912 0.661525
0.514793217182 -1.083763599396 -0.374758064747 0.004143 0.749912 0.661525
0.220902398229 -1.098161458969 -0.356975227594 0.004143 0.749912 0.661525
0.371805459261 -1.064670085907 -0.395638078451 0.004143 0.749912 0.661525
0.181108474731 -1.099445939064 -0.355320036411 0.004143 0.749912 0.661525
0.579371929169 -1.130819201469 -0.300347268581 0.003641 0.959898 0.280324
0.833859920502 -1.155232191086 -0.219619631767 0.003641 0.959898 0.280324
0.822615087032 -1.157764315605 -0.210829079151 0.003641 0.959898 0.280324
0.680443525314 -1.132990479469 -0.294037401676 0.003641 0.959898 0.280324
0.780508875847 -1.138819456100 -0.275198698044 0.003641 0.959898 0.280324
0.276887923479 -1.161082625389 -0.180181413889 0.003214 0.995232 0.097488
0.506897270679 -1.162212967873 -0.178677245975 0.003214 0.995232 0.097488
0.287414342165 -1.164916634560 -0.140263810754 0.003158 0.996874 0.078950
0.605736732483 -1.165736436844 -0.140384629369 0.003158 0.996874 0.078950
0.306150048971 -1.136698484421 -0.276381760836 0.003631 0.962200 0.272321
0.598547518253 -1.159509897232 -0.201075136662 0.003631 0.962200 0.272321
0.355472713709 -1.153445601463 -0.218318939209 0.003631 0.962200 0.272321
0.453689187765 -1.154604077339 -0.215894296765 0.003631 0.962200 0.272321
0.279618859291 -1.162579655647 0.352064281702 0.028436 -0.988428 0.149003
0.032513841987 -1.170343995094 0.316506534815 0.003345 -0.988939 0.148285
0.674988269806 -1.231745004654 0.196015387774 -0.038929 -0.038929 0.998483
0.663790702820 -1.289661645889 0.193199753761 -0.039166 -0.045517 0.998196
0.624797284603 -1.307890057564 0.190804928541 -0.039166 -0.045517 0.998196
0.725442409515 -1.384475946426 0.202619209886 -0.996860 0.003165 0.079116
0.746344029903 -1.998406887054 0.211675494909 -0.019204 -0.150246 0.988462
0.707239627838 -2.027927875519 0.181121081114 -0.992964 0.036776 0.112558
0.720381736755 -1.675537228584 0.192673504353 -0.998091 0.026349 0.055859
0.722783446312 -1.569673538208 0.197136417031 -0.998259 0.019902 0.055517
0.687440276146 -1.671948194504 0.172950685024 -0.033076 -0.060816 0.997601
0.678263843060 -1.734667778015 0.168769314885 -0.033076 -0.060816 0.997601
0.760705888271 -1.705753684044 0.268421113491 -0.946568 -0.013791 0.322209
0.875184535980 -1.002798199654 0.174697861075 0.046198 0.998906 0.007186
0.880906701088 0.143683776259 0.209018215537 -0.085618 -0.992028 0.092468
0.853218913078 0.147192999721 0.310809046030 -0.054139 0.978111 -0.200916
0.860005378723 0.128811642528 0.200721755624 -0.161783 0.981648 -0.100963
0.905505955219 0.126157581806 -0.094134569168 -0.034165 0.999081 0.025883
0.919831454754 0.133133754134 -0.272862523794 -0.034856 0.998159 0.049644
0.908945024014 0.128667041659 -0.184865087271 -0.036233 0.999008 0.025881
0.878565311432 0.143503427505 -0.078570291400 0.998817 -0.048346 -0.005143
0.859558761120 0.116665259004 -0.137228280306 -0.092469 0.995401 0.025021
0.889726817608 0.152817755938 -0.411444813013 0.093187 0.987312 0.128575
0.879330396652 0.158438473940 -0.386225759983 0.998239 -0.059086 -0.005183
0.924108862877 0.135280773044 -0.199117749929 -0.131303 -0.990945 -0.028056
0.709579348564 0.395723432302 0.832679748535 0.123096 0.001089 -0.992394
0.711582720280 0.682375252247 0.832884013653 0.125512 -0.001091 -0.992091
0.704440116882 0.824163198471 0.831847071648 0.126331 -0.005493 -0.991973
0.722967326641 1.600125074387 0.832292914391 0.923189 -0.001277 -0.384343
0.720904111862 1.324749827385 0.827358782291 0.923189 0.001277 -0.384343
0.794185459614 1.092636346817 0.544921278954 0.198436 -0.957551 -0.209090
0.841287374496 1.132005810738 0.409170657396 0.196656 -0.956523 -0.215385
0.910794258118 1.061064243317 0.212470337749 0.104070 0.001073 0.994569
0.887663245201 0.962309181690 0.249803036451 0.000995 -0.018902 0.999821
0.350670367479 -1.163019418716 0.338105261326 -0.010702 -0.971538 0.236641
0.476832062006 -1.157788157463 0.344491422176 0.027986 -0.967354 0.251877
0.727668046951 -1.298528075218 0.228741273284 -0.997224 0.001049 0.074451
0.745050013065 -1.467163562775 0.264541834593 0.011339 -0.046387 0.998859
0.761376261711 -1.509697794914 0.278252512217 -0.928826 -0.014093 0.370249
0.754865348339 -1.158037900925 0.284271687269 0.001307 -0.900357 0.435151
0.609523177147 -1.152970790863 0.316075623035 0.061098 -0.981158 0.183293
0.600332260132 -1.155276775360 0.306800693274 0.051039 -0.981605 0.183977
-0.109907165170 -0.326728522778 0.873268187046 0.005870 0.975587 -0.219536
0.849437594414 -0.925778508186 0.288093507290 -0.978290 -0.207235 0.001158
0.831654191017 -0.986233770847 0.179997727275 -0.088793 -0.872427 0.480610
0.834379613400 -0.958188474178 0.230074986815 -0.131915 -0.862523 0.488521
0.858931303024 0.154959097505 0.385272979736 0.939831 -0.094382 0.328343
0.753819465637 0.187451601028 0.696758151054 0.939831 -0.094382 0.328343
0.761957943439 0.149982899427 0.631023168564 0.421311 -0.890401 0.172289
0.813337504864 0.147157818079 0.516725778580 0.947395 -0.008715 0.319948
0.867819845676 0.120610266924 0.138278335333 0.007342 -0.997501 0.070276
0.850828528404 0.124393440783 0.168693333864 -0.177819 0.982179 -0.060864
0.836099803448 -0.042987249792 -0.394772589207 -0.112339 0.011997 -0.993598
0.877206623554 0.037007518113 -0.399411320686 -0.988993 0.001112 -0.147960
0.858013689518 -0.277386903763 -0.399535417557 -0.101947 0.003219 -0.994785
0.872448801994 -0.243263512850 -0.401322275400 -0.164210 0.007927 -0.986394
0.878488659859 0.009397804737 -0.408268660307 -0.982547 -0.001141 -0.186011
0.878269970417 -0.606096744537 -0.409241259098 -0.965696 0.001197 -0.259673
0.877461194992 -0.610932111740 -0.406138271093 -0.970628 -0.001185 -0.240583
0.848338842392 -0.891793549061 -0.350087225437 -0.088625 -0.215945 -0.972375
0.832410991192 -0.809532225132 -0.364464163780 -0.191662 -0.199593 -0.960952
0.830436289310 -0.657689273357 -0.395533561707 -0.185456 -0.012671 -0.982571
0.407165586948 -1.036447048187 -0.427407920361 -0.001382 0.736866 0.676037
0.540865778923 -1.009026527405 -0.456948041916 -0.001382 0.736866 0.676037
0.517441511154 -1.053291559219 -0.408827364445 -0.001382 0.736866 0.676037
0.533248305321 -1.017475247383 -0.447770506144 -0.001382 0.736866 0.676037
0.662409484386 -1.043564558029 -0.419086247683 -0.001382 0.736866 0.676037
0.487330257893 -1.044427037239 -0.418542474508 -0.001382 0.736866 0.676037
0.839259266853 -0.993107736111 0.148719087243 -0.095427 -0.994856 0.034003
0.860185921192 -0.992523193359 0.169321060181 -0.097208 -0.978231 0.183341
0.849694609642 -0.994765281677 0.128073409200 -0.052992 -0.998530 0.011430
0.836640298367 -0.994656383991 0.046141117811 -0.050399 -0.998724 0.003086
0.831848800182 -0.994488656521 0.025913164020 -0.054614 -0.998503 0.003091
0.852431952953 0.120383843780 -0.326447039843 0.071904 -0.996991 -0.028976
0.932579517365 0.131352499127 0.029248081148 -0.094231 -0.995380 0.018413
0.868104636669 0.159830972552 0.007919033058 -0.046671 -0.998755 -0.017631
0.878139257431 0.165231063962 -0.288417577744 -0.038560 -0.994858 -0.093647
0.841824591160 0.162369266152 -0.165976867080 -0.043842 -0.997664 -0.052396
0.868853211403 0.336367726326 -0.406167894602 -0.129895 -0.014433 -0.991423
0.797795951366 -0.727398812771 0.508897066116 0.101360 0.744774 -0.659573
0.770210921764 -0.645283341408 0.592071771622 0.098594 0.722532 -0.684271
0.777462124825 -0.631337881088 0.603365004063 0.916368 0.384461 -0.111618
0.855515122414 0.153604596853 0.372789382935 -0.175442 0.976753 -0.123183
0.721561372280 -0.270046472549 0.809542059898 0.921175 0.051692 -0.385701
-0.037308819592 0.138600498438 0.891537785530 -0.001180 -0.971447 -0.237255
0.463010311127 0.028636865318 0.876970410347 -0.989726 -0.001108 -0.142973
0.709680974483 -0.278114676476 0.812007427216 0.140887 0.131086 -0.981309
0.707697451115 -0.227705642581 0.818441450596 0.135427 0.130547 -0.982149
0.712070822716 -0.003164567053 0.828779041767 0.134386 0.032749 -0.990388
0.310705959797 0.138005390763 0.889218568802 -0.005658 -0.985666 -0.168616
-0.462024629116 0.077983573079 0.883066833019 0.977506 0.003495 -0.210880
0.764297246933 -1.249957323074 0.288553476334 -0.966893 -0.015692 0.254700
0.299626737833 -2.466300487518 -0.127965003252 0.112591 -0.987242 -0.112591
0.270758390427 -2.394703865051 -0.112630218267 -0.046927 0.416980 -0.907703
0.232613801956 -2.450719356537 -0.136292129755 -0.046927 0.416980 -0.907703
0.101981595159 -2.337339162827 -0.082543224096 -0.006500 0.417317 -0.908738
0.134010404348 -2.393975019455 -0.108696743846 -0.006500 0.417317 -0.908738
0.184701651335 -2.292910099030 -0.040074091405 -0.010272 0.984983 0.172344
0.365850687027 -2.284311056137 -0.024281734601 -0.125488 0.977813 0.167732
0.286411195993 -2.307127952576 -0.071628578007 -0.022498 0.432751 -0.901233
0.005009844899 -2.300321102142 -0.009892679751 -0.012578 0.984498 0.174946
-0.099564693868 -2.295872688293 -0.028755905107 0.012578 0.984498 0.174946
-0.182921350002 -2.294100284576 -0.033402375877 0.010272 0.984983 0.172344
-0.117630019784 -2.311405420303 -0.070764079690 0.006500 0.417317 -0.908738
-0.179015636444 -2.300931453705 -0.066364206374 0.006500 0.417317 -0.908738
-0.117620453238 -2.394178152084 -0.108645871282 0.030166 0.392157 -0.919404
-0.125440880656 -2.456103086472 -0.135333105922 0.030166 0.392157 -0.919404
0.000391290872 -2.379513025284 -0.098446838558 -0.030166 0.392157 -0.919404
0.016805322841 -2.422513723373 -0.117347650230 -0.030166 0.392157 -0.919404
0.117167182267 -2.400770187378 -0.111443601549 -0.030166 0.392157 -0.919404
-0.232491999865 -2.426479339600 -0.125173717737 0.046927 0.416980 -0.907703
-0.338605910540 -2.446983814240 -0.140037029982 0.022498 0.432751 -0.901233
-0.320194005966 -2.298780202866 -0.068980529904 0.036100 0.429186 -0.902494
-0.513519048691 -2.388649940491 -0.101976238191 -0.241134 -0.970474 0.005939
-0.553945899010 -2.376351118088 -0.158334732056 -0.290183 -0.954919 -0.062639
-0.608473479748 -2.353101491928 -0.259306371212 -0.290183 -0.954919 -0.062639
-0.541705846786 -2.371458768845 -0.283273398876 -0.276280 -0.958705 -0.067479
-0.557330667973 -2.366402864456 -0.290800601244 -0.276280 -0.958705 -0.067479
0.178944796324 -2.418749094009 0.142750948668 0.014953 -0.531527 0.846909
-0.280766338110 -2.402895212173 0.158288002014 -0.044030 -0.957346 0.285568
-0.010438513011 -2.372038125992 0.161030471325 0.000978 0.000978 0.999999
0.013967389241 -2.365946054459 0.161030471325 0.000978 0.000978 0.999999
0.355572074652 -2.368975639343 0.161030426621 0.000978 0.000978 0.999999
0.457611858845 -2.332029104233 0.161030411720 0.000978 -0.000978 0.999999
0.476878851652 -2.367447853088 0.147377029061 0.285034 -0.439107 0.852021
0.132948040962 -2.361753940582 0.152536064386 -0.013616 0.954369 0.298318
0.869409263134 -0.968920946121 0.240841567516 0.064536 0.888405 -0.454501
0.886958479881 0.136471062899 0.219689235091 -0.050593 0.992747 -0.109056
0.659124135971 -2.405209064484 -0.242028281093 0.893111 -0.449834 0.001311
0.765311121941 -2.334999561310 -0.289267361164 0.035074 -0.615891 0.787050
0.760172963142 -2.326021432877 -0.279065787792 0.461414 -0.707945 0.534707
-0.732768893242 -2.291568517685 -0.340579807758 -0.573207 -0.818668 -0.034867
-0.730837464333 -2.293195962906 -0.334228575230 -0.573207 -0.818668 -0.034867
-0.777552902699 -2.270152807236 -0.099944435060 -0.585898 -0.809630 -0.034958
-0.793787777424 -2.248263835907 -0.287534415722 -0.686496 -0.726129 -0.038217
-0.793466866016 -2.239037036896 -0.417527854443 -0.740906 -0.669528 -0.052820
-0.860760390759 0.176297470927 -0.358325570822 0.041177 -0.982370 -0.182356
-0.855162978172 0.118460394442 -0.252180039883 -0.071904 -0.996991 -0.028976
-0.866206526756 0.179469645023 -0.421450763941 -0.016653 0.991388 0.129891
-0.828738689423 0.169879838824 -0.419054150581 0.999816 0.018940 0.002990
-0.841922521591 0.165741696954 -0.154170945287 -0.045917 0.998945 -0.001020
-0.848137617111 0.165031120181 -0.050920844078 -0.046766 0.998711 0.019746
-0.844205379486 0.165886253119 0.048971056938 -0.046671 0.998755 -0.017631
-0.863376498222 0.164150372148 0.154656529427 0.053648 -0.998267 0.024194
-0.872767508030 0.162868440151 0.129851862788 0.042270 -0.999016 0.013403
-0.839189112186 0.162815198302 0.058258902282 0.047340 -0.998346 0.032612
-0.898624837399 0.135823279619 -0.108247511089 0.107677 -0.993511 -0.036632
-0.874200880527 0.162350162864 -0.209268435836 0.038305 -0.999030 -0.021741
-0.830627501011 0.114282749593 -0.014413406141 0.999374 -0.035367 0.001010
-0.850962638855 0.167407676578 -0.236156091094 -0.040700 0.998713 0.030264
-0.853498637676 0.157779470086 0.337429255247 0.164210 -0.986394 0.007927
-0.827632546425 0.163082033396 0.496770888567 0.209119 -0.977834 -0.010514
-0.888613104820 0.893375515938 0.241469353437 0.001310 -0.446689 0.894688
-0.764718890190 0.173985883594 0.672280550003 0.133679 -0.990994 0.007734
-0.937337875366 1.168831110001 0.005574057810 -0.027126 -0.999632 0.001005
-0.957064270973 1.063059806824 -0.062691986561 -0.122433 -0.485410 0.865672
-0.895137727261 0.863620996475 -0.276097059250 -0.109712 -0.906858 0.406906
-0.853301465511 0.643127799034 -0.405226171017 0.093040 -0.007486 -0.995634
0.178430944681 2.264160156250 -0.254373550415 0.005524 -0.133681 -0.991009
0.273833990097 2.261376619339 -0.254225760698 -0.007734 -0.133679 -0.990994
-0.151411473751 2.241761207581 -0.251221209764 -0.001106 -0.142660 -0.989771
-0.891295850277 -0.533374190331 -0.415757298470 -0.120688 -0.001087 0.992690
-0.895313858986 -0.425634533167 -0.416238486767 -0.123096 -0.001089 0.992394
-0.830902159214 -0.236141875386 -0.396671712399 0.101947 0.003219 -0.994785
-0.850750505924 -0.401366949081 -0.399074047804 0.101947 0.003219 -0.994785
-0.092416822910 -1.169302463531 0.321987450123 -0.003345 -0.988939 0.148285
-0.350035458803 -1.165390849113 0.328301221132 0.010702 -0.971538 0.236641
-0.595489561558 -1.161617040634 0.277925699949 -0.045393 -0.865224 0.499326
-0.573598384857 -1.191931366920 0.218023866415 -0.289476 -0.898117 0.331042
-0.730222940445 -1.252659082413 0.257557511330 0.997185 0.015929 0.073276
-0.721436142921 -1.192756533623 0.197721496224 0.004994 -0.018977 0.999807
-0.672018289566 -1.219001054764 0.196404546499 0.038929 -0.038929 0.998483
-0.729718863964 -1.439888358116 0.259158760309 0.997224 0.001049 0.074451
0.359322428703 -2.405304908752 0.148652791977 0.147603 -0.892786 0.425614
0.475431978703 -2.376318454742 0.152938067913 0.561390 -0.746893 0.356361
0.546632647514 -2.307561635971 0.164671555161 0.241294 -0.701803 0.670261
0.342156350613 -2.474306821823 -0.087663277984 0.022907 -0.239918 0.970523
0.311753362417 -2.344744920731 0.222568079829 0.058102 -0.576766 0.814841
0.352904230356 -2.373937129974 0.198322951794 0.094158 -0.575088 0.812655
0.462997287512 -2.350494384766 0.198608666658 0.190539 -0.568569 0.800265
0.568236470222 -2.295805454254 0.169194102287 0.237200 -0.711600 0.661333
0.847670435905 -2.193085432053 -0.070342443883 0.856064 -0.508510 0.092586
0.813851177692 -2.237749814987 -0.067446790636 0.685999 -0.715890 0.130026
0.809210598469 -2.243288755417 -0.073407053947 0.685999 -0.715890 0.130026
0.859197258949 -2.219493150711 -0.085263192654 0.308955 -0.173181 0.935177
0.517385005951 -2.478489875793 -0.182088762522 0.305890 -0.952066 0.001228
0.624613285065 -2.444079160690 -0.288095593452 0.305890 -0.952066 -0.001228
0.624175906181 -2.412509918213 -0.366113871336 0.230179 -0.718724 -0.656090
0.309683233500 -2.436228752136 -0.391262054443 0.073833 -0.719505 -0.690551
0.400237828493 -2.455483436584 -0.385117709637 0.130223 -0.728948 -0.672069
0.481197565794 -2.457001209259 -0.364775449038 0.172419 -0.727822 -0.663737
0.137193128467 -2.523507356644 -0.291113138199 0.036674 -0.998575 0.038769
0.418081790209 -2.501126050949 -0.292631328106 0.150310 -0.987914 0.037864
0.117881529033 -2.524136781693 -0.108662724495 0.042143 -0.946297 0.320541
-0.083461388946 -2.490540027618 -0.087702363729 -0.010777 -0.247871 0.968733
-0.636879444122 -2.438103675842 -0.109734758735 -0.374727 -0.870284 0.319665
-0.558448731899 -2.441394567490 -0.091668926179 -0.070970 -0.232832 0.969924
-0.726880192757 -2.233021736145 0.157077148557 -0.394937 -0.665939 0.632890
-0.538453817368 -1.893423318863 0.060670509934 0.999507 0.015252 0.027453
-0.537402391434 -1.875057339668 0.010920639150 0.999507 0.015252 0.027453
-0.537589251995 -1.854975104332 0.006596272811 0.999507 0.015252 0.027453
-0.535932838917 -1.870114564896 -0.046436797827 0.999063 0.023763 0.036161
-0.531933546066 -2.043652772903 -0.041416443884 0.999063 0.023763 0.036161
-0.532342255116 -2.010609388351 -0.052267111838 0.999063 0.023763 0.036161
-0.532116830349 -1.992741346359 -0.068607114255 0.998609 0.024000 0.046957
-0.531060099602 -1.872590065002 -0.153814941645 0.998609 0.024000 0.046957
-0.527591407299 -1.936529278755 -0.195432797074 0.998609 0.024000 0.046957
-0.528589665890 -1.817065954208 -0.235949814320 0.998609 0.024000 0.046957
-0.523940801620 -1.849434852600 -0.332515269518 0.999626 0.003020 0.027180
-0.527154445648 -1.969736456871 -0.201540187001 0.999626 0.003020 0.027180
-0.526325404644 -2.007748365402 -0.226257577538 0.999626 0.003020 0.027180
-0.521608412266 -1.973360061646 -0.399827659130 0.999626 0.003020 0.027180
-0.521328508854 -2.023399353027 -0.403284341097 0.999626 0.003020 0.027180
-0.525780379772 -2.069508075714 -0.237678542733 0.999626 0.003020 0.027180
-0.523100554943 -1.822074770927 -0.366223245859 0.999626 0.003020 0.027180
-0.522445082664 1.012783765793 -0.496652364731 -0.999941 -0.000987 0.010858
-0.522529244423 0.945814251900 -0.509935915470 -0.999941 -0.000987 0.010858
-0.928197205067 1.885264754295 -0.057037092745 -0.999917 0.000989 -0.012857
-0.928401470184 1.880211114883 -0.046015210450 -0.954454 0.278873 0.106050
-0.928513705730 1.812821269035 0.073741987348 -0.998323 0.057136 0.009350
-0.926418244839 1.843505382538 0.085128329694 -0.997312 0.056897 0.046162
-0.944348216057 1.745686054230 0.093804754317 -0.925314 0.238101 0.295131
-0.924778401852 1.602251172066 0.171059176326 -0.977731 0.010538 0.209597
-0.927659809589 1.550619244576 0.160228401423 -0.977731 0.010538 0.209597
-0.921632885933 1.435175061226 0.188885569572 -0.977717 0.001160 0.209925
-0.916716158390 1.172928333282 0.211846545339 -0.974705 0.001170 0.223492
-0.919130861759 1.253620386124 0.201481699944 -0.974073 0.001172 0.226229
-0.925083220005 1.316016793251 0.175963476300 -0.974073 0.001172 0.226229
-0.924428284168 1.276534795761 0.178777217865 -0.974073 0.001172 0.226229
-0.921344757080 1.409711956978 0.190281748772 -0.973816 0.005888 0.227263
-0.916228473186 1.759794235229 0.200648814440 -0.981917 0.046194 0.183591
-0.927884936333 1.689313650131 0.152134776115 -0.983039 -0.001139 0.183394
-0.901424884796 1.522816181183 0.276491701603 -0.973432 -0.001174 0.228974
-0.899099349976 1.697360277176 0.281855344772 -0.969472 0.008368 0.245058
-0.888450860977 1.642609000206 0.315547555685 -0.900850 0.009179 0.434034
-0.879512786865 1.480669975281 0.333222746849 -0.883337 0.001320 0.468736
-0.908128440380 1.341545462608 0.248144507408 -0.973432 -0.001174 0.228974
-0.909681558609 1.209638953209 0.242498219013 -0.974705 0.001170 0.223492
-0.926746845245 1.129557609558 0.167607814074 -0.977731 -0.010538 0.209597
-0.921249091625 1.002517104149 0.179598525167 -0.334311 -0.233005 0.913206
-0.915975451469 0.847739100456 0.211555719376 -0.975213 -0.001171 0.221267
-0.939200043678 1.375756859779 0.143051892519 -0.838844 0.001351 0.544370
-0.947941243649 1.619625568390 0.123836360872 -0.804747 0.032078 0.592751
-0.933818340302 1.697669863701 0.138605251908 -0.803760 0.032150 0.594084
-0.964230597019 1.703287243843 0.011278063059 -0.993663 0.038858 0.105473
-0.964845597744 1.720164775848 -0.000932537019 -0.993663 0.038858 0.105473
-0.970626056194 1.582939863205 0.008883822709 -0.987547 0.068953 0.141412
-0.968752264977 1.884063720703 -0.091570116580 -0.475390 0.025588 0.879403
-0.918015837669 2.095054388046 -0.002317735227 -0.997829 0.060314 0.026454
