0.683131456375 -1.879373431206 -0.271628826857 0.213962 -0.190041 -0.958178
0.548353374004 -1.996470332146 -0.277281254530 0.088830 -0.100367 -0.990977
0.595274507999 -1.971518278122 -0.274892032146 0.160020 -0.090237 -0.982981
0.562583684921 -2.005397796631 -0.201835304499 0.471891 -0.881656 0.001322
0.526706337929 -2.004794120789 -0.154236376286 0.177620 -0.447719 0.876355
0.480861276388 -2.042761325836 -0.164801985025 0.059253 -0.475402 0.877771
0.394815742970 -2.074495792389 -0.258364468813 0.043407 -0.993910 0.101283
0.385506063700 -2.078745603561 -0.186115697026 0.771995 -0.635186 0.023732
0.372967660427 -2.091420173645 -0.256705790758 0.594028 -0.803685 -0.034943
0.385788679123 -2.038254499435 -0.061120573431 0.249479 -0.908922 0.334098
0.225443169475 -2.029433012009 0.013139232993 0.112226 -0.913052 0.392100
-0.006738183089 -2.004077911377 0.039809200913 -0.006810 -0.562521 0.826755
-0.140608355403 -2.029527187347 0.019440161064 -0.057938 -0.563837 0.823852
-0.289203613997 -2.020184278488 0.007783441339 -0.145896 -0.841481 0.520215
-0.316572278738 -2.010646581650 0.011510541663 -0.142688 -0.653360 0.743479
-0.159008115530 -1.983126878738 0.050267264247 -0.040609 -0.583933 0.810785
0.024431446567 -1.980147004128 0.056329499930 -0.004077 -0.561264 0.827627
0.143092632294 -2.018518209457 0.028886634856 0.046190 -0.564081 0.824426
0.353410542011 -1.956251382828 0.056240461767 0.178153 -0.598411 0.781131
0.465081512928 -1.935583353043 0.012449339032 0.881680 -0.467746 -0.062090
0.425888240337 -2.006681203842 -0.011739075184 0.885044 -0.463595 -0.042145
0.464669793844 -1.929790377617 -0.030310921371 0.999856 0.000995 -0.016913
0.464871793985 -1.885773301125 -0.099831230938 0.988671 -0.054348 -0.139917
0.680410325527 -1.693166732788 0.049118656665 0.070130 0.005234 -0.997524
0.759777426720 -1.603801250458 0.055026959628 -0.003074 0.046105 -0.998932
0.709332406521 -1.709746122360 0.061608530581 0.527799 -0.618857 0.581759
0.665469467640 -1.747381806374 0.061101667583 0.493367 -0.638178 0.591031
0.617177546024 -1.674186587334 0.126750886440 0.255106 -0.383405 0.887649
0.647160708904 -1.622233510017 0.138810917735 0.387145 -0.334703 0.859123
0.835021376610 -1.576406240463 -0.017641231418 0.922372 -0.320763 0.215268
0.882735133171 -1.552989006042 -0.087965235114 0.674319 -0.614674 0.409231
0.881007313728 -1.493464469910 -0.030942656100 0.811247 -0.368169 0.454235
0.862273037434 -1.499628067017 -0.004887877032 0.752056 -0.303067 0.585288
0.901143133640 -0.899237453938 0.067533276975 0.998181 -0.017806 -0.057607
0.897120177746 -0.824718534946 -0.056162841618 0.997923 -0.034996 -0.054085
0.893082678318 -0.878570497036 -0.087926261127 0.996569 -0.035708 -0.074662
0.886701524258 -0.799357712269 -0.232080310583 0.997420 0.068897 0.020139
0.827538847923 -0.830902755260 0.220502749085 0.494418 -0.122523 0.860546
0.812490046024 -1.011941790581 0.200006574392 0.411974 -0.159335 0.897156
0.774987459183 -1.152242898941 0.194221004844 0.411405 -0.124966 0.902845
0.716928958893 -1.318880438805 0.190732479095 0.365037 -0.149651 0.918887
0.759978830814 -1.184271693230 0.195491641760 0.365037 -0.149651 0.918887
0.822843194008 -1.339525222778 0.144112408161 0.375959 -0.240319 0.894931
0.698152542114 -1.367289185524 0.189162120223 0.375959 -0.240319 0.894931
0.752111852169 -1.531986236572 0.122590482235 0.375233 -0.236912 0.896144
0.724619626999 -1.589834928513 0.116071268916 0.390561 -0.328812 0.859852
0.855825245380 -1.330833673477 0.111309692264 0.803186 -0.284494 0.523407
0.857168912888 -1.151069402695 0.148536354303 0.810930 -0.112507 0.574226
0.870730459690 -1.192878842354 0.121906585991 0.780487 -0.132311 0.611010
0.861563861370 -0.928645730019 0.184320107102 0.777683 -0.110258 0.618912
0.887137591839 -0.997289776802 0.138209119439 0.833993 -0.072459 0.546997
0.897144675255 -1.032531380653 0.083085387945 0.998563 -0.009313 0.052774
0.791908621788 -0.783478915691 0.262638270855 0.867287 -0.125131 0.481826
0.633629381657 -1.551753044128 0.178044155240 0.867811 -0.297404 0.398064
0.623805880547 -1.601688861847 0.161000356078 0.850564 -0.416761 0.320704
0.571910738945 -1.728809356689 0.127824962139 0.925513 -0.377734 -0.027259
0.678603947163 -1.275680661201 0.226226300001 0.087765 -0.120531 0.988822
0.541513085365 -1.684356331825 0.156060159206 0.060102 -0.297954 0.952686
0.415575444698 -1.891276240349 0.075524330139 0.731054 -0.650343 0.206433
-0.477870285511 -1.777564406395 0.119967184961 -0.869956 -0.452022 0.197111
-0.610407233238 -1.443816661835 0.192116051912 -0.912818 -0.341766 0.223518
-0.709909737110 -1.234638214111 0.212361499667 -0.888261 -0.216541 0.405094
-0.692853331566 -1.301860928535 0.211486265063 -0.564786 -0.193336 0.802270
-0.706924140453 -1.177432179451 0.226045310497 -0.102649 -0.119167 0.987554
-0.751348018646 -1.019499421120 0.234114587307 -0.897105 -0.208595 0.389475
-0.786764860153 -1.024160504341 0.198920369148 -0.424688 -0.159798 0.891125
-0.810323894024 -1.210280656815 0.158845901489 -0.424937 -0.125646 0.896461
-0.855313777924 -1.135930657387 0.141451284289 -0.817938 -0.112266 0.564246
-0.879954814911 -1.174505114555 0.100517548621 -0.788154 -0.132101 0.601134
-0.855725169182 -1.061110615730 0.155743256211 -0.786749 -0.110292 0.607340
-0.832072675228 -0.945225059986 0.189576193690 -0.504598 -0.129421 0.853599
-0.845516502857 -0.815797924995 0.199325606227 -0.553710 -0.084416 0.828419
-0.898283302784 -0.960747897625 0.064563751221 -0.993920 -0.038782 0.103049
-0.899501562119 -0.880114436150 0.056981172413 -0.999396 0.025573 -0.023527
-0.898482263088 -0.876869082451 0.034995228052 -0.997156 -0.033274 -0.067622
-0.893180489540 -0.926744639874 -0.021546326578 -0.997349 -0.015898 -0.071012
-0.895826876163 -0.969879209995 0.025936990976 -0.997614 -0.017985 -0.066649
-0.893877208233 -1.060583591461 0.013613289222 -0.998503 0.003091 -0.054614
-0.883958399296 -1.350472211838 0.034370034933 -0.874569 -0.280408 0.395602
-0.868684232235 -1.351681590080 0.065772630274 -0.810410 -0.283722 0.512580
-0.807412266731 -1.497874975204 0.084961362183 -0.831621 -0.271012 0.484725
-0.731368005276 -1.481674671173 0.134341195226 -0.385810 -0.237990 0.891354
-0.753874242306 -1.613220095634 0.079687744379 -0.625380 -0.438600 0.645392
-0.728360652924 -1.676698803902 0.041759613901 0.017631 0.046671 -0.998755
-0.464235216379 -1.879675149918 -0.088462762535 -0.986706 -0.054882 -0.152969
-0.333663940430 -2.099808216095 -0.205892935395 -0.032681 -0.998339 0.047440
0.123003236949 -2.056690216064 -0.315757840872 0.007075 -0.027289 -0.999603
0.166350096464 -2.081321954727 -0.314773887396 0.007075 -0.027289 -0.999603
0.257748961449 -2.088864564896 -0.314189255238 0.001005 -0.027126 -0.999632
0.140891835093 -2.104500532150 -0.205863788724 0.007286 -0.998212 0.059331
0.024429626763 -2.111609935760 -0.307242453098 0.009386 -0.998061 0.061531
-0.115475945175 -2.110346555710 -0.302830815315 -0.009406 -0.998053 0.061660
-0.067255638540 -2.109791755676 -0.286074578762 -0.009406 -0.998053 0.061660
-0.163625344634 -2.108995437622 -0.288444548845 -0.009368 -0.998195 0.059330
-0.152073428035 -2.103113174438 -0.196735754609 -0.010211 -0.985941 0.166782
-0.182104915380 -2.100642919540 -0.187091633677 -0.012880 -0.977704 0.209592
-0.154401659966 -2.094718933105 -0.170005634427 -0.011740 -0.909229 0.416132
0.271599829197 -2.105619430542 -0.267300039530 0.028458 -0.998149 0.053755
0.541212201118 -2.029673576355 -0.259070008993 0.526218 -0.849406 0.040053
0.276697278023 -2.077272415161 -0.163010671735 -0.131644 0.280574 0.950762
0.084641352296 -2.087098360062 -0.171326830983 -0.020651 0.258742 0.965726
-0.061935935169 -2.073234558105 -0.316576510668 0.007061 -0.027234 -0.999604
-0.151743590832 -2.077243804932 -0.317050784826 0.007061 -0.027234 -0.999604
-0.646759927273 -1.515316724777 0.167513161898 -0.874168 -0.296457 0.384634
-0.761226952076 -1.282694101334 0.168524920940 -0.378690 -0.147816 0.913643
-0.783327221870 -1.273193001747 0.160933196545 -0.378690 -0.147816 0.913643
-0.819889307022 -1.333673000336 0.135412663221 -0.389345 -0.238344 0.889720
-0.522657811642 -1.832690596581 0.080312684178 -0.892795 -0.438689 -0.102314
-0.569480419159 -1.742885112762 0.102593362331 -0.268329 -0.385255 0.882937
-0.648989796638 -1.623320460320 0.128398939967 -0.398521 -0.333393 0.854418
-0.720497727394 -1.219695091248 0.196985453367 -0.701011 -0.196531 0.685536
-0.479938954115 -1.841713070869 0.097697578371 -0.076118 -0.449787 0.889886
-0.457372844219 -1.925526142120 0.044584050775 -0.179936 -0.564001 0.805932
-0.414233118296 -1.960204720497 0.031153718010 -0.286122 -0.548532 0.785650
-0.554062366486 -1.683486938477 0.147934824228 -0.073600 -0.298275 0.951638
-0.854482293129 -1.465242028236 0.015592603013 -0.892143 -0.291404 0.345201
-0.887848794460 -1.457086086273 -0.030891152099 0.372246 -0.375361 0.848845
-0.888263702393 -0.834898531437 -0.123523160815 -0.995403 -0.036137 -0.088699
-0.881168305874 -0.772017717361 -0.219715833664 -0.994949 -0.031742 -0.095226
-0.854852259159 -0.768402099609 -0.369573891163 -0.958232 0.211316 -0.192710
0.729922175407 -1.017908573151 0.252093672752 0.255219 -0.144139 0.956079
0.618899881840 -1.790626883507 0.043966315687 0.076856 0.005264 -0.997028
0.654921591282 -1.904701352119 -0.140659645200 0.311104 -0.425640 0.849732
0.614355742931 -1.968390345573 -0.172063678503 0.669703 -0.742406 0.018176
0.741098701954 -1.839002370834 -0.149388447404 0.813364 -0.581753 0.001362
0.699378550053 -1.832590699196 -0.109931588173 0.389566 -0.523224 0.757941
0.852875351906 -1.639208912849 -0.201339155436 0.594804 -0.721913 0.353623
-0.422892838717 -2.036647796631 -0.163789719343 -0.070833 -0.476384 0.876380
-0.493934184313 -2.034599065781 -0.170577242970 -0.190671 -0.447855 0.873539
-0.651304960251 -1.846652269363 -0.115451805294 -0.088743 -0.221233 0.971175
-0.838949084282 -1.681945800781 -0.426301926374 -0.636913 -0.749938 0.178702
-0.878025829792 -1.623522281647 -0.427530795336 -0.911527 -0.408246 -0.049525
-0.840424835682 -1.675722599030 -0.525817096233 -0.833509 -0.537606 -0.127443
-0.808830738068 -1.720716595650 -0.418984472752 -0.813685 -0.536817 0.223033
-0.765805661678 -1.831644535065 -0.381957769394 -0.872846 -0.409950 -0.264728
-0.737907767296 -1.846471786499 -0.450667887926 -0.872846 -0.409950 -0.264728
-0.720678448677 -1.865550637245 -0.342031031847 -0.618143 -0.781042 0.088722
-0.659635901451 -1.922269940376 -0.503978908062 -0.660101 -0.653517 -0.370381
-0.793174743652 -1.750244140625 -0.515114605427 -0.723722 -0.552271 -0.413791
-0.506488859653 -2.026707649231 -0.491211742163 -0.340265 -0.762773 -0.549906
-0.346576035023 -2.057070016861 -0.496550530195 -0.020860 -0.110889 -0.993614
-0.279830187559 -2.088233709335 -0.475168883801 0.379970 0.006397 -0.924977
-0.230620995164 -2.062948226929 -0.465875178576 0.094609 0.110962 -0.989311
-0.182461962104 -2.115272283554 -0.469276010990 0.007692 0.124166 -0.992232
-0.165623515844 -2.052435159683 -0.463568836451 -0.003929 -0.899854 -0.436174
-0.270975172520 -2.049326181412 -0.489104688168 0.035113 -0.972258 -0.231259
0.386600077152 -2.055323123932 -0.490948557854 0.034474 -0.112319 -0.993074
0.484558850527 -2.049579381943 -0.468892008066 0.413371 -0.899189 -0.143472
-0.349999010563 -2.095006465912 -0.354925721884 -0.610195 -0.785791 -0.100968
-0.398605942726 -2.062068223953 -0.389515668154 -0.525654 -0.849133 -0.051589
-0.519752860069 -1.989990115166 -0.421080052853 -0.464590 -0.885501 -0.006618
-0.528411030769 -1.988577485085 -0.306196451187 -0.509320 -0.859044 -0.051348
-0.753661394119 -1.832133293152 -0.272233575583 -0.726670 -0.683330 -0.070789
0.067660994828 -2.118384838104 -0.455214470625 -0.009443 -0.859353 0.511295
0.194455042481 -2.118379831314 -0.452617734671 -0.009452 -0.857455 0.514473
0.220987245440 -2.121798038483 -0.458392977715 0.068685 -0.856456 0.511631
0.568456828594 -2.004620790482 -0.447120189667 0.399581 -0.876063 0.269906
0.753244996071 -1.815626502037 -0.504679620266 0.728442 -0.554142 -0.402863
0.783578455448 -1.788092613220 -0.473102778196 0.834731 -0.538583 -0.114685
0.867798686028 -1.649738192558 -0.469811648130 0.801726 -0.597499 -0.015179
0.884255647659 -1.631052017212 -0.390189826488 0.911411 -0.409936 -0.035820
0.897222638130 -1.609797835350 -0.312838196754 0.924946 -0.377610 -0.043419
0.895178794861 -1.618601202965 -0.274054735899 0.927586 -0.373344 -0.014113
0.873729884624 -1.617734670639 -0.192596361041 0.592353 -0.780060 0.201554
0.842750370502 -1.676800370216 -0.274057447910 0.967759 -0.248992 -0.038023
0.798628270626 -1.753119349480 -0.412596166134 0.875945 -0.410177 -0.253919
0.686462163925 -1.906801104546 -0.402674198151 0.610975 -0.785956 0.094781
0.785777330399 -1.806183695793 -0.280905038118 0.547249 -0.776997 0.311118
0.722315907478 -1.877218723297 -0.389730542898 0.617243 -0.780674 0.097767
0.828257918358 -1.730143785477 -0.271916061640 0.940301 -0.308898 0.142882
0.582718551159 -1.961366772652 -0.296511471272 0.465583 -0.885003 0.001319
0.533758282661 -1.989834904671 -0.291796147823 0.509085 -0.859511 -0.045528
-0.274810820818 -2.084365129471 -0.356039375067 0.996072 -0.058077 0.066843
-0.067537531257 -2.092136621475 -0.431287586689 -0.005658 -0.168616 0.985666
-0.159107595682 -2.057796716690 -0.425895273685 -0.008001 -0.177169 0.984148
0.021552775055 -2.089821815491 -0.430242955685 -0.005700 -0.178983 0.983836
0.280797928572 -2.083524227142 -0.373674064875 -0.996943 -0.057370 0.053040
-0.106272190809 -2.036929368973 -0.049477204680 -0.044030 -0.957346 0.285568
-0.091740556061 -2.070755958557 -0.153159320354 -0.011266 -0.945060 0.326703
-0.213187858462 -2.062571763992 -0.133698642254 -0.021446 -0.944874 0.326732
0.326405763626 -2.104117870331 -0.331262975931 0.064248 -0.996387 -0.055536
0.381729662418 -2.077609777451 -0.379273653030 0.490735 -0.870127 -0.045362
0.464432567358 -2.030456542969 -0.309094101191 0.528570 -0.847654 -0.045782
0.231650859118 -2.029745817184 -0.036003272980 0.131756 -0.919519 0.370304
0.078402303159 -2.062588214874 -0.127734526992 0.006244 -0.945368 0.325946
0.099016711116 -2.062984228134 -0.129314616323 0.006244 -0.945368 0.325946
0.171468585730 -2.026868581772 -0.022823473439 0.038885 -0.957067 0.287246
0.030209898949 -2.033339023590 -0.034119933844 -0.001235 -0.949911 0.312519
-0.012105774134 -2.049592733383 -0.084062367678 -0.001235 -0.949911 0.312519
-0.810884654522 -1.765783667564 -0.329406976700 -0.967068 -0.248887 -0.053244
0.007324447390 -2.113714933395 -0.467937797308 0.007721 0.129052 -0.991608
0.221253231168 -2.060469150543 -0.460897535086 -0.082044 0.112088 -0.990305
0.024223797023 -2.054982423782 -0.418072462082 0.008902 -0.999948 -0.004945
0.023557627574 -2.055227518082 -0.368004053831 0.008902 -0.999948 -0.004945
-0.135306924582 -2.054148435593 -0.376832365990 -0.008902 -0.999948 -0.004945
-0.049455780536 -2.054944276810 -0.365964472294 -0.008902 -0.999948 -0.004945
-0.207968816161 -2.053435325623 -0.377966552973 -0.019015 -0.999807 -0.005004
-0.265431016684 -2.051717281342 -0.377570450306 -0.038149 -0.999080 -0.019590
0.102472409606 -2.027988672256 -0.017750889063 -0.592297 0.274712 0.757442
0.002576675266 -2.056479930878 -0.094723992050 -0.001232 -0.950151 0.311788
0.039150908589 -2.059705018997 -0.104876197875 0.999976 0.000983 0.006883
-0.602932572365 -1.901119351387 -0.392415314913 0.006910 0.004936 -0.999964
0.634694039822 -1.938657879829 -0.318784236908 0.825046 -0.491285 0.279174
-0.638524234295 -1.921272039413 -0.337338626385 -0.903965 -0.424365 0.052540
0.605460703373 -1.957263350487 -0.308307945728 0.480100 -0.776298 0.408492
-0.588070333004 -0.903987467289 -0.347387075424 0.935204 0.351512 0.042804
-0.587717175484 -0.908166587353 -0.330415129662 0.934624 0.340230 0.103548
-0.592807173729 -0.909556806087 -0.279373288155 0.934624 0.340230 0.103548
-0.590655624866 -0.941439449787 -0.228915780783 0.933331 0.287719 0.214736
-0.601882636547 -0.880768537521 -0.386803507805 0.539335 0.838175 0.081114
-0.594770789146 -0.986836135387 -0.635686874390 0.546492 0.593866 -0.590482
-0.585793972015 -0.924897670746 -0.350662648678 0.999936 -0.002967 0.010880
-0.678845465183 -1.392518997192 -0.084290258586 -0.011770 -0.422427 0.906321
-0.834189116955 -1.391322612762 -0.085669077933 -0.011770 -0.422427 0.906321
-0.819060504436 -1.321863055229 -0.057341504842 -0.010877 -0.259828 0.965594
-0.740299761295 -1.283520579338 -0.046193331480 -0.011770 -0.086670 0.996168
-0.678992152214 -1.221118807793 -0.040280319750 -0.011745 0.086485 0.996184
-0.688356339931 -1.163300395012 -0.045435801148 -0.011745 0.086485 0.996184
-0.767272412777 -1.139995098114 -0.052145358175 -0.010851 0.259223 0.965756
-0.708738863468 -1.131893038750 -0.053683016449 -0.010851 0.259223 0.965756
-0.723212242126 -1.046701908112 -0.087524667382 -0.009155 0.422438 0.906345
-0.629075884819 -0.925192773342 -0.576444745064 0.141086 0.812361 -0.565831
-0.584100008011 -1.417080521584 -0.621913909912 0.848828 0.369124 0.378468
-0.588398933411 -1.490786075592 -0.515196382999 0.850732 0.471618 0.232018
-0.593816041946 -1.490798830986 -0.281547695398 0.855019 0.473341 -0.211876
-0.596235930920 -1.475476384163 -0.257093399763 0.855019 0.473341 -0.211876
-0.591739177704 -1.419895648956 -0.172700598836 0.857115 0.367335 -0.361135
-0.594437360764 -1.378847956657 -0.146963700652 0.856616 0.299892 -0.419849
-0.590702414513 -1.000223755836 -0.576994717121 0.848558 -0.429708 0.308707
-0.675726532936 -1.427424788475 -0.107048109174 -0.009597 -0.574448 0.818485
-0.856338918209 -1.431393742561 -0.113854497671 -0.144100 -0.568972 0.809633
-0.905333399773 -1.408834218979 -0.111558385193 -0.546726 -0.483192 0.683825
-0.869349718094 -1.052844524384 -0.089706696570 -0.143865 0.420201 0.895954
-0.894418179989 -0.956714451313 -0.172831237316 -0.139733 0.701670 0.698665
-0.890871047974 -0.926819205284 -0.214568823576 -0.137610 0.812341 0.566715
-0.823536992073 -0.871744811535 -0.434271514416 0.003183 0.996295 -0.085942
-0.708589673042 -0.868764936924 -0.395838826895 0.003183 0.996295 -0.085942
-0.782787621021 -0.878595769405 -0.316040158272 -0.001197 0.965696 0.259673
-0.836477398872 -0.889588594437 -0.275196015835 -0.001197 0.965696 0.259673
-0.707884430885 -0.917948424816 -0.214714512229 -0.004088 0.819033 0.573732
-0.810203313828 -0.941580116749 -0.181809142232 -0.004088 0.819033 0.573732
-0.751799464226 -0.966902256012 -0.151827633381 -0.006946 0.707090 0.707090
-0.738365590572 -0.988041639328 -0.130570694804 -0.006946 0.707090 0.707090
-0.793760538101 -0.883394241333 -0.492577403784 0.006001 0.966118 -0.258031
-0.663719475269 -0.892770290375 -0.520696401596 0.006524 0.906829 -0.421447
-0.807008028030 -0.948365569115 -0.618963360786 0.009575 0.819387 -0.573161
-0.734923183918 -0.997129440308 -0.667302131653 0.009597 0.574448 -0.818485
-0.764509856701 -1.074117183685 -0.714895248413 0.011770 0.422427 -0.906321
-0.705324947834 -1.078406453133 -0.716158211231 0.011770 0.422427 -0.906321
-0.805693447590 -1.111159086227 -0.730714678764 0.010877 0.259828 -0.965594
-0.730892121792 -1.149996995926 -0.740228891373 0.010877 0.259828 -0.965594
-0.642913043499 -1.152863502502 -0.738011658192 0.144505 0.255866 -0.955851
-0.582459449768 -1.212361454964 -0.700212955475 0.999936 -0.002967 0.010880
-0.585272908211 -1.509814739227 -0.512870192528 0.999936 -0.002967 0.010880
-0.587742865086 -1.522658467293 -0.298936754465 0.999936 -0.002967 0.010880
-0.821219384670 -1.463727474213 -0.138550952077 -0.009724 -0.707073 0.707073
-0.875565290451 -1.472699999809 -0.153939828277 -0.142978 -0.699842 0.699842
-0.899438858032 -1.139151453972 -0.062266837806 -0.548567 0.219734 0.806716
-0.913171231747 -0.939008772373 -0.225888162851 -0.936537 0.292754 0.192857
-0.839045643806 -1.198189258575 -0.747592806816 -0.122836 0.087740 -0.988541
-0.804001867771 -1.179600000381 -0.745650231838 0.011770 0.086670 -0.996168
-0.626218795776 -1.200408458710 -0.741277635098 0.143883 0.086806 -0.985780
-0.585784375668 -1.519199490547 -0.506615579128 0.935992 -0.323840 -0.138008
-0.722775578499 -1.520562410355 -0.205602139235 -0.009575 -0.819387 0.573161
-0.796880424023 -1.498073101044 -0.174557328224 -0.009575 -0.819387 0.573161
-0.917954564095 -1.225073337555 -0.100598976016 -0.845969 0.048779 -0.530996
-0.913758397102 -1.233146071434 -0.696421086788 -0.857947 0.048511 0.511442
-0.914116084576 -1.300648331642 -0.685899496078 -0.857117 0.138245 0.496225
-0.885369837284 -1.293918371201 -0.735666096210 -0.124194 -0.257539 -0.958253
-0.756386339664 -1.291076779366 -0.741528391838 0.010851 -0.259223 -0.965756
-0.606569051743 -1.421561837196 -0.675884187222 0.544375 -0.484075 -0.685075
-0.683911979198 -1.552848696709 -0.268200248480 -0.006524 -0.906829 0.421447
-0.912651062012 -1.504093050957 -0.474566549063 -0.852662 0.506949 0.126374
-0.911286532879 -1.375875711441 -0.682159662247 -0.931451 -0.147652 -0.332563
-0.890306293964 -1.379103422165 -0.704683959484 -0.125308 -0.418164 -0.899687
-0.663681089878 -1.397769927979 -0.701209247112 0.009155 -0.422438 -0.906345
-0.629240810871 -1.518848538399 -0.578108727932 0.137610 -0.812341 -0.566715
-0.704420328140 -1.565997362137 -0.314076840878 -0.006001 -0.966118 0.258031
-0.813653945923 -1.555806756020 -0.278191179037 -0.006001 -0.966118 0.258031
-0.848356306553 -1.555881619453 -0.281170964241 -0.138603 -0.957018 0.254765
-0.905505180359 -1.546737074852 -0.297090917826 -0.543073 -0.812315 0.212640
-0.912636935711 -1.541955590248 -0.306102961302 -0.936758 -0.340519 0.080823
-0.916634261608 -1.531591296196 -0.308783531189 -0.936758 -0.340519 0.080823
-0.801625132561 -1.416711926460 -0.689711213112 0.006840 -0.573173 -0.819406
-0.692865490913 -1.494938492775 -0.619839310646 0.004088 -0.819033 -0.573732
-0.823057293892 -1.538431406021 -0.551839053631 0.003901 -0.906309 -0.422597
-0.833937525749 -1.556183457375 -0.511591553688 0.001197 -0.965696 -0.259673
-0.739284574986 -1.572190880775 -0.442064017057 -0.001059 -0.996132 -0.087863
-0.802393138409 -1.571274876595 -0.339211493731 -0.003183 -0.996295 0.085942
-0.916827917099 -1.537738800049 -0.432166397572 -0.935204 -0.351512 -0.042804
-0.910397112370 -1.556886196136 -0.415192335844 -0.935204 -0.351512 -0.042804
-0.902895748615 -1.550222396851 -0.484333187342 -0.536817 -0.813685 -0.223033
-0.900406181812 -1.491377353668 -0.605272650719 -0.534247 -0.688324 -0.490703
-0.903419017792 -1.451192378998 -0.645531415939 -0.532542 -0.593404 -0.603548
-0.848861157894 -1.460714697838 -0.654367327690 -0.126848 -0.699901 -0.702886
-0.863458573818 -1.543598532677 -0.534067273140 -0.131511 -0.897951 -0.419987
-0.886427879333 -1.567340373993 -0.428153753281 -0.133579 -0.987064 -0.088658
-0.621747791767 -1.258497238159 -0.739420950413 0.143883 -0.086806 -0.985780
-0.708035409451 -1.272443771362 -0.743926346302 0.011745 -0.086485 -0.996184
-0.800522685051 -1.258135437965 -0.746213018894 0.011745 -0.086485 -0.996184
-0.587801635265 -0.956811010838 -0.584464728832 0.937631 0.289461 -0.192512
-0.583916604519 -1.009787082672 -0.630405604839 0.937895 0.249455 -0.241093
-0.842586815357 -1.214343667030 -0.351264208555 -0.528225 -0.438807 0.726930
-0.850352704525 -1.202879309654 -0.322072356939 -0.691522 -0.237858 -0.682071
-0.874939918518 -1.197260499001 -0.320735901594 -0.108983 -0.329641 -0.937795
-0.882428526878 -1.193424463272 -0.191033691168 -0.021017 -0.958124 0.285583
-0.869061768055 -1.188279271126 -0.172514393926 -0.013384 -0.962396 0.271320
-0.886723458767 -1.174468636513 -0.302416056395 -0.044620 0.309787 0.949758
-0.905818164349 -1.134490489960 -0.296927928925 -0.032495 -0.685223 0.727608
-0.898693501949 -1.062110900879 -0.311160564423 -0.001291 0.409130 -0.912475
-0.879536330700 -1.120043158531 -0.365821391344 -0.031498 0.995999 0.083633
-0.852839827538 -0.980239152908 -0.412400752306 0.005153 0.052558 -0.998605
-0.899503052235 -1.122547030449 -0.369349002838 -0.985975 0.088987 -0.141193
-0.906765282154 -1.109560132027 -0.440680056810 -0.974473 -0.210664 0.077613
-0.859303951263 -1.181966304779 -0.462488442659 -0.133051 -0.524893 0.840705
-0.866594493389 -1.151434421539 -0.431200504303 -0.130094 -0.837573 0.530609
-0.825043201447 -1.178191304207 -0.434921175241 0.001260 -0.936173 -0.351537
-0.869173407555 -1.240820407867 -0.473305523396 -0.129273 0.330668 0.934851
-0.866862118244 -1.414742112160 -0.295742362738 -0.001299 -0.419470 -0.907768
-0.908374011517 -1.252682924271 -0.203807860613 -0.811440 -0.583960 0.023580
-0.906695067883 -1.225469827652 -0.265799164772 -0.216599 0.693430 0.687197
-0.846537888050 -1.247315526009 -0.364143550396 -0.895921 -0.240585 0.373423
-0.903471887112 -1.325353384018 -0.429142147303 -0.857729 0.514100 0.001342
-0.842310309410 -1.153776884079 -0.625502526760 -0.005658 0.985666 0.168616
-0.877240896225 -1.284782528877 -0.628027200699 -0.631678 0.425008 -0.648345
-0.802106618881 -1.182255506516 -0.622846841812 -0.011793 -0.088983 0.995963
-0.724977791309 -1.166412353516 -0.617772102356 -0.010914 -0.265563 0.964032
-0.588304698467 -0.937682449818 -0.395671367645 0.999936 -0.002967 0.010880
-0.594471216202 -0.936201989651 -0.385610759258 0.003068 0.999028 -0.043970
-0.767171978951 -0.937588274479 -0.427337110043 0.003068 0.999028 -0.043970
-0.628360092640 -0.944416880608 -0.459316432476 0.005867 0.975082 -0.221769
-0.891207039356 -0.946868181229 -0.475683659315 0.005867 0.975082 -0.221769
-0.651980102062 -0.962276279926 -0.512168884277 0.006447 0.919393 -0.393289
-0.747915685177 -0.968847334385 -0.529155671597 0.006447 0.919393 -0.393289
-0.777195513248 -0.977139174938 -0.542760372162 0.009527 0.834309 -0.551215
-0.780189335346 -0.992251455784 -0.565708220005 0.009527 0.834309 -0.551215
-0.908786475658 -1.007554054260 -0.586121380329 0.009721 0.723542 -0.690212
-0.680202543736 -1.043646693230 -0.617538571358 0.009622 0.586918 -0.809589
-0.746631920338 -1.064749002457 -0.633743584156 0.009622 0.586918 -0.809589
-0.589569807053 -1.155779480934 -0.671206474304 0.010914 0.265563 -0.964032
-0.638523459435 -1.173667311668 -0.676307439804 0.011793 0.088983 -0.995963
-0.585763692856 -1.203045725822 -0.671263515949 0.999936 -0.002967 0.010880
-0.760760664940 -1.272739052773 -0.619756460190 -0.010914 0.265563 0.964032
-0.767399907112 -1.242890596390 -0.624211847782 -0.011768 0.088793 0.995981
-0.730569303036 -1.253587484360 -0.622837841511 -0.011768 0.088793 0.995981
-0.703377127647 -1.109545111656 -0.595271170139 -0.011829 -0.435049 0.900329
-0.587372064590 -1.013917207718 -0.550228118896 0.624942 -0.648273 0.434960
-0.609271585941 -0.979445815086 -0.419205307961 0.629157 -0.776196 0.041001
-0.589481532574 -0.970460355282 -0.299046367407 0.999936 -0.002967 0.010880
-0.676918327808 -0.974232733250 -0.252109050751 -0.003975 0.881059 0.472990
-0.696961402893 -0.958897471428 -0.280741661787 -0.003975 0.881059 0.472990
-0.596446037292 -0.945255219936 -0.321849346161 -0.001233 0.950879 0.309560
-0.884402275085 -0.946602046490 -0.318977683783 -0.001233 0.950879 0.309560
-0.612680613995 -0.938948273659 -0.358024626970 0.001100 0.990809 0.135260
-0.797323763371 -0.938081741333 -0.363425552845 0.001100 0.990809 0.135260
-0.909793317318 -1.107647418976 -0.655722081661 -0.999936 0.002967 -0.010880
-0.667222738266 -1.226823568344 -0.680666208267 0.011768 -0.088793 -0.995981
-0.627278685570 -1.253695487976 -0.677803814411 0.011768 -0.088793 -0.995981
-0.614668488503 -1.344262480736 -0.599864602089 0.626419 0.333548 0.704518
-0.627774119377 -1.317557573318 -0.603137075901 -0.009179 0.434034 0.900850
-0.909824311733 -1.342391967773 -0.632700145245 -0.793850 0.268808 0.545477
-0.892754852772 -0.974900841713 -0.461087673903 -0.293203 -0.932919 0.209030
-0.866379976273 -1.050400376320 -0.570668280125 -0.664472 -0.543353 0.513073
-0.712805211544 -1.006361603737 -0.474076658487 -0.006447 -0.919393 0.393289
-0.689051687717 -1.075014114380 -0.571338295937 -0.009622 -0.586918 0.809589
-0.710947394371 -1.002041459084 -0.462329298258 -0.005867 -0.975082 0.221769
-0.751510679722 -0.993104279041 -0.416434437037 -0.003068 -0.999028 0.043970
-0.745995879173 -0.997494995594 -0.342640727758 0.001233 -0.950879 -0.309560
-0.759003818035 -1.068175911903 -0.224221110344 0.006930 -0.658391 -0.752644
-0.589893400669 -0.981748342514 -0.265193849802 0.999936 -0.002967 0.010880
-0.690121710300 -0.999635577202 -0.215078845620 -0.004134 0.781265 0.624185
-0.795723795891 -0.997792482376 -0.218293145299 -0.004134 0.781265 0.624185
-0.913993000984 -0.980459988117 -0.262272387743 -0.999936 0.002967 -0.010880
-0.718987643719 -1.121936559677 -0.186600416899 0.009430 -0.513284 -0.858167
-0.760477185249 -1.041429042816 -0.173368498683 -0.006930 0.658391 0.752644
-0.810936331749 -1.027748823166 -0.185793116689 -0.006930 0.658391 0.752644
-0.914601802826 -1.012148022652 -0.215221062303 -0.999936 0.002967 -0.010880
-0.881874024868 -1.027094483376 -0.237880825996 -0.282193 -0.747731 -0.601054
-0.681262433529 -1.133749246597 -0.181687265635 0.008869 -0.350971 -0.936344
-0.655439317226 -1.133464813232 -0.121809557080 -0.008869 0.350971 0.936344
-0.884565830231 -1.090901613235 -0.141682043672 -0.009430 0.513284 0.858167
-0.715229570866 -1.058299303055 -0.159453809261 -0.009430 0.513284 0.858167
-0.899449586868 -1.060295343399 -0.197411283851 -0.282500 -0.630438 -0.723009
-0.819902896881 -1.163460373878 -0.172509372234 0.010310 -0.177565 -0.984055
-0.615602672100 -1.186873793602 -0.153970301151 0.640830 -0.139572 -0.754889
-0.591965377331 -1.181970953941 -0.123467341065 0.999936 -0.002967 0.010880
-0.591788113117 -1.151154398918 -0.132867485285 0.999936 -0.002967 0.010880
-0.687752842903 -1.180908799171 -0.111072875559 -0.010310 0.177565 0.984055
-0.644339025021 -1.147495627403 -0.116654627025 -0.010310 0.177565 0.984055
-0.855744004250 -1.244111299515 -0.110100321472 -0.010858 -0.000987 0.999941
-0.906374037266 -1.279523491859 -0.144665807486 -0.276155 0.172767 -0.945457
-0.678878247738 -1.279194116592 -0.170504212379 0.012601 0.177561 -0.984029
-0.592025399208 -1.259782195091 -0.133715510368 0.999936 -0.002967 0.010880
-0.637481212616 -1.282268285751 -0.113750562072 -0.012601 -0.177561 0.984029
-0.845525205135 -1.251109480858 -0.110550574958 -0.012601 -0.177561 0.984029
-0.841016829014 -1.295199155807 -0.177556350827 0.011430 0.351796 -0.936007
-0.592013955116 -1.318759918213 -0.146463930607 0.999936 -0.002967 0.010880
-0.592033267021 -1.327790260315 -0.146569266915 0.999936 -0.002967 0.010880
-0.736541748047 -1.346714854240 -0.135899811983 -0.011430 -0.351796 0.936007
-0.696662247181 -1.301023721695 -0.118254065514 -0.011430 -0.351796 0.936007
-0.916090607643 -1.348276853561 -0.151694282889 -0.999936 0.002967 -0.010880
-0.660237491131 -1.359763145447 -0.142645448446 -0.012153 -0.514458 0.857430
-0.915413677692 -1.366323828697 -0.149824783206 -0.012153 -0.514458 0.857430
-0.915909588337 -1.380204796791 -0.173921883106 -0.999936 0.002967 -0.010880
-0.902516305447 -1.395627260208 -0.206747218966 -0.279559 0.631004 -0.723658
-0.831323385239 -1.360562562943 -0.211137980223 0.009702 0.658376 -0.752627
-0.591710567474 -1.408261418343 -0.190887928009 0.999936 -0.002967 0.010880
-0.818956494331 -1.426947593689 -0.194742068648 -0.009702 -0.658376 0.752627
-0.899265348911 -1.411741852760 -0.182528093457 -0.009702 -0.658376 0.752627
-0.720029234886 -1.444594740868 -0.214374378324 -0.009661 -0.782580 0.622475
-0.908303797245 -1.446748018265 -0.267482191324 -0.279624 0.845051 -0.455740
-0.889386475086 -1.444424867630 -0.274832934141 -0.279624 0.845051 -0.455740
-0.751589834690 -1.430822968483 -0.296675771475 0.006640 0.880452 -0.474089
-0.720351159573 -1.417097568512 -0.270669847727 0.006640 0.880452 -0.474089
-0.627520442009 -1.429832577705 -0.290119826794 0.638214 0.680871 -0.359303
-0.649581909180 -1.472253203392 -0.254087328911 -0.006640 -0.880452 0.474089
-0.910444021225 -1.477279782295 -0.267510920763 -0.006640 -0.880452 0.474089
-0.741121888161 -1.447506785393 -0.342972189188 0.006186 0.951352 -0.308045
-0.667863667011 -1.444306492805 -0.331767916679 0.006186 0.951352 -0.308045
-0.586899101734 -1.391764760017 -0.609341681004 0.999936 -0.002967 0.010880
-0.758350491524 -1.365375995636 -0.643510699272 0.009179 -0.434034 -0.900850
-0.801481604576 -1.328209280968 -0.661848843098 0.009179 -0.434034 -0.900850
-0.676618754864 -1.382046103477 -0.631645321846 0.006862 -0.588729 -0.808301
-0.770493507385 -1.412128210068 -0.610428690910 0.006931 -0.722173 -0.691678
-0.877404510975 -1.437718868256 -0.584635019302 0.006931 -0.722173 -0.691678
-0.810026288033 -1.471097469330 -0.537699759007 0.004074 -0.835164 -0.549986
-0.625319063663 -1.488579630852 -0.498983323574 0.001285 -0.918878 -0.394539
-0.679585278034 -1.490071058273 -0.495825856924 0.001285 -0.918878 -0.394539
-0.634107530117 -1.496475100517 -0.479057163000 0.001170 -0.974705 -0.223492
-0.809423208237 -1.504039645195 -0.446193456650 0.001170 -0.974705 -0.223492
-0.600372195244 -1.504204034805 -0.340507090092 -0.003307 -0.991058 0.133390
-0.777714788914 -1.503699183464 -0.341778606176 -0.003307 -0.991058 0.133390
-0.727128326893 -1.496945381165 -0.313951313496 -0.006186 -0.951352 0.308045
-0.840254664421 -1.488501667976 -0.290030628443 -0.006186 -0.951352 0.308045
-0.738686978817 -1.451708793640 -0.373374968767 0.003307 0.991058 -0.133390
-0.600982666016 -1.474457502365 -0.406018525362 0.632243 0.773684 0.041018
-0.602454125881 -1.462331056595 -0.468005508184 0.631801 0.754183 0.178985
-0.621536672115 -1.444847345352 -0.470600187778 0.630472 0.711095 0.311205
-0.611020803452 -1.358104705811 -0.593899548054 0.624964 0.454062 0.635017
-0.713826358318 -1.367331624031 -0.573598921299 -0.006862 0.588729 0.808301
-0.851297199726 -1.452919483185 -0.412807911634 -0.296252 0.954310 0.039080
-0.733644425869 -1.452002882957 -0.411177456379 0.001020 0.998945 0.045917
-0.631760299206 -1.444128394127 -0.457175165415 -0.001170 0.974705 0.223492
-0.811799764633 -1.445609092712 -0.450954675674 -0.001170 0.974705 0.223492
-0.703609943390 -1.436197042465 -0.479773610830 -0.001285 0.918878 0.394539
-0.645940840244 -1.406216859818 -0.533195436001 -0.004074 0.835164 0.549986
-0.841874897480 -1.393611550331 -0.549548327923 -0.006931 0.722173 0.691678
-0.880021870136 -1.452752947807 -0.496259242296 -0.290799 0.881437 0.372162
-0.589001119137 -1.503521084785 -0.447359621525 0.999936 -0.002967 0.010880
-0.587082564831 -1.319444417953 -0.662995696068 0.010914 -0.265563 -0.964032
-0.816120803356 -1.274717569351 -0.677802860737 0.010914 -0.265563 -0.964032
-0.874387621880 -1.418817639351 -0.247836515307 -0.999936 0.002967 -0.010880
-0.877350986004 -1.328361511230 -0.618653237820 -0.951866 0.233578 0.198474
-0.868419885635 -1.331045746803 -0.619417250156 0.003983 -0.877635 -0.479313
-0.765854775906 -1.124354481697 -0.449633002281 -0.590346 0.696178 -0.408446
-0.765624225140 -1.145110845566 -0.475783765316 0.988079 -0.095166 0.121013
-0.765233755112 -1.162975311279 -0.503458917141 -0.999936 0.002967 -0.010880
-0.786396205425 -1.148723244667 -0.459999144077 -0.588063 0.517293 -0.621763
-0.778200447559 -1.167656540871 -0.304865479469 -0.601707 0.517434 0.608449
-0.766588091850 -1.348109841347 -0.421625196934 -0.999936 0.002967 -0.010880
-0.768728494644 -1.328348875046 -0.230071634054 -0.999936 0.002967 -0.010880
-0.768742144108 -1.262547850609 -0.215769112110 -0.999936 0.002967 -0.010880
-0.768528342247 -1.235945820808 -0.229215562344 -0.999936 0.002967 -0.010880
-0.768057227135 -1.217306017876 -0.266795605421 -0.999936 0.002967 -0.010880
-0.778149724007 -1.215126752853 -0.359975516796 0.990959 -0.051198 -0.124012
-0.771444559097 -1.208830356598 -0.309456467628 0.991097 -0.003300 -0.133100
-0.771190583706 -1.242296099663 -0.308654010296 0.991220 0.046552 -0.123761
-0.768897950649 -1.285911917686 -0.312204509974 0.991039 0.090932 -0.097838
-0.769231498241 -1.317047953606 -0.406262218952 0.989561 0.139743 0.035220
-0.812323570251 -1.301885366440 -0.393978148699 -0.602543 -0.787026 0.132411
-0.789755105972 -1.278760433197 -0.317227482796 -0.606140 -0.514965 0.606140
-0.815052807331 -1.222043275833 -0.344350457191 -0.999936 0.002967 -0.010880
-0.771245419979 -1.289307236671 -0.436106324196 0.989038 0.122319 0.082711
-0.786839723587 -1.306119799614 -0.444709509611 -0.593854 -0.693106 -0.408585
-0.767566084862 -1.353700399399 -0.337014436722 -0.999936 0.002967 -0.010880
-0.595167398453 1.459893584251 -0.075055167079 0.931496 0.089799 0.352494
-0.594231426716 1.334129095078 -0.073484353721 0.930561 -0.032446 0.364697
-0.612800359726 1.529005765915 -0.079613447189 0.531107 0.353534 0.770025
-0.596256375313 1.720555067062 -0.440949350595 0.541348 0.838170 -0.066432
-0.587728559971 1.688468694687 -0.322323054075 0.999936 -0.002967 0.010880
-0.586812615395 1.690535068512 -0.402197271585 0.999936 -0.002967 0.010880
-0.588093280792 1.680775880814 -0.291890770197 0.999936 -0.002967 0.010880
-0.800054788589 1.284417629242 -0.058053497225 -0.010877 -0.259828 0.965594
-0.813824772835 1.339871287346 -0.045958235860 -0.011770 -0.086670 0.996168
-0.679090261459 1.374339699745 -0.041373718530 -0.011770 -0.086670 0.996168
-0.750752925873 1.412993431091 -0.043413486332 -0.011745 0.086485 0.996184
-0.753739595413 1.420084953308 -0.044066410512 -0.011745 0.086485 0.996184
-0.838906109333 1.453203558922 -0.048783626407 -0.010851 0.259223 0.965756
-0.693355739117 1.499447822571 -0.059596598148 -0.010851 0.259223 0.965756
-0.673150300980 1.553871512413 -0.083132475615 -0.009155 0.422438 0.906345
-0.800951004028 1.584328174591 -0.103454314172 -0.006840 0.573173 0.819406
-0.712825536728 1.580955266953 -0.100228048861 -0.006840 0.573173 0.819406
-0.664091348648 1.673467516899 -0.189114257693 0.128144 0.811577 0.570019
-0.647218048573 1.701284885406 -0.239792376757 0.131511 0.897951 0.419987
-0.647329509258 1.699464082718 -0.552999675274 0.140882 0.897943 -0.416953
-0.612477958202 1.653879761696 -0.615235865116 0.141086 0.812361 -0.565831
-0.650957822800 1.517230868340 -0.720857024193 0.144037 0.417851 -0.897025
-0.593531727791 1.288085103035 -0.662333726883 0.847294 0.219781 0.483518
-0.589600741863 1.198101520538 -0.618997097015 0.847530 0.299037 0.438485
-0.598177969456 1.151876449585 -0.228885039687 0.856721 0.426054 -0.290701
-0.596048772335 1.467068076134 -0.113718189299 0.857117 -0.138245 -0.496225
-0.615022659302 1.196475267410 -0.104527249932 0.122050 -0.569076 0.813176
-0.826115429401 1.178432583809 -0.111508555710 -0.009597 -0.574448 0.818485
-0.920528948307 1.283165574074 -0.092445135117 -0.939466 -0.089030 0.330873
-0.868827700615 1.696740865707 -0.233834460378 -0.134791 0.898131 0.418560
-0.871988236904 1.735034108162 -0.372683346272 -0.132985 0.987388 0.085911
-0.712922871113 1.740440964699 -0.392845660448 0.001059 0.996132 0.087863
-0.737814784050 1.732583165169 -0.323389917612 -0.001197 0.965696 0.259673
-0.762797474861 1.712328910828 -0.259040862322 -0.003901 0.906309 0.422597
-0.723960697651 1.721470594406 -0.507586359978 0.006001 0.966118 -0.258031
-0.723266720772 1.704371213913 -0.547722995281 0.006524 0.906829 -0.421447
-0.818942248821 1.668013691902 -0.609055459499 0.009575 0.819387 -0.573161
-0.792651772499 1.564188241959 -0.701756477356 0.009597 0.574448 -0.818485
-0.782331168652 1.557876825333 -0.704644322395 0.011770 0.422427 -0.906321
-0.772067129612 1.516866564751 -0.723647952080 0.011770 0.422427 -0.906321
-0.737441778183 1.483445763588 -0.733965337276 0.010877 0.259828 -0.965594
-0.743778944016 1.460669279099 -0.740148305893 0.010877 0.259828 -0.965594
-0.652761399746 1.119588017464 -0.164767488837 0.123651 -0.701680 0.701680
-0.691994905472 1.141657233238 -0.140767619014 -0.009724 -0.707073 0.707073
-0.750063180923 1.130203723907 -0.153019890189 -0.009724 -0.707073 0.707073
-0.910233438015 1.514257669449 -0.082849837840 -0.546328 0.358274 0.757077
-0.914682805538 1.514127612114 -0.086161822081 -0.938202 0.152030 0.310908
-0.897340059280 1.729169249535 -0.356936007738 -0.538065 0.840286 0.066376
-0.889918208122 1.712873697281 -0.516920030117 -0.125627 0.899148 -0.419226
-0.766357302666 1.447689771652 -0.743783056736 0.011770 0.086670 -0.996168
-0.629986226559 1.430810809135 -0.739841103554 0.143883 0.086806 -0.985780
-0.621312201023 1.389410734177 -0.742188751698 0.143883 0.086806 -0.985780
-0.588786065578 1.414215326309 -0.720697402954 0.939198 0.029470 -0.342109
-0.586728453636 1.129515886307 -0.579444706440 0.936537 -0.292754 -0.192857
-0.595061779022 1.054024457932 -0.375647783279 0.934120 -0.354680 0.040275
-0.696757197380 1.114370703697 -0.168629676104 -0.009575 -0.819387 0.573161
-0.900497257710 1.107712745667 -0.195543035865 -0.545969 -0.689557 0.475845
-0.921479463577 1.140812635422 -0.220351874828 -0.999936 0.002967 -0.010880
-0.916193008423 1.166959285736 -0.205657795072 -0.846972 0.372792 -0.379032
-0.917202651501 1.303891897202 -0.117488183081 -0.845076 0.136208 -0.517005
-0.915400028229 1.491626143456 -0.683360219002 -0.999936 0.002967 -0.010880
-0.915562987328 1.536386489868 -0.660162985325 -0.999936 0.002967 -0.010880
-0.915918588638 1.677593469620 -0.526065468788 -0.933244 0.322142 -0.158997
-0.596067845821 1.256451487541 -0.705748260021 0.546328 -0.358274 -0.757077
-0.605925619602 1.112238526344 -0.600541472435 0.543619 -0.690814 -0.476712
-0.597256004810 1.072793483734 -0.272117674351 0.533841 -0.764253 0.361844
-0.706826627254 1.073387145996 -0.232206672430 -0.006524 -0.906829 0.421447
-0.788779914379 1.077555298805 -0.224598422647 -0.006524 -0.906829 0.421447
-0.906469225883 1.086876869202 -0.235738053918 -0.544897 -0.761563 0.350869
-0.856036961079 1.251302123070 -0.719652593136 -0.125308 -0.418164 -0.899687
-0.689485907555 1.263295531273 -0.725801050663 0.009155 -0.422438 -0.906345
-0.678641796112 1.245846986771 -0.717555105686 0.009155 -0.422438 -0.906345
-0.625632882118 1.184635996819 -0.677039802074 0.141189 -0.569213 -0.809977
-0.634791851044 1.151487708092 -0.652431488037 0.139733 -0.701670 -0.698665
-0.644886016846 1.055288195610 -0.278181314468 0.127405 -0.957505 0.258750
-0.769672513008 1.053410887718 -0.277457535267 -0.006001 -0.966118 0.258031
-0.887968719006 1.044496297836 -0.335171371698 -0.138603 -0.957018 0.254765
-0.918452858925 1.092105269432 -0.495350778103 -0.999936 0.002967 -0.010880
-0.665785193443 1.166730761528 -0.670490741730 0.006840 -0.573173 -0.819406
-0.800402104855 1.151818513870 -0.659078180790 0.006946 -0.707090 -0.707090
-0.746593415737 1.101617455482 -0.602358460426 0.004088 -0.819033 -0.573732
-0.744137704372 1.086728811264 -0.581081032753 0.004088 -0.819033 -0.573732
-0.706969857216 1.075810432434 -0.562012076378 0.003901 -0.906309 -0.422597
-0.752301156521 1.060478329659 -0.529439926147 0.003901 -0.906309 -0.422597
-0.808179497719 1.043912172318 -0.477659404278 0.001197 -0.965696 -0.259673
-0.723671317101 1.037571549416 -0.448698997498 -0.001059 -0.996132 -0.087863
-0.696435391903 1.036189675331 -0.433328568935 -0.001059 -0.996132 -0.087863
-0.714644610882 1.034743309021 -0.372683525085 -0.003183 -0.996295 0.085942
-0.795307695866 1.038017034531 -0.338208824396 -0.003183 -0.996295 0.085942
-0.843930184841 1.044235825539 -0.478942304850 -0.132902 -0.956630 -0.259224
-0.640819668770 1.342739701271 -0.741447567940 0.143883 -0.086806 -0.985780
-0.662317514420 1.344231724739 -0.744219481945 0.011745 -0.086485 -0.996184
-0.871790111065 1.358653664589 -0.743556261063 -0.122861 -0.085418 -0.988741
-0.899381041527 1.361597061157 -0.736482977867 -0.529258 -0.071979 -0.845402
-0.899853646755 1.622183680534 -0.643479466438 -0.531474 0.595588 -0.602337
-0.873991370201 1.441564559937 -0.304122090340 -0.044620 0.309787 0.949758
-0.891915857792 1.527169823647 -0.233575612307 -0.020878 -0.789180 0.613807
-0.899163305759 1.497370600700 -0.390480816364 -0.038225 0.751763 0.658324
-0.879936575890 1.630501389503 -0.408565312624 -0.740783 0.634734 0.219895
-0.877827644348 1.621720671654 -0.413086324930 0.005163 0.052667 -0.998599
-0.850872278214 1.432703137398 -0.457073599100 -0.704675 -0.379440 0.599549
-0.898459911346 1.437183976173 -0.480149537325 -0.825355 -0.296000 0.480805
-0.878259897232 1.395281195641 -0.476240515709 -0.511725 -0.095503 0.853825
-0.831440925598 1.416622042656 -0.428208291531 0.014011 0.357919 -0.933647
-0.817004501820 1.440554022789 -0.380607396364 -0.999976 -0.000985 -0.006896
-0.854168593884 1.310977935791 -0.408316105604 -0.114960 0.987236 0.110220
-0.884286701679 1.208826541901 -0.290998995304 -0.024630 0.374628 0.926848
-0.911286294460 1.263845443726 -0.273530662060 -0.031915 -0.828410 -0.559212
-0.904699862003 1.350714325905 -0.201495423913 -0.670495 -0.741074 -0.035289
-0.856279075146 1.338451147079 -0.155377984047 -0.005953 -0.970335 -0.241691
-0.891006767750 1.219744086266 -0.404614627361 -0.027126 -0.003014 0.999627
-0.905239343643 1.282568931580 -0.420131027699 -0.857034 0.503885 0.107668
-0.881175279617 1.447855949402 -0.580725193024 -0.039330 0.992236 0.117990
-0.895114123821 1.249261260033 -0.436210304499 -0.100009 -0.560917 0.821809
-0.686967372894 1.405905961990 -0.623561382294 -0.011793 -0.088983 0.995963
-0.838116705418 1.389323353767 -0.626811623573 -0.011793 -0.088983 0.995963
-0.792574048042 1.443338990211 -0.618591248989 -0.010914 -0.265563 0.964032
-0.663962483406 1.457449078560 -0.613146662712 -0.010914 -0.265563 0.964032
-0.613687634468 1.455005407333 -0.623905718327 0.623475 -0.208856 0.753430
-0.603161334991 1.454595327377 -0.632716655731 0.623475 -0.208856 0.753430
-0.587876379490 1.557156085968 -0.598060429096 0.999936 -0.002967 0.010880
-0.644975185394 1.673317551613 -0.382083863020 0.003068 0.999028 -0.043970
-0.763983845711 1.671913504601 -0.420867651701 0.003068 0.999028 -0.043970
-0.670641541481 1.669482946396 -0.439828693867 0.005867 0.975082 -0.221769
-0.770109355450 1.663375139236 -0.468736976385 0.005867 0.975082 -0.221769
-0.686297953129 1.656376838684 -0.490802407265 0.006447 0.919393 -0.393289
-0.867642760277 1.645239233971 -0.519907414913 0.006447 0.919393 -0.393289
-0.602926850319 1.627167463303 -0.547763586044 0.009527 0.834309 -0.551215
-0.807928025723 1.615890502930 -0.567899167538 0.009527 0.834309 -0.551215
-0.719942390919 1.597241282463 -0.588295161724 0.009721 0.723542 -0.690212
-0.879530847073 1.593998670578 -0.593888103962 0.009721 0.723542 -0.690212
-0.850316703320 1.542653918266 -0.636568307877 0.009622 0.586918 -0.809589
-0.730888962746 1.552205443382 -0.628066301346 0.009622 0.586918 -0.809589
-0.729061961174 1.493099808693 -0.660969197750 0.011829 0.435049 -0.900329
-0.849791944027 1.465827822685 -0.671070098877 0.010914 0.265563 -0.964032
-0.819701850414 1.440408468246 -0.677727520466 0.010914 0.265563 -0.964032
-0.820482432842 1.413432717323 -0.680568039417 0.011793 0.088983 -0.995963
-0.792894303799 1.396469831467 -0.681776821613 0.011793 0.088983 -0.995963
-0.633756518364 1.313680887222 -0.612253248692 -0.010914 0.265563 0.964032
-0.833742856979 1.325841069221 -0.617763757706 -0.010914 0.265563 0.964032
-0.675346314907 1.348494291306 -0.621731936932 -0.011768 0.088793 0.995981
-0.609569609165 1.489199042320 -0.614489436150 0.623753 -0.337120 0.705183
-0.610194146633 1.543444275856 -0.580303192139 0.624012 -0.456717 0.634050
-0.591172635555 1.644724845886 -0.291691601276 0.999936 -0.002967 0.010880
-0.661811709404 1.631068587303 -0.244884923100 -0.003975 0.881059 0.472990
-0.707572937012 1.643314242363 -0.267963141203 -0.003975 0.881059 0.472990
-0.725399434566 1.658719301224 -0.306454539299 -0.001233 0.950879 0.309560
-0.886565327644 1.658267378807 -0.305775672197 -0.001233 0.950879 0.309560
-0.637679696083 1.669401526451 -0.351671278477 0.001100 0.990809 0.135260
-0.770656824112 1.379708886147 -0.681737959385 0.011768 -0.088793 -0.995981
-0.735226511955 1.358711838722 -0.679454028606 0.011768 -0.088793 -0.995981
-0.807910501957 1.281765699387 -0.600387036800 -0.009179 0.434034 0.900850
-0.884090960026 1.276182055473 -0.623499035835 -0.296688 0.416592 0.859318
-0.909711956978 1.275652527809 -0.634709537029 -0.793850 0.268808 0.545477
-0.898028373718 1.643066287041 -0.410568535328 -0.290241 -0.956161 0.038950
-0.871374845505 1.573894262314 -0.559252083302 -0.664472 -0.543353 0.513073
