0.796146631241 -1.520352005959 -0.266927689314 0.956317 -0.188588 -0.223364
0.794213116169 -1.359429955482 -0.029029026628 0.744029 -0.089167 0.662171
0.801034450531 -1.277192831039 -0.025522325188 0.719094 -0.083141 0.689922
0.773520708084 -1.369127869606 0.021874066442 0.933935 -0.089519 0.346050
0.787340402603 -1.247721314430 0.021268403158 0.952229 -0.123167 0.279444
0.791909992695 -1.165773272514 0.028418019414 0.955956 -0.075707 0.283579
0.793672442436 -1.088469266891 0.047374643385 0.961772 -0.088131 0.259283
0.777578234673 -1.104856967926 0.093647971749 0.925434 -0.093492 0.367193
-0.779699563980 -1.144310712814 0.095437899232 -0.925742 -0.087588 0.367871
-0.790935397148 -1.164564728737 0.057745769620 -0.962769 -0.080125 0.258180
-0.829208076000 -0.980942368507 -0.082641415298 -0.749921 0.306713 0.586127
-0.861351668835 -0.996455013752 -0.119466185570 -0.795883 0.344295 0.498027
-0.858044862747 -0.960912466049 -0.142903819680 -0.844189 0.410391 0.344854
-0.812193512917 -0.784137547016 -0.299697488546 -0.980079 -0.010439 -0.198335
-0.768091261387 -0.691097259521 -0.441370934248 -0.883957 -0.025563 -0.466869
-0.777009725571 -0.585178136826 -0.431221455336 -0.884931 -0.030979 -0.464690
-0.380342692137 -1.814741730690 -0.445757925510 -0.039504 -0.480863 -0.875906
-0.323841154575 -1.811608076096 -0.449570506811 -0.022945 -0.481844 -0.875957
-0.166219800711 -1.851203083992 -0.429947525263 -0.009556 -0.563777 -0.825872
-0.031341899186 -1.863460540771 -0.422021150589 0.001357 -0.563126 -0.826370
-0.056942485273 -1.846505761147 -0.434089630842 -0.006855 -0.593606 -0.804727
-0.016184795648 -1.837200999260 -0.439987063408 0.004005 -0.489940 -0.871747
0.020822264254 -1.775813817978 -0.474680811167 -0.006690 -0.491076 -0.871091
0.626797020435 -1.753931403160 -0.456532835960 0.239231 -0.434829 -0.868154
0.534555673599 -1.819261431694 -0.437909275293 0.033515 -0.441054 -0.896855
0.364555895329 -1.826633691788 -0.440689772367 0.031157 -0.475485 -0.879172
0.366906911135 -1.775160074234 -0.468847692013 0.036784 -0.480913 -0.875997
0.312563389540 -1.796375989914 -0.458998978138 0.020199 -0.480734 -0.876634
0.219507381320 -1.769290089607 -0.476335555315 0.022915 -0.483912 -0.874816
0.161073714495 -1.822566390038 -0.447287827730 0.003997 -0.483602 -0.875279
0.107692562044 -1.785241007805 -0.469804257154 0.020344 -0.503176 -0.863944
0.713478505611 -1.720903515816 -0.384981691837 0.871065 -0.274196 -0.407507
0.751811981201 -1.570401191711 -0.396345138550 0.941542 -0.159885 -0.296538
0.693057835102 -1.619941473007 -0.460904091597 0.726190 -0.209926 -0.654660
0.790525794029 -1.534585118294 -0.265534371138 0.864046 -0.499505 -0.062612
0.771139919758 -1.450536131859 -0.000212662504 0.923565 -0.131149 0.360315
0.760118603706 -1.453205704689 0.027722543105 0.927829 -0.139243 0.346040
0.725345551968 -1.452115297318 0.102359592915 0.833995 -0.143181 0.532871
0.723547160625 -1.413027644157 0.114175379276 0.553915 -0.169627 0.815110
0.718091845512 -1.415310978889 0.116760015488 0.198922 -0.165118 0.966005
-0.732458889484 -1.453973174095 0.103825539351 -0.835238 -0.139943 0.531783
-0.756433129311 -1.344380140305 0.094025619328 -0.836698 -0.130413 0.531911
-0.778464972973 -1.278059959412 0.063500113785 -0.952620 -0.117266 0.280648
-0.771204710007 -1.378401041031 0.047918133438 -0.933844 -0.083926 0.347694
-0.559994518757 -1.833345174789 -0.422653079033 -0.082983 -0.697351 -0.711910
-0.680964171886 -1.882983922958 -0.190555110574 -0.093215 -0.987609 -0.126253
-0.506482422352 -1.901591777802 -0.189244002104 -0.094911 -0.977459 -0.188589
-0.373018652201 -1.904886603355 -0.156252190471 -0.030379 -0.413413 0.910037
-0.447062224150 -1.908542633057 -0.166945964098 -0.060516 -0.995757 -0.069318
-0.560798108578 -1.877219200134 -0.253172963858 -0.096362 -0.986226 -0.134431
-0.611096739769 -1.862258434296 -0.335254430771 -0.071183 -0.988395 -0.134198
-0.412701189518 -1.894023776054 -0.224669396877 -0.073651 -0.987860 -0.136781
-0.334468930960 -1.901635169983 -0.208781182766 -0.049411 -0.989374 -0.136743
-0.164062544703 -1.909491181374 -0.207672089338 -0.037585 -0.989745 -0.137813
-0.277204096317 -1.888269662857 -0.325416982174 -0.049299 -0.989422 -0.136432
-0.013374839909 -1.897491455078 -0.309790253639 -0.005533 -0.990372 -0.138320
0.004191492684 -1.905923724174 -0.249432981014 -0.001102 -0.990471 -0.137718
0.071382500231 -1.910070061684 -0.220585390925 -0.001104 -0.990429 -0.138020
-0.059381753206 -1.925724387169 -0.187442868948 -0.024642 -0.979829 -0.198313
-0.172874152660 -1.920602917671 -0.195369809866 -0.036718 -0.979553 -0.197806
-0.280170500278 -1.919242620468 -0.181031331420 -0.048248 -0.998831 0.003080
-0.219589099288 -1.922096371651 -0.174839183688 -0.039643 -0.999209 0.003049
-0.050487928092 -1.926820278168 -0.167019635439 -0.015496 -0.998982 -0.042356
0.205305829644 -1.897149682045 -0.291093409061 0.030552 -0.990111 -0.136918
0.126137986779 -1.895974993706 -0.317358434200 0.030542 -0.989802 -0.139138
0.230233117938 -1.893481731415 -0.310564488173 0.042229 -0.989518 -0.138099
0.415358066559 -1.880107045174 -0.336235284805 0.066363 -0.988454 -0.136218
0.459902077913 -1.879905223846 -0.316004455090 0.066363 -0.988454 -0.136218
0.378604829311 -1.911885857582 -0.196147084236 0.063951 -0.964278 -0.257057
0.061952512711 -1.927108645439 -0.161064893007 0.009241 -0.999071 -0.042099
0.274829119444 -1.914824724197 -0.156992450356 0.039671 -0.493832 0.868652
0.351423442364 -1.916123151779 -0.162803038955 0.055762 -0.996065 -0.068883
0.342476546764 -1.916880249977 -0.166743159294 0.074966 -0.996285 0.042372
0.520894289017 -1.887234330177 -0.223271965981 0.091003 -0.986855 -0.133550
0.560372948647 -1.872759938240 -0.304334998131 0.066210 -0.988507 -0.135905
0.630098044872 -1.877492547035 -0.220860093832 0.095387 -0.988023 -0.121295
0.656873404980 -1.790469408035 0.044489312917 -0.962811 0.061670 0.263043
0.695705056190 -1.566975235939 0.094738654792 0.197967 -0.179612 0.963612
0.727041363716 -1.549775004387 0.070731274784 0.851389 -0.157883 0.500210
0.712096691132 -1.618135213852 0.074392445385 0.872345 -0.168604 0.458897
0.716585278511 -1.653127789497 0.052527796477 0.870774 -0.178280 0.458224
0.712580859661 -1.678451538086 0.049730099738 0.889504 -0.188417 0.416270
0.706093132496 -1.729812026024 0.040261205286 0.875740 -0.244847 0.416089
0.698630213737 -1.875237703323 -0.120959401131 0.632558 -0.774362 -0.015293
0.674482524395 -1.851619005203 -0.311129033566 0.641292 -0.745368 -0.182133
0.625975489616 -1.862586855888 -0.341124057770 0.102836 -0.956769 -0.272061
0.722912490368 -1.740215301514 -0.322061836720 0.959999 -0.277665 -0.036109
0.740906596184 -1.680783390999 -0.276824891567 0.972654 -0.232258 0.001179
0.757242381573 -1.660036206245 -0.113416969776 0.982697 -0.185046 0.008045
0.706785082817 -1.852746486664 -0.058300867677 0.821658 -0.565335 0.072625
0.711803674698 -1.852146863937 -0.130342066288 0.934528 -0.350941 -0.059147
0.722184956074 -1.800338506699 -0.188202291727 0.958749 -0.265241 -0.102215
0.715189576149 -1.841012716293 -0.079193294048 0.966493 -0.254211 0.035614
0.707497835159 -1.807934999466 -0.220209985971 0.961693 -0.271756 -0.035986
0.769063770771 -1.605242967606 -0.152323573828 0.976445 -0.207419 0.059436
0.759052276611 -1.604553580284 -0.342144638300 0.969913 -0.223244 -0.097117
0.578356564045 -1.895543456078 -0.194807618856 0.097322 -0.988460 -0.116082
-0.798674643040 -1.531418800354 -0.272431910038 -0.867137 -0.494115 -0.062634
-0.832687139511 -1.442853212357 -0.170059293509 -0.979888 -0.190700 -0.058769
-0.817707657814 -1.435047268867 -0.122147768736 -0.710737 -0.564945 0.419153
-0.750648438931 -1.729372143745 -0.185179874301 -0.973544 -0.219753 -0.062611
-0.743100941181 -1.766399025917 -0.162861153483 -0.964749 -0.256516 -0.058811
-0.707837104797 -1.850057840347 -0.017648009583 -0.801335 -0.534746 0.268157
-0.801947832108 -1.474791884422 -0.121520146728 -0.985164 -0.146524 0.089344
-0.789583683014 -1.538620591164 -0.091422624886 -0.981575 -0.189794 0.022123
-0.763486623764 -1.672523260117 -0.049897614866 -0.984525 -0.173875 0.021878
-0.767220258713 -1.656404852867 -0.092918314040 -0.983652 -0.179783 0.010306
-0.747017562389 -1.757681727409 -0.070553675294 -0.966118 -0.257063 0.023148
-0.711950004101 -1.833755731583 -0.002648503287 -0.886685 -0.355574 0.295562
-0.719016075134 -1.780034184456 0.010388256051 -0.912804 -0.171772 0.370516
-0.771266639233 -1.572324991226 -0.029497584328 -0.707614 -0.123646 0.695697
-0.748146235943 -1.629994034767 0.010571459308 -0.910451 -0.178660 0.373042
-0.754700720310 -1.468821406364 0.058621406555 -0.923739 -0.134337 0.358693
-0.767628550529 -1.432655453682 0.038142610341 -0.928907 -0.133487 0.345416
-0.673964619637 -1.851599693298 0.023447869346 -0.141481 -0.802721 0.579329
-0.651133537292 -1.743324875832 -0.452963262796 -0.465346 -0.369399 -0.804362
-0.718124151230 -1.799070715904 -0.269365012646 -0.963340 -0.265877 -0.035862
-0.746194005013 -1.692062139511 -0.320702373981 -0.961693 -0.271756 -0.035986
-0.754861593246 -1.630229830742 -0.374371200800 -0.914246 -0.210980 -0.345892
-0.733007013798 -1.561594963074 -0.459901690483 -0.726201 0.004150 -0.687470
-0.773739576340 -1.536642909050 -0.375072807074 -0.936169 -0.181686 -0.300961
-0.765040755272 -1.617055535316 -0.275096863508 -0.975327 -0.220763 0.001168
-0.749785065651 -1.682812690735 -0.205628141761 -0.973953 -0.226747 0.001175
-0.482925951481 -1.803353548050 -0.447549045086 -0.070753 -0.473077 -0.878175
-0.796509027481 -0.837662339211 -0.400682747364 -0.934930 0.143730 -0.324419
-0.763930559158 -0.772681653500 -0.449596434832 -0.853906 0.004034 -0.520412
-0.800122201443 -0.797749698162 -0.346364915371 -0.915181 0.313735 -0.253012
-0.819795072079 -0.828121125698 -0.277500510216 -0.924106 0.363875 -0.116715
-0.822055041790 -0.805492401123 -0.258910775185 -0.953951 -0.026256 -0.298813
-0.828142285347 -0.795381069183 -0.237025618553 -0.969785 -0.003570 -0.243934
0.745339393616 -1.338300228119 0.100832298398 0.835491 -0.133620 0.533011
0.760629951954 -1.255310535431 0.097534418106 0.917636 -0.123182 0.377850
-0.833600997925 -0.743727266788 -0.124501734972 -0.995675 -0.029381 -0.088142
-0.825357317924 -0.838419854641 -0.187055513263 -0.984994 -0.028936 -0.170146
-0.825985908508 -1.008266568184 -0.050260059536 -0.993465 0.005429 0.114004
-0.830505549908 -0.890476644039 -0.119167529047 -0.999616 -0.027235 -0.005043
-0.829662203789 -0.933777928352 -0.039193630219 -0.998346 -0.047340 -0.032612
0.787048220634 -0.976323604584 0.095866486430 0.928068 -0.067907 0.366167
0.800384640694 -0.954128623009 0.055706724524 0.967962 -0.063534 0.242925
0.804408013821 -1.052060246468 0.016758477315 0.964749 -0.058811 0.256516
0.824935376644 -0.908342480659 -0.050993837416 0.998003 -0.053975 -0.032808
0.827940046787 -1.327808380127 -0.073178522289 0.726648 -0.206064 0.655378
0.779889225960 0.012278985232 -0.438956350088 0.889296 -0.009277 -0.457238
0.782566785812 -0.194962337613 -0.429423362017 0.889296 -0.009277 -0.457238
0.786287307739 0.128548175097 -0.429377645254 0.884306 -0.011968 -0.466754
0.784891188145 0.054205849767 -0.430306196213 0.884306 -0.011968 -0.466754
0.773446917534 -0.618022739887 -0.428483366966 0.883592 -0.036534 -0.466829
0.782583177090 -0.534666299820 -0.414218932390 0.905278 -0.022467 -0.424225
0.783434987068 -0.616363406181 -0.400789231062 0.951676 -0.031429 0.305492
0.793321967125 -0.320867836475 -0.402842670679 0.905696 -0.027847 0.423012
0.781176626682 -0.459196805954 -0.421112358570 0.905349 -0.014454 -0.424423
0.798600733280 -0.762458682060 -0.329047679901 0.955161 0.023661 -0.295141
0.849595785141 -0.944402813911 -0.177690967917 0.990724 0.135852 -0.003313
0.830299377441 -0.900816261768 -0.165651753545 0.848384 0.396950 0.350250
0.798729240894 -0.803646206856 -0.334069728851 0.916617 0.307464 -0.255498
0.765347898006 -0.797198235989 -0.440833747387 0.863073 0.175565 -0.473584
0.779131054878 -0.768476128578 -0.399937033653 0.900174 0.025263 0.434796
0.813341081142 -0.836876630783 -0.298071235418 0.926724 0.357275 -0.116354
0.805275559425 1.680717587471 -0.149033486843 0.879985 0.177168 -0.440725
0.848332822323 1.549732923508 -0.179248705506 0.982880 0.182618 -0.024427
-0.533855974674 1.822607874870 -0.401121467352 -0.063724 0.965849 0.251146
-0.215249061584 1.829884767532 -0.378285199404 -0.016949 0.913949 -0.405475
-0.305329382420 1.857867360115 -0.195190459490 -0.018338 0.995619 -0.091688
-0.168237909675 1.853740572929 -0.272062301636 -0.032000 0.994206 -0.102621
-0.093084990978 1.854614019394 -0.269725620747 -0.007558 0.994471 -0.104738
-0.250341236591 1.921518445015 -0.022604148835 -0.034407 0.993349 -0.109879
-0.291435241699 1.922681093216 0.002819929738 -0.015772 0.997816 -0.064138
-0.160209089518 1.921474933624 -0.045108221471 -0.007315 0.997940 -0.063743
-0.120534211397 1.923216581345 -0.022441159934 -0.005193 0.998107 -0.061278
0.152107328176 1.921278476715 -0.036595955491 0.013669 0.997847 -0.064140
0.371022671461 1.912027955055 -0.044900573790 0.067322 0.991573 -0.110682
0.461500942707 1.906026124954 -0.044399876148 0.067322 0.991573 -0.110682
0.566169261932 1.898966193199 -0.045053087175 0.065050 0.991723 -0.110699
0.539256155491 1.902796506882 -0.026752784848 0.067187 0.991858 -0.108182
0.507640600204 1.908009529114 0.001402597874 0.067187 0.991858 -0.108182
0.666284203529 1.896944761276 -0.001277917880 0.114692 0.987296 -0.109962
0.724781811237 1.888840317726 -0.013738777488 0.114692 0.987296 -0.109962
0.661183595657 1.834746122360 -0.177638471127 0.121013 0.988079 -0.095166
0.792084336281 1.723880767822 -0.287592142820 0.974582 0.224001 -0.003518
0.112612091005 1.832237124443 -0.375306189060 0.016949 0.913949 -0.405475
0.297755599022 1.847471833229 -0.331753373146 0.022292 0.913963 -0.405186
0.350219547749 1.834816336632 -0.355583906174 0.043967 0.912653 -0.406364
0.553212106228 1.840613365173 -0.317674756050 0.057639 0.915524 -0.398112
-0.055383771658 1.854394912720 -0.326585471630 -0.003885 0.913002 -0.407937
0.028056815267 1.833723545074 -0.373092353344 0.003866 0.916180 -0.400748
-0.043712414801 1.860604166985 -0.214988932014 -0.005387 0.994509 -0.104515
-0.049311961979 1.867416858673 -0.149226471782 -0.003226 0.994541 -0.104292
0.297331839800 1.908377051353 -0.097237981856 0.037864 0.987914 -0.150310
0.366137146950 1.901988267899 -0.115489408374 0.064530 0.986728 -0.149007
0.522947072983 1.838734745979 -0.256814122200 0.065585 0.994895 -0.076701
0.569429934025 1.836257576942 -0.232339918613 0.071479 0.992769 -0.096440
0.687230169773 1.819964647293 -0.295819282532 0.156913 0.950868 -0.266887
0.449956268072 1.843786835670 -0.247899621725 0.049295 0.995751 -0.077776
0.356576949358 1.853106975555 -0.200861752033 0.066378 0.993415 -0.093379
0.196708634496 1.849260210991 -0.300889432430 0.024972 0.995618 -0.090116
0.202774181962 1.852239489555 -0.267609447241 0.038867 0.993893 -0.103276
0.176971063018 1.857100605965 -0.230536550283 0.038867 0.993893 -0.103276
0.101492002606 1.862355351448 -0.190208464861 0.014130 0.994554 -0.103260
0.171505078673 1.853549361229 -0.266523897648 0.011905 0.994629 -0.102818
0.038954600692 1.856594681740 -0.252135515213 0.009741 0.994652 -0.102820
0.041222460568 1.858491659164 -0.233739793301 0.009741 0.994652 -0.102820
0.488320052624 1.817742109299 -0.379357546568 0.063637 0.908521 -0.412964
0.639685750008 1.817546606064 -0.356140762568 0.063637 0.908521 -0.412964
0.270907610655 1.831175684929 -0.393754035234 0.023068 0.967630 0.251317
0.739660143852 1.709673404694 -0.425406426191 0.593776 0.245971 -0.766112
0.344161093235 1.833077549934 -0.410639703274 0.048188 0.967470 0.248354
-0.389912664890 1.914143204689 -0.029181296006 -0.060094 0.992115 -0.109983
-0.383931815624 1.902579307556 -0.114527806640 -0.059579 0.987137 -0.148363
-0.506474018097 1.898263454437 -0.094075180590 -0.059442 0.987196 -0.148021
-0.565355598927 1.899628520012 -0.061106242239 -0.059442 0.987196 -0.148021
-0.670918464661 1.886646270752 -0.098635852337 -0.107611 0.983007 -0.148721
-0.573344767094 1.904145359993 -0.018774276599 -0.060094 0.992115 -0.109983
-0.451013743877 1.913046240807 -0.005555272102 -0.060094 0.992115 -0.109983
-0.377104282379 1.918932676315 0.007055517286 -0.060094 0.992115 -0.109983
0.811658143997 0.926832556725 -0.376718819141 0.960943 -0.018409 -0.276133
0.769494295120 0.903337419033 -0.463294386864 0.711078 0.117276 -0.693264
0.804217875004 1.615002632141 0.037366487086 0.983181 0.080235 0.164063
0.793924152851 1.607808232307 0.098901778460 0.980662 0.086066 0.175768
0.723353326321 1.603160262108 0.316827327013 0.919934 0.062936 0.386988
0.717627465725 1.624009847641 0.326279640198 0.896796 0.061424 0.438160
0.673209428787 1.463101029396 0.436529725790 0.886622 0.056185 0.459070
0.664564311504 1.561074376106 0.439151495695 0.623866 0.373661 0.686417
0.572144210339 1.253968119621 0.625304996967 0.794905 0.073310 0.602288
0.582706451416 1.166958332062 0.618127167225 0.834192 0.020614 0.551089
0.648802578449 1.438520550728 0.483412623405 0.855388 0.065799 0.513793
0.616653740406 1.241943836212 0.561953186989 0.843201 0.066161 0.533511
0.673448383808 1.445430517197 0.438523948193 0.876011 0.082695 0.475148
0.678922772408 1.311727046967 0.449602007866 0.887449 0.061724 0.456755
0.664961755276 1.243159890175 0.483086824417 0.869472 0.056675 0.490720
0.727329134941 1.533278107643 0.320029228926 0.887415 0.079159 0.454123
0.769556760788 1.352169990540 0.215783238411 0.731890 -0.240815 0.637452
0.789374828339 1.501572728157 0.166541606188 0.975284 0.080143 0.205907
0.820402979851 1.421230792999 0.024476073682 0.985528 0.059907 0.158577
0.804639875889 1.361314773560 0.133906498551 0.972881 0.050048 0.225826
0.821918308735 1.233124852180 0.075694225729 0.986471 0.047639 0.156859
0.573284447193 1.019571781158 0.638020694256 0.795806 0.009654 0.605475
0.578024744987 0.757755398750 0.635717451572 0.808283 0.009606 0.588716
0.589389503002 0.536776542664 0.620852649212 0.826220 -0.015072 0.563145
0.856479823589 0.513172209263 -0.005124993157 0.779074 0.009687 0.626857
0.830970048904 0.501356124878 0.083741784096 0.966927 0.013279 0.254709
0.788456618786 0.485823214054 0.179930895567 0.713976 -0.012526 0.700058
0.781956911087 0.563187658787 0.188353672624 0.722189 -0.018159 0.691458
0.659192860126 0.521876871586 0.504245102406 0.894100 -0.011886 0.447710
0.633452355862 0.532211244106 0.550100862980 0.866068 0.014816 0.499706
0.783490717411 0.778467059135 0.190371364355 0.716726 -0.012525 0.697242
0.797454893589 0.996974050999 0.178624913096 0.718114 -0.006945 0.695890
0.818242788315 0.999199271202 0.112774945796 0.955037 0.016103 0.296049
0.806511998177 0.854191958904 0.158078849316 0.954848 -0.001223 0.297091
0.808698356152 0.634572386742 0.151184216142 0.941107 0.008795 0.337994
0.832544744015 0.704049706459 0.070436388254 0.973408 0.010671 0.228828
0.840088248253 0.576143682003 0.047051034868 0.970549 0.013164 0.240543
0.542842924595 1.242297530174 0.653816878796 0.472747 0.088377 0.876755
0.461268573999 1.203851103783 0.667681932449 0.014021 0.093833 0.995489
0.435744971037 1.244879841805 0.665033519268 0.039962 0.068043 0.996882
0.152339637280 1.113119244576 0.680225908756 -0.001018 0.041758 0.999127
0.269646406174 0.947855234146 0.685622036457 0.025831 0.032031 0.999153
0.350117892027 0.941691756248 0.684310436249 0.017492 0.038072 0.999122
0.267333507538 0.840431928635 0.689008653164 0.017183 0.019205 0.999668
0.268548399210 0.831119120121 0.689160764217 0.017183 0.019205 0.999668
0.351689994335 0.840123593807 0.687481999397 0.023294 0.015192 0.999613
0.245106607676 0.603847086430 0.692595183849 0.025017 -0.001001 0.999686
0.250380158424 0.428580611944 0.691721141338 0.025218 -0.007061 0.999657
0.283104419708 0.358884602785 0.690209031105 0.025320 -0.011141 0.999617
0.250791221857 0.161799848080 0.688859760761 0.025320 -0.011141 0.999617
0.259019076824 0.266268163919 0.689798414707 0.025320 -0.011141 0.999617
0.266867905855 0.103010021150 0.686381697655 0.028064 -0.038458 0.998866
0.268714010715 0.029801202938 0.683489859104 0.028064 -0.038458 0.998866
0.333760231733 -0.123411707580 0.672657787800 0.030874 -0.062812 0.997548
0.224693357944 -0.158748939633 0.673677861691 0.030874 -0.062812 0.997548
0.260023325682 -0.181531548500 0.670646905899 0.034822 -0.122439 0.991865
0.270320683718 -0.192657351494 0.668892920017 0.034812 -0.124651 0.991590
0.535022377968 0.340417087078 0.668155014515 -0.269054 -0.015827 0.962995
0.554248929024 0.988546967506 0.661686301231 0.507237 0.017584 0.861627
0.495822966099 1.102589964867 0.671971201897 0.185467 0.043709 0.981678
0.360615611076 1.088864088058 0.677901148796 0.017736 0.053208 0.998426
0.432800143957 1.048008203506 0.678375542164 0.023810 0.038303 0.998982
0.464793264866 0.970832586288 0.679839968681 0.042702 0.023955 0.998801
0.391272306442 0.793878674507 0.686587095261 0.042269 0.015464 0.998987
0.367065757513 0.780081570148 0.687823355198 0.042269 0.015464 0.998987
0.413090854883 0.731196641922 0.686356067657 0.052775 0.007244 0.998580
0.456325560808 0.601028263569 0.684382140636 0.054502 -0.001028 0.998513
0.423724651337 0.546154260635 0.686124145985 0.054502 -0.001028 0.998513
0.405650764704 0.527606189251 0.687039256096 0.054952 -0.007258 0.998463
0.411237359047 0.290853917599 0.684385061264 0.055178 -0.011452 0.998411
0.418282479048 0.286725491285 0.683938205242 0.057373 -0.011475 0.998287
0.462363570929 0.083824701607 0.676734328270 0.058801 -0.039557 0.997486
0.386108785868 0.012424277142 0.678397178650 0.058801 -0.039557 0.997486
0.441650032997 -0.094567827880 0.668316841125 0.060138 -0.064512 0.996103
0.367834746838 -0.144661128521 0.669617831707 0.060138 -0.064512 0.996103
0.543573081493 0.888444364071 0.669540047646 0.493332 0.014787 0.869716
0.484569430351 0.876329541206 0.680553674698 0.205564 0.017620 0.978485
0.480768978596 0.441044926643 0.681674182415 0.208646 -0.008159 0.977957
0.508117616177 0.372225493193 0.675143122673 0.204638 -0.012863 0.978753
0.512268722057 0.320190429688 0.673643112183 0.198787 -0.010462 0.979987
-0.781127691269 1.716533422470 0.058474421501 -0.979253 0.101725 0.175260
-0.784047007561 1.503957986832 0.151278182864 -0.974432 0.087909 0.206773
-0.774656236172 1.647230148315 0.133447304368 -0.977360 0.082162 0.194981
-0.778912723064 1.661034584045 0.104454100132 -0.986112 0.084050 0.143241
-0.760533690453 1.726234078407 0.165339171886 -0.967687 0.103000 0.230159
-0.755517482758 1.724561691284 0.186820015311 -0.955429 0.100366 0.277635
-0.752315759659 1.564252734184 0.243470698595 -0.902061 0.086763 0.422798
-0.746416926384 1.671990752220 0.233039975166 -0.899859 0.101530 0.424199
-0.707287847996 1.341119289398 0.375570237637 -0.894320 0.067108 0.442367
-0.664757907391 1.264105796814 0.468657582998 -0.867973 0.059717 0.493008
-0.642944157124 1.296150684357 0.501514673233 -0.852777 0.071887 0.517304
-0.615685045719 1.177863478661 0.561130404472 -0.843494 0.069231 0.532659
-0.564436554909 0.992257773876 0.642696976662 -0.794737 0.015204 0.606764
-0.566401004791 0.649567186832 0.647980511189 -0.808283 0.009606 0.588716
-0.606882750988 -0.283104985952 0.574340939522 -0.587453 -0.328521 0.739576
-0.566115319729 0.082727298141 0.643307983875 -0.507505 -0.025851 0.861261
-0.567929744720 0.200154021382 0.645533382893 -0.490144 -0.014771 0.871516
-0.559785187244 0.491254210472 0.656849861145 -0.968028 0.008397 0.250704
-0.560753047466 0.198853358626 0.655762314796 -0.984846 0.003400 0.173396
-0.605126857758 -0.288294255733 0.579951465130 -0.933603 0.270955 0.234454
-0.721878886223 1.736448645592 0.270090341568 -0.616506 0.485477 0.619865
-0.588614642620 1.354758501053 0.578487157822 -0.836224 0.078351 0.542762
-0.685348451138 1.544313907623 0.385793954134 -0.899825 0.063981 0.431535
-0.708175063133 1.652923583984 0.322414964437 -0.895944 0.067025 0.439081
-0.714888870716 1.644209384918 0.308071285486 -0.918779 0.068606 0.388766
-0.590416729450 1.281881451607 0.585709333420 -0.842224 0.069127 0.534678
-0.559021055698 1.347742080688 0.619363129139 -0.785956 0.094781 0.610975
-0.696346282959 1.827370643616 -0.233705520630 -0.164790 0.974903 -0.149695
-0.859365940094 1.351550698280 -0.077795118093 -0.991574 0.076804 0.104316
-0.840711295605 1.245113730431 -0.035528026521 -0.858505 -0.039963 0.511245
-0.265336364508 0.533259749413 0.692007482052 -0.025017 -0.001001 0.999686
-0.295907735825 0.641759872437 0.691268146038 -0.025017 -0.001001 0.999686
-0.343631595373 0.498781919479 0.689844787121 -0.025218 -0.007061 0.999657
-0.323209434748 0.423288106918 0.689771831036 -0.025218 -0.007061 0.999657
-0.223847717047 0.487243890762 0.692740380764 -0.017014 -0.007006 0.999831
-0.168889388442 0.450616598129 0.693376421928 -0.017014 -0.007006 0.999831
-0.179665893316 0.264959543943 0.691363155842 -0.017048 -0.011031 0.999794
-0.225675612688 0.302362442017 0.690988063812 -0.017048 -0.011031 0.999794
-0.149268597364 0.230112195015 0.691501736641 -0.017048 -0.011031 0.999794
-0.155409157276 0.132313206792 0.689876019955 -0.017528 -0.038150 0.999118
-0.160583987832 -0.007684424520 0.684384346008 -0.017528 -0.038150 0.999118
-0.188606142998 -0.112973079085 0.677255034447 -0.020060 -0.064403 0.997722
-0.181334465742 -0.216849282384 0.668380081654 -0.021109 -0.123323 0.992142
-0.406184792519 -0.234739184380 0.653640031815 -0.080858 -0.222669 0.971535
-0.440026462078 -0.151100769639 0.664697051048 -0.068156 -0.123604 0.989988
-0.438750863075 -0.129278331995 0.666168510914 -0.060138 -0.064512 0.996103
-0.422500669956 -0.028118394315 0.673607707024 -0.062325 -0.062325 0.996108
-0.419816613197 0.061790682375 0.678258478642 -0.058801 -0.039557 0.997486
-0.434636294842 0.096828967333 0.678741931915 -0.058806 -0.037422 0.997568
-0.401768624783 0.210064053535 0.683856487274 -0.057254 -0.011451 0.998294
-0.446807891130 0.193195149302 0.681096971035 -0.057254 -0.011451 0.998294
-0.520929932594 0.853206217289 0.672104954720 -0.208646 0.008159 0.977957
-0.500735044479 -0.150181859732 0.657395124435 -0.192237 -0.121876 0.973751
-0.524472236633 -0.133838549256 0.654638767242 -0.179338 -0.055820 0.982203
-0.488634735346 0.239325821400 0.677226126194 -0.198787 -0.010462 0.979987
-0.447163373232 -0.278121769428 0.633839309216 -0.106987 -0.483582 0.868736
-0.835682928562 0.614380240440 -0.267094105482 -0.496765 0.020304 -0.867647
-0.837196707726 0.853310704231 -0.230562657118 -0.837491 0.023378 0.545951
-0.834775745869 0.897235631943 -0.230214774609 -0.800419 0.043608 0.597853
-0.851261675358 0.537376284599 -0.257407814264 -0.969615 0.025421 -0.243312
0.848865389824 0.729844570160 -0.239570811391 0.793434 0.012419 0.608529
-0.226997420192 -1.893181324005 0.019062403589 -0.023584 -0.803260 -0.595161
-0.162149846554 -1.923821806908 -0.152629077435 -0.008998 -0.381769 -0.924214
-0.125487118959 -1.927741289139 -0.149995058775 -0.032355 -0.772297 0.634437
-0.180527076125 -1.894548177719 0.018976662308 -0.031436 -0.859711 -0.509813
0.429145842791 -1.908159375191 -0.154901176691 0.010839 -0.254123 -0.967111
-0.698766887188 -1.874123215675 -0.121712036431 -0.867096 -0.496072 -0.045347
0.825602650642 -0.774720907211 -0.235241457820 0.743692 -0.015348 0.668346
-0.452597886324 -1.908987522125 -0.144476488233 -0.065825 -0.997818 0.005224
-0.258766770363 -1.920974493027 -0.132897377014 -0.053535 -0.998274 -0.024143
-0.239018157125 -1.900409579277 0.006948706694 -0.055748 -0.967531 0.246528
-0.261892884970 -1.898756146431 0.010188912041 -0.050311 -0.943004 -0.328955
-0.134924724698 -1.903973221779 0.008608305827 -0.035405 -0.968154 0.247838
-0.009109637700 -1.928743958473 -0.102417379618 -0.011251 -0.999296 -0.035799
0.016074076295 -1.927609562874 -0.091481022537 0.005618 -0.987711 0.156191
0.256233513355 -1.922684192657 -0.106171116233 0.068088 -0.994527 0.079250
0.284021973610 -1.920894622803 -0.127958834171 0.047055 -0.998603 -0.024050
0.185681357980 -1.915106892586 -0.039223995060 0.030383 -0.968613 0.246711
0.091325350106 -1.913421630859 -0.022932412103 0.005970 -0.968344 0.249549
0.079779393971 -1.908466219902 -0.003404759569 0.005970 -0.968344 0.249549
-0.681176304817 -1.083035588264 0.095642931759 0.000978 0.000978 0.999999
-0.570944368839 -1.189013123512 0.095642931759 0.000978 0.000978 0.999999
-0.534267425537 -1.233315944672 0.065735109150 0.705724 -0.708486 0.001381
-0.656044721603 -1.055724740028 0.065565913916 0.104070 0.994569 0.001073
-0.658489227295 -1.055470585823 -0.058387953788 0.104070 0.994569 0.001073
-0.608062982559 -1.076063156128 0.093929097056 0.073101 0.798375 0.597706
-0.632048785686 -1.244466781616 -0.038901168853 0.097074 -0.995277 0.001067
-0.587123930454 -1.240070581436 0.056427098811 0.097074 -0.995277 0.001067
-0.603687405586 -1.228849172592 0.090069659054 0.069470 -0.829385 0.554341
0.527527272701 -1.150679707527 0.095642931759 0.000978 0.000978 0.999999
0.537796974182 -1.181957483292 0.095642931759 0.000978 0.000978 0.999999
0.556406199932 -1.241220593452 -0.005797743797 -0.104070 -0.994569 0.001073
0.637909531593 -1.249694585800 -0.070004262030 -0.104070 -0.994569 0.001073
0.499234050512 -1.209118247032 -0.045721527189 -0.708486 -0.705724 0.001381
0.488540828228 -1.185764789581 0.023816511035 -0.966452 -0.256844 0.001195
0.485677152872 -1.174946665764 -0.072281904519 -0.966452 -0.256844 0.001195
0.485855191946 -1.134355545044 0.067115902901 -0.964929 0.262509 0.001199
0.482188969851 -1.147874355316 -0.065203860402 -0.964929 0.262509 0.001199
0.500836372375 -1.099206089973 0.017860535532 -0.705724 0.708486 0.001381
0.528193831444 -1.072014093399 -0.051500990987 -0.705724 0.708486 0.001381
0.587859511375 -1.065689444542 -0.071723714471 -0.097074 0.995277 0.001067
0.612038075924 -1.063323497772 0.064562976360 -0.097074 0.995277 0.001067
0.609917581081 -1.067265510559 0.077702105045 -0.081444 0.827302 0.555821
0.559508681297 -1.086339712143 0.095642931759 0.000978 0.000978 0.999999
0.454267710447 -1.168447375298 0.063795588911 0.938727 -0.344659 0.001253
0.410404026508 -1.171884059906 0.078706324100 0.000978 0.000978 0.999999
0.124780587852 -1.737796306610 -0.103912457824 -0.990532 0.136740 -0.012229
0.299383878708 -1.777751803398 -0.143003165722 0.999298 0.037461 -0.001012
0.296806037426 -1.728235960007 -0.132507234812 0.014865 0.999889 -0.000991
0.218288004398 -1.695698499680 -0.114563003182 -0.173011 0.001131 -0.984919
0.283255338669 -1.727087497711 -0.081733614206 0.898308 0.295476 -0.325172
0.173975706100 -1.749292373657 -0.020619751886 -0.084567 0.077801 0.993376
0.111647121608 -1.706579566002 -0.014250680804 0.624135 0.107204 0.773927
-0.153505653143 -1.717224001884 -0.004451803397 -0.003140 0.070131 0.997533
0.002327919006 -1.716918945312 -0.003977597691 -0.003140 0.070131 0.997533
-0.328675627708 -1.765589714050 -0.001588224666 -0.003140 0.070131 0.997533
-0.123351007700 -1.768595337868 -0.000722489785 -0.003140 0.070131 0.997533
-0.341190993786 -1.713335275650 -0.022902119905 -0.737175 0.114210 0.665979
-0.093272432685 -1.726246118546 -0.008700879291 0.003369 0.160573 -0.987018
-0.290677338839 -1.778158783913 -0.017872467637 0.003369 0.160573 -0.987018
0.020036607981 -1.789375662804 -0.018481317908 0.003369 0.160573 -0.987018
-0.109397202730 -1.766022205353 -0.015203252435 0.003369 0.160573 -0.987018
0.101768493652 -1.746490716934 -0.014389472082 -0.379613 0.191972 -0.905009
-0.346922278404 -1.704287528992 -0.062402471900 0.991490 0.129614 0.012186
-0.353002995253 -1.769548654556 -0.114402979612 -0.994870 0.100459 -0.011882
-0.354656547308 -1.776377439499 -0.034474913031 -0.994870 0.100459 -0.011882
-0.279266893864 -1.211220026016 0.064724177122 0.572003 -0.375326 -0.729345
-0.021321918815 -1.336575984955 0.107230536640 -0.434129 0.900850 0.001304
-0.257350385189 -1.292886734009 0.111488819122 0.373261 0.401610 0.836293
-0.345513045788 -1.210998654366 0.083799757063 -0.467603 0.355889 0.809129
-0.326718658209 -1.186946868896 0.073738411069 0.500299 -0.001334 0.865851
-0.625415444374 -0.978036701679 -0.058276221156 -0.812226 0.465719 0.351276
-0.605725884438 -0.994754374027 -0.007256514858 -0.870022 -0.431254 0.238918
-0.213258713484 -1.051407814026 0.087124004960 -0.020324 -0.499971 0.865804
-0.029330462217 -1.058591246605 0.084892265499 -0.027071 -0.999633 -0.001003
-0.422557264566 -1.047582626343 0.074382990599 -0.006710 -0.500602 -0.865652
-0.430053681135 -1.032946944237 0.073080189526 0.020324 0.499971 -0.865804
0.526910841465 -1.022916674614 0.080358318985 -0.012123 0.499725 -0.866099
0.556220531464 -0.999689400196 0.061241827905 -0.054561 0.987910 0.145110
0.572244703770 -1.002384424210 0.044359613210 0.780696 0.496219 0.379842
0.571417391300 -1.008988142014 0.043748006225 0.833677 -0.500206 0.234042
0.207855165005 -1.034802198410 0.089899882674 -0.028554 0.499009 0.866127
0.055879209191 -1.056768774986 0.086342915893 0.041673 -0.999131 0.001016
0.036366149783 -1.054223895073 0.075889289379 0.028554 -0.499009 -0.866127
0.170683830976 -1.034961819649 0.080879375339 -0.041673 0.999131 -0.001016
-0.371040195227 -1.030872225761 0.115178875625 0.022971 0.999736 0.000999
-0.157438531518 -1.035914063454 0.106730163097 0.023017 0.999735 0.001001
-0.431650459766 -1.034559607506 0.123480618000 0.028554 0.499009 0.866127
-0.078666538000 -1.038081288338 0.103993602097 -0.004017 0.499448 -0.866335
0.656044244766 -0.955748856068 -0.069539472461 -0.583113 0.495730 -0.643608
-0.074079692364 -1.476114511490 -0.038227953017 -0.107182 0.861743 -0.495895
-0.126250654459 -1.613766551018 -0.108119562268 0.837351 -0.523159 0.158578
-0.118092231452 -1.594422101974 -0.080695152283 0.772801 -0.611864 0.168528
-0.183844894171 -1.656250476837 -0.087910868227 -0.953801 -0.021140 0.299695
-0.014776451513 -1.624720931053 -0.021946839988 0.779652 -0.434587 0.450863
-0.034962404519 -1.516935110092 -0.030160961673 -0.860942 0.113547 0.495868
-0.024073239416 -1.497107982635 -0.044510159642 -0.860942 0.113547 -0.495868
0.000213338062 -1.495177030563 -0.014035910368 0.860942 -0.113547 0.495868
0.055977240205 -1.605697035789 -0.085088990629 0.920197 -0.003850 0.391437
-0.022260122001 -1.620347023010 -0.004600265995 0.116383 -0.860658 0.495704
-0.178235009313 -1.652302145958 0.006550001446 0.216255 -0.845361 0.488465
-0.102548502386 -1.637490510941 -0.003429391421 0.107182 -0.861743 -0.495895
-0.289376974106 -1.651324391365 0.015016688965 -0.216255 0.845361 -0.488465
-0.049078512937 -1.620001554489 -0.019074896351 -0.113516 0.001081 -0.993536
-0.646618604660 -1.474004626274 0.084251880646 -0.859487 -0.125673 0.495469
-0.609670519829 -1.621622800827 0.057485032827 0.914395 0.049391 0.401800
-0.628080546856 -1.550698518753 0.078998096287 -0.001123 -0.160574 0.987023
-0.626677334309 -1.511092185974 0.067018106580 0.859487 0.125673 -0.495469
-0.438395559788 -1.060438156128 -0.015267184004 -0.539683 0.834845 -0.108515
-0.423567622900 -1.073993802071 -0.019623860717 0.977124 -0.064332 0.202708
-0.598840355873 -1.046908855438 0.096305981278 -0.062634 0.867137 -0.494115
-0.432098418474 -1.080357789993 -0.016213081777 0.535215 -0.836908 0.114585
-0.518289208412 -1.202831387520 -0.237053439021 -0.923388 -0.327654 0.199996
-0.542539119720 -1.195201039314 -0.339202195406 -0.921233 0.333574 0.200145
-0.489269316196 -1.164975047112 -0.292356252670 0.179267 0.983040 -0.038665
-0.462748706341 -1.216430187225 -0.241494700313 0.758233 -0.630595 -0.165626
-0.462043315172 -1.236656069756 -0.216809853911 0.053003 -0.892898 -0.447129
-0.479749381542 -1.246327877045 -0.198415443301 0.172399 -0.983965 -0.045739
-0.500553011894 -1.211583018303 -0.107254952192 -0.914813 -0.328061 0.235568
-0.506802976131 -1.176632046700 -0.137635678053 -0.912587 0.334085 0.235739
-0.480252027512 -1.145253658295 -0.183497026563 0.177764 0.983001 -0.045913
-0.458997726440 -1.148291468620 -0.166167631745 0.177764 0.983001 -0.045913
-0.437587141991 -1.221167325974 -0.209620714188 0.749928 -0.632896 -0.192487
-0.442582190037 -1.210064768791 -0.225119799376 0.791857 -0.001372 -0.610705
-0.514211177826 -1.222201466560 -0.207578182220 -0.933340 -0.298053 -0.200101
-0.533691287041 -1.144099593163 -0.366745829582 0.052689 -0.642232 0.764697
-0.493903249502 -1.118638038635 -0.378988415003 -0.071363 0.863348 -0.499538
-0.389894962311 -1.207762956619 -0.424579888582 -0.001376 -0.642481 0.766300
-0.600141763687 -1.197656989098 -0.447964459658 0.001251 0.341642 -0.939829
0.470295608044 -1.228972315788 -0.273399680853 -0.179267 -0.983040 -0.038665
0.460088133812 -1.185349464417 -0.288952678442 -0.756781 0.632420 -0.165309
0.455421566963 -1.169134855270 -0.231354489923 -0.587448 0.577291 -0.567133
0.494538158178 -1.187540531158 -0.107924066484 0.914813 0.328061 0.235568
0.456803768873 -1.135876655579 -0.362279564142 -0.055751 -0.641856 0.764796
0.500381410122 -1.216608047485 -0.434493899345 -0.003400 -0.984846 0.173396
0.405757635832 -1.216180205345 -0.433691799641 -0.003400 -0.984846 0.173396
0.537287890911 1.273771405220 -0.326540797949 0.921233 -0.333574 0.200145
0.528685510159 1.303981542587 -0.314290255308 0.503885 0.857034 0.107668
0.497232645750 1.312640786171 -0.329080402851 -0.173923 0.984006 -0.038520
0.442777693272 1.322802305222 -0.176782026887 -0.749928 0.632896 -0.192487
0.434772670269 1.245472192764 -0.162809461355 -0.755514 -0.626261 -0.192341
0.516850769520 1.307072043419 -0.185055226088 0.914813 0.328061 0.235568
0.446386277676 1.327863931656 -0.154248476028 -0.170122 0.984360 -0.045757
-0.468783199787 1.314088225365 -0.268282115459 0.762245 0.625859 -0.165178
-0.464025884867 1.298184633255 -0.306790053844 0.762245 0.625859 -0.165178
-0.501011431217 1.251290798187 -0.328749895096 0.173923 -0.984006 -0.038520
-0.509287714958 1.260645866394 -0.182086452842 -0.914813 -0.328061 0.235568
-0.426059544086 1.330214619637 -0.111658304930 0.177764 0.983001 -0.045913
-0.429093658924 1.248650908470 -0.170665383339 0.749928 -0.632896 -0.192487
-0.444904267788 1.307442784309 -0.227404266596 0.590807 0.573879 -0.567107
-0.482578426600 1.269935131073 -0.381047785282 -0.246171 0.001189 -0.969226
-0.391891270876 -1.544456958771 -0.056460306048 -0.026780 -0.340494 -0.939865
-0.393867552280 -1.546404719353 0.012025389820 -0.999995 0.002938 -0.000979
-0.053247123957 -1.754062294960 -0.064302220941 0.002938 0.999995 0.000979
-0.188487678766 -1.753653049469 -0.077601470053 0.002938 0.999995 0.000979
-0.332902580500 -1.753216147423 -0.027301328257 0.002938 0.999995 0.000979
-0.192655816674 -1.753640413284 -0.070710770786 0.002938 0.999995 0.000979
-0.181276485324 -1.753674864769 -0.119815587997 0.002938 0.999995 0.000979
0.119584128261 -1.754585266113 -0.081901587546 0.002938 0.999995 0.000979
0.028158098459 -1.754308581352 0.010835684836 0.002938 0.999995 0.000979
0.252261161804 -1.754986763000 -0.059175416827 0.002938 0.999995 0.000979
0.080891281366 -1.754468202591 -0.010300584137 0.002938 0.999995 0.000979
0.187050476670 -1.754789352417 -0.081133179367 0.002938 0.999995 0.000979
0.314649105072 -1.808971762657 0.020072706044 0.000978 0.000978 0.999999
0.265300035477 -1.772457003593 0.020072706044 0.000978 0.000978 0.999999
0.193592160940 -1.783802747726 0.020072706044 0.000978 0.000978 0.999999
-0.108225613832 -1.811951994896 0.020072706044 0.000978 0.000978 0.999999
0.137104064226 -1.804092288017 0.020072706044 0.000978 0.000978 0.999999
-0.365584284067 -1.282219052315 0.008506236598 -0.999995 0.002938 0.000979
-0.365290582180 -1.185162067413 -0.028245009482 -0.999995 0.002938 0.000979
-0.365869551897 -1.376504302025 -0.009246174246 -0.999995 0.002938 -0.000979
-0.365201860666 -1.155840158463 -0.127871453762 -0.999995 0.002938 0.000979
-0.365466445684 -1.243287682533 -0.110062144697 -0.999995 0.002938 0.000979
-0.366104513407 -1.454158544540 -0.127219527960 -0.999995 0.002938 -0.000979
-0.220027223229 -1.548487782478 -0.098585888743 -0.003840 -0.922805 0.385249
-0.350194960833 -1.560111641884 -0.127492144704 -0.003840 -0.922805 0.385249
0.061713144183 -1.557866811752 -0.119094491005 -0.003840 -0.922805 0.385249
-0.273534655571 -1.561158299446 -0.129451528192 -0.003840 -0.922805 0.385249
0.175182908773 -1.504528045654 -0.108091540635 0.999995 -0.002938 0.000979
0.175204649568 -1.497339844704 -0.133567377925 0.999995 -0.002938 0.000979
0.175369232893 -1.442947506905 -0.057089719921 0.999995 -0.002938 0.000979
0.176362559199 -1.114675521851 -0.128856480122 0.999995 -0.002938 0.000979
0.175840035081 -1.287358760834 -0.042815484107 0.999995 -0.002938 -0.000979
0.176001712680 -1.233929038048 -0.072701722383 0.999995 -0.002938 -0.000979
0.176003530622 -1.233329176903 0.030133645982 0.999995 -0.002938 -0.000979
0.175698518753 -1.334131956100 0.047801699489 0.999995 -0.002938 -0.000979
0.176261946559 -1.147924900055 -0.057029467076 0.999995 -0.002938 0.000979
0.143825232983 -1.101980805397 -0.056951746345 0.003176 0.996311 0.085761
-0.141604080796 -1.100125789642 -0.068443909287 0.003176 0.996311 0.085761
0.151712059975 -1.096094369888 -0.125470429659 0.003176 0.996311 0.085761
-0.339468061924 -1.099175453186 -0.072520025074 0.003176 0.996311 0.085761
-0.350311279297 -1.099123954773 -0.072736099362 0.003176 0.996311 0.085761
-0.351600348949 -1.093785285950 -0.134582981467 0.003176 0.996311 0.085761
-0.365244984627 -1.170091509819 -0.020666295663 -0.999995 0.002938 0.000979
-0.302413702011 -1.194273471832 0.021195143461 0.001254 0.342448 0.939536
-0.174870282412 -1.211605191231 0.027386480942 0.001254 0.342448 0.939536
-0.286508709192 -1.170600533485 0.012528469786 0.001254 0.342448 0.939536
0.156511098146 -1.136823654175 -0.000301918481 0.001254 0.342448 0.939536
-0.124972209334 -1.127322077751 -0.003462235443 0.001254 0.342448 0.939536
0.043798074126 -1.178311467171 0.014980570413 0.001254 0.342448 0.939536
-0.053204927593 -1.110228061676 -0.023903036490 0.003979 0.879354 0.476151
-0.246915489435 -1.106307148933 -0.030082605779 0.003979 0.879354 0.476151
-0.194399803877 -1.222991585732 0.047021366656 0.003362 0.987428 0.158033
-0.274556249380 -1.226019382477 0.067521184683 0.003362 0.987428 0.158033
-0.083763383329 -1.234819054604 0.076529115438 0.001384 0.693136 0.720806
0.069275498390 -1.242341876030 0.083332017064 0.001384 0.693136 0.720806
0.136179044843 -1.291339159012 0.091493576765 0.000979 0.002938 0.999995
0.147582426667 -1.305290579796 0.091537773609 0.000979 0.002938 0.999995
0.059391111135 -1.261282324791 0.091398864985 0.000979 0.002938 0.999995
-0.164862751961 -1.294864058495 0.091507665813 0.000979 0.002938 0.999995
-0.087502494454 -1.336659669876 0.091639645398 0.000979 0.002938 0.999995
-0.148844525218 -1.318087935448 0.091581255198 0.000979 0.002938 0.999995
0.049900501966 -1.378979444504 0.075280889869 -0.001378 -0.657235 0.753685
-0.269836962223 -1.375055670738 0.077860899270 -0.001378 -0.657235 0.753685
-0.350108414888 -1.386152625084 0.064348988235 -0.003456 -0.980397 0.197001
-0.302273392677 -1.400396227837 -0.005988526158 -0.003456 -0.980397 0.197001
-0.075274124742 -1.387065291405 0.063945084810 -0.003456 -0.980397 0.197001
-0.054188251495 -1.401339769363 -0.006950799376 -0.003456 -0.980397 0.197001
-0.015289056115 -1.393563032150 0.032433781773 -0.003456 -0.980397 0.197001
-0.280536234379 -1.410853147507 -0.022718040273 -0.001305 -0.432009 0.901868
-0.040471520275 -1.477103352547 -0.054099552333 -0.001305 -0.432009 0.901868
-0.128622248769 -1.463691592216 -0.047803930938 -0.001305 -0.432009 0.901868
0.044060364366 -1.444546461105 -0.038384441286 -0.001305 -0.432009 0.901868
0.076988242567 -1.542979121208 -0.085479356349 -0.001305 -0.432009 0.901868
-0.010544806719 -1.521114945412 -0.075134783983 -0.001305 -0.432009 0.901868
-0.337347865105 -1.534293413162 -0.081919915974 -0.001305 -0.432009 0.901868
-0.176006868482 -1.500871777534 -0.065679430962 -0.001305 -0.432009 0.901868
-0.035465911031 -1.503476738930 -0.066723354161 -0.001305 -0.432009 0.901868
-0.369899600744 -1.596000194550 0.032448433340 -0.999995 0.002938 0.000979
-0.363778263330 -1.584554553032 0.051969822496 -0.300538 -0.612326 0.731255
-0.315684735775 -1.607949614525 0.037914227694 -0.001376 -0.642481 0.766300
-0.235079303384 -1.619874238968 0.010969596915 -0.003400 -0.984846 0.173396
-0.358849227428 -1.513270139694 0.066919177771 -0.297091 0.001223 0.954848
-0.338688790798 -1.527017116547 0.069631405175 0.000978 0.000978 0.999999
-0.215040773153 -1.516977310181 0.069631405175 0.000978 0.000978 0.999999
-0.305730819702 -1.475000023842 0.040078386664 0.001376 0.642481 0.766300
-0.217053696513 -1.459459304810 0.002182714641 0.003400 0.984846 0.173396
-0.341868638992 -1.473443984985 -0.062040090561 0.001337 0.865181 -0.501457
-0.376677870750 -1.275485754013 -0.022892013192 0.999916 -0.006965 0.010944
-0.376840263605 -1.339374780655 -0.016456201673 0.999952 0.006924 0.006924
-0.376993089914 -1.335822463036 0.025552969426 0.999956 0.008884 -0.002961
-0.589708566666 1.882262110710 0.172424688935 -0.111891 0.988176 0.104824
0.642738819122 1.875730991364 0.134963989258 0.108138 0.921227 0.373693
-0.665516018867 1.874615669250 0.165759325027 -0.104973 0.990903 0.084209
-0.727855443954 1.843793034554 0.159663483500 -0.936929 0.247148 0.247148
0.694487810135 1.870956182480 0.137633308768 0.110036 0.990325 0.084554
0.683356583118 1.864897727966 0.203325390816 0.196021 0.969854 0.144773
0.716652870178 1.860959291458 0.171822607517 0.436328 0.882871 0.173656
-0.046840041876 -0.477434307337 0.053337696940 0.003026 0.999568 0.029251
0.011249503121 -0.476972430944 0.032083760947 0.003026 0.999568 0.029251
-0.086346298456 -0.509304940701 -0.006884354632 -0.001172 -0.226229 -0.974073
-0.100064761937 -0.541861951351 -0.028388399631 0.003849 0.922424 -0.386161
0.032703951001 -0.596764624119 -0.093581393361 0.001347 0.534955 -0.844879
0.027740377933 -0.617160618305 -0.106472626328 0.001347 0.534955 -0.844879
0.143864318728 -0.564448952675 -0.073023647070 0.001347 0.534955 -0.844879
0.267720967531 -0.560799360275 -0.070480868220 0.001347 0.534955 -0.844879
0.259582221508 -0.593065798283 -0.090884119272 0.001347 0.534955 -0.844879
0.332066446543 -0.592735409737 -0.090536788106 0.001347 0.534955 -0.844879
0.426097780466 -0.599373579025 -0.094618991017 0.001347 0.534955 -0.844879
0.596507966518 -0.614214837551 -0.103428706527 0.004048 0.533024 -0.846091
0.714013993740 -0.719926893711 -0.157809525728 -0.985251 0.169394 -0.024199
0.707382738590 -0.776916086674 -0.257103025913 -0.954454 0.278873 -0.106050
0.705454349518 -0.803306639194 -0.331568092108 -0.982290 0.161091 0.095685
0.716952621937 -0.707016944885 -0.405063122511 -0.987866 0.153466 -0.023872
0.731067299843 0.021749198437 -0.378029972315 -0.999884 0.014924 -0.002985
0.721948444843 -0.578470945358 -0.409790486097 -0.999884 0.014924 -0.002985
0.731908977032 0.080292865634 -0.392257452011 -0.999802 0.015042 0.013037
0.734664440155 0.277772486210 -0.402702391148 -0.999802 0.015042 0.013037
0.712960541248 -0.191911935806 -0.413817375898 0.000987 -0.010858 0.999941
0.598044097424 0.022051632404 -0.411596715450 0.000987 -0.010858 0.999941
0.592149674892 0.432081133127 -0.407541632652 0.000987 -0.010858 0.999941
0.724863588810 -0.310955464840 -0.415004193783 0.000987 -0.010858 0.999941
0.462261199951 -0.045285046101 -0.412134706974 0.000987 -0.010858 0.999941
0.594593465328 0.018630564213 -0.411627262831 0.000987 -0.010858 0.999941
0.718277454376 -0.342981517315 -0.415314346552 0.000987 -0.010858 0.999941
0.659102201462 0.215580552816 -0.409742474556 0.000987 -0.010858 0.999941
0.506853282452 -0.262431263924 -0.414321005344 0.000987 -0.010858 0.999941
0.402487963438 0.444209665060 -0.407244384289 0.000987 -0.010858 0.999941
0.659807026386 -0.302318036556 -0.414858043194 0.000987 -0.010858 0.999941
0.564829707146 0.059150576591 -0.411199212074 0.000987 -0.010858 0.999941
0.445026814938 -0.081526279449 -0.412476509809 0.000987 -0.010858 0.999941
0.528704941273 -0.338056802750 -0.415088355541 0.000987 -0.010858 0.999941
0.559807062149 0.480158030987 -0.407036542892 0.000987 -0.010858 0.999941
0.338992059231 0.257926911116 -0.409024745226 0.000987 -0.010858 0.999941
0.387878745794 -0.021226048470 -0.411827474833 0.000987 -0.010858 0.999941
