0.423458486795 2.152412652969 -0.454557687044 0.555013 -0.001357 -0.831841
0.406565755606 1.897691249847 -0.461093872786 0.194345 -0.003450 -0.980927
0.376832753420 1.972640275955 -0.456616908312 -0.555013 -0.001357 -0.831841
0.361356347799 2.035775184631 -0.441910117865 -0.831841 -0.001357 -0.555013
0.371932506561 1.726821541786 -0.394158750772 0.831841 -0.001357 -0.555013
0.377626210451 2.057608604431 -0.390363037586 0.555013 -0.001357 -0.831841
0.384680896997 1.805525779724 -0.385032206774 0.194345 -0.003450 -0.980927
0.364033073187 1.532190680504 -0.326375991106 0.975066 -0.108618 -0.193515
0.383758813143 1.585367918015 -0.396407216787 0.503339 0.424641 0.752549
0.373759031296 2.095976114273 -0.444628268480 0.555013 0.001357 0.831841
0.389748513699 2.093917608261 -0.452878057957 0.194345 0.003450 0.980927
0.394787609577 1.582323670387 -0.397270381451 0.169981 0.483337 0.858773
0.365921080112 1.716417193413 -0.432538866997 0.831841 0.001357 0.555013
0.364440441132 2.018264055252 -0.428324580193 0.980932 0.001150 0.194346
0.364105373621 1.876051068306 -0.410248637199 0.980932 -0.001150 -0.194346
0.501454055309 1.719531774521 -0.384298652411 0.977134 -0.001162 0.212622
0.501068472862 1.741918921471 -0.382534056902 0.977134 0.001162 0.212622
0.444688349962 1.641622781754 -0.311485379934 0.519223 0.001342 0.854638
0.456456512213 1.822769284248 -0.318642526865 0.519223 0.001342 0.854638
0.438216894865 2.007377862930 -0.307549655437 0.519223 -0.001342 0.854638
0.477370083332 1.975804328918 -0.334670603275 0.806665 0.001365 0.591008
0.494240880013 1.856215000153 -0.357652127743 0.806665 0.001365 0.591008
0.499960094690 1.986201524734 -0.417913645506 0.977134 -0.001162 -0.212622
0.498843729496 1.785205483437 -0.423021972179 0.977134 0.001162 -0.212622
0.367920905352 1.614589095116 -0.449091732502 -0.000978 -0.999999 0.000978
0.327700644732 1.614588975906 -0.402965694666 0.000978 -0.999999 0.000978
0.292570531368 1.772369623184 -0.409548640251 -0.977134 0.001162 -0.212622
0.303224772215 1.784304141998 -0.441956222057 -0.806665 -0.001365 -0.591008
0.328197181225 1.674760460854 -0.470831096172 -0.519223 -0.001342 -0.854638
0.327149838209 1.829085707664 -0.470194131136 -0.519223 0.001342 -0.854638
0.292941838503 1.926635146141 -0.384128212929 -0.977134 0.001162 0.212622
0.366781443357 1.614589095116 -0.397258818150 0.000978 -0.999999 -0.000978
0.317853093147 1.965400576591 -0.333492845297 -0.806665 -0.001365 0.591008
0.404853284359 1.972145080566 -0.301503390074 0.178186 0.001135 0.983996
0.390369266272 1.915377974510 -0.301346987486 -0.178186 0.001135 0.983996
0.349119067192 1.663821816444 -0.311820626259 -0.519223 0.001342 0.854638
0.406653732061 1.614589095116 -0.379001528025 -0.000978 -0.999999 0.000978
0.482920885086 1.614588975906 -0.385079652071 -0.000978 -0.999999 -0.000978
0.473359286785 2.006616830826 -0.466168940067 0.806665 0.001365 -0.591008
0.479655027390 1.775604367256 -0.457592844963 0.806665 0.001365 -0.591008
0.455775052309 1.750671863556 -0.477147817612 0.519223 0.001342 -0.854638
0.450133502483 1.641794681549 -0.480578839779 0.519223 0.001342 -0.854638
0.405913293362 1.819751262665 -0.493680506945 0.178186 0.001135 -0.983996
0.401475667953 1.658669710159 -0.494483888149 0.178186 0.001135 -0.983996
0.384106367826 1.842505335808 -0.492894917727 -0.178186 -0.001135 -0.983996
0.350936263800 1.999889135361 -0.484660387039 -0.519223 -0.001342 -0.854638
0.309788763523 2.054205656052 -0.417412281036 0.000978 0.999999 0.000978
0.440117031336 1.943900585175 -0.486670583487 0.519223 0.001342 -0.854638
0.417743295431 2.052754640579 -0.491538733244 0.178186 0.001135 -0.983996
0.409858167171 1.889206290245 -0.492966294289 0.178186 -0.001135 -0.983996
0.393117487431 1.891446232796 -0.494526386261 -0.178186 -0.001135 -0.983996
0.353352814913 -2.091295242310 -0.080880977213 -0.869292 -0.193999 0.454638
-0.321954071522 -2.100145101547 -0.135778710246 0.506519 -0.244792 0.826750
0.755662143230 -0.572168827057 0.281831204891 -0.971313 -0.001183 0.237800
0.729945600033 -0.555152058601 0.271513074636 0.172275 0.938552 -0.299069
0.974016427994 -0.571038186550 0.352827519178 0.111102 -0.674019 0.730311
1.003736734390 -0.510453999043 0.266080498695 0.007172 0.999003 -0.044059
0.796856403351 -0.652411997318 0.311094820499 0.526150 -0.802576 0.281137
0.941322386265 -0.605071008205 0.299085706472 0.288693 -0.907111 0.306278
0.968205809593 -0.599141120911 0.298318564892 0.095228 -0.953581 0.285683
0.743936598301 -0.681744813919 0.269980192184 0.247770 -0.793175 -0.556313
0.868028402328 -0.603454232216 0.223088935018 0.207945 -0.580705 -0.787109
0.890377998352 -0.562480032444 0.224935039878 -0.259438 0.963805 -0.061413
0.729084730148 -0.555117189884 0.258499741554 0.098235 0.994496 0.036424
0.855289816856 -0.586055934429 0.367035925388 0.014953 -0.004984 0.999876
0.906499385834 -0.537696838379 0.344434559345 -0.336015 0.935173 0.112005
0.894275128841 -0.557080566883 0.232226043940 -0.131279 0.357909 0.924482
-0.868710875511 -0.548901736736 0.363812565804 0.247164 0.892454 0.377406
-0.877677381039 -0.580864310265 0.366727113724 -0.014953 -0.004984 0.999876
-0.835346400738 -0.614680528641 0.348772197962 -0.258425 -0.824794 0.502923
-0.814181089401 -0.623414933681 0.345410555601 -0.259421 -0.815545 0.517288
-0.838804125786 -0.635700881481 0.303699910641 -0.282702 -0.914794 0.288501
-0.991929650307 -0.574675321579 0.231220006943 -0.122698 -0.492235 -0.861772
-0.818886876106 -0.645363807678 0.250006616116 -0.267735 -0.831063 -0.487495
-0.768074870110 -0.567055225372 0.328154087067 0.937307 -0.001258 0.348502
-0.786592602730 -0.665437817574 0.289271146059 -0.496833 -0.840209 0.217269
-0.756111443043 -0.667127966881 0.235569030046 -0.513292 -0.749439 -0.418177
-0.739398717880 -0.634710907936 0.240506991744 0.887384 -0.117469 -0.445815
-0.918826878071 -0.546310007572 0.240198343992 0.312526 0.899068 -0.306601
-0.755532085896 -0.762480854988 0.180433318019 -0.967197 0.001193 -0.254023
0.487218379974 0.274620175362 0.771323978901 0.004975 -0.012934 0.999904
0.504383921623 0.281503736973 0.768652796745 0.921240 0.019490 0.388506
0.485174268484 1.147055029869 0.774123549461 0.998469 0.007243 0.054838
0.474011361599 1.289369583130 0.761446535587 -0.004907 0.000981 -0.999987
0.463748902082 0.948799133301 0.761098027229 -0.004907 0.000981 -0.999987
0.495541661978 0.509844899178 0.759494900703 -0.004955 0.010901 -0.999928
0.498691320419 0.199456468225 0.756394386292 -0.004955 0.010901 -0.999928
0.487312108278 0.106868200004 0.766790449619 0.005153 -0.052558 0.998605
0.506875693798 0.161945968866 0.759156346321 0.999505 0.015283 0.027509
0.455729961395 1.520285010338 0.726245939732 0.004058 0.534243 0.845321
0.482488840818 1.420453071594 0.768651425838 0.963951 0.058915 0.259477
0.446805715561 1.418078303337 0.773017883301 -0.997701 -0.001043 -0.067764
0.460721254349 1.463898658752 0.776010692120 0.004907 0.000981 0.999987
0.480388700962 1.537966728210 0.772514581680 0.005533 0.138320 0.990372
0.479594528675 1.555161118507 0.758547186852 -0.003313 -0.135852 -0.990724
0.451406151056 1.207946538925 0.776427745819 0.004907 0.000981 0.999987
0.472723752260 0.344125360250 0.772315442562 0.004975 -0.012934 0.999904
0.477936655283 0.055207893252 0.739981532097 -0.996678 -0.081383 0.003171
0.502850234509 0.037528119981 0.763079047203 0.005244 -0.072364 0.997364
-0.503211975098 0.207608655095 0.770358741283 -0.004975 -0.012934 0.999904
-0.473107844591 0.285174012184 0.771529257298 -0.004975 -0.012934 0.999904
-0.486551582813 0.888440132141 0.776276290417 -0.004907 0.000981 0.999987
-0.461885184050 1.104279398918 0.776382863522 -0.004907 0.000981 0.999987
-0.458167105913 1.367522001266 0.776026546955 -0.004907 0.000981 0.999987
-0.447084188461 1.463883161545 0.767672181129 0.999671 -0.005034 -0.025168
-0.466484427452 0.426518499851 0.761233687401 0.921622 -0.009023 -0.387984
-0.498786211014 0.355739325285 0.757947742939 0.004955 0.010901 -0.999928
-0.498472750187 0.176719009876 0.756169319153 0.004955 0.010901 -0.999928
-0.489470690489 0.124448068440 0.746183633804 0.004058 0.534243 -0.845321
-0.509748101234 0.099586784840 0.750631868839 -0.996696 0.081212 -0.001055
-0.513953685760 -0.058568824083 0.710698843002 0.005193 0.061278 -0.998107
-0.487657964230 0.088006898761 0.723110496998 0.004058 0.534243 -0.845321
-0.488417983055 0.818158924580 0.760886251926 0.004907 -0.000981 -0.999987
-0.470163464546 1.259092092514 0.761428773403 0.004907 0.000981 -0.999987
-0.457551807165 0.962796866894 0.761142790318 0.004907 0.000981 -0.999987
-0.486180067062 1.019056677818 0.772140204906 -0.998469 0.007243 0.054838
-0.483373463154 1.394400358200 0.758466720581 -0.999827 0.011009 0.015012
-0.448906242847 1.605558514595 0.723866879940 0.004132 -0.772599 -0.634881
0.741021096706 -0.340177774429 0.193859502673 0.929435 -0.001268 0.368984
0.732631206512 -0.395778894424 0.198301360011 -0.250740 -0.033024 0.967491
0.740596115589 0.804732382298 0.237209722400 -0.249025 -0.025510 0.968161
0.737035155296 1.021857500076 0.243074074388 -0.248992 -0.038023 0.967759
0.739843666553 -0.199282571673 0.201279684901 0.929705 -0.014106 0.368035
0.740421950817 -0.478576958179 0.172821581364 0.809344 0.032039 -0.586461
0.740120470524 0.526350975037 0.204822018743 0.768018 0.015277 -0.640246
0.665418088436 -0.618535399437 0.409931063652 0.968906 0.206069 0.136952
0.525791525841 -0.171537369490 0.700379312038 -0.009908 -0.126603 0.991904
0.494259864092 0.741679847240 0.711898207664 0.989974 0.025963 0.138845
0.475835949183 0.758776247501 0.730701208115 -0.008867 -0.000985 0.999960
0.489662528038 1.102836132050 0.715354561806 0.990315 -0.007763 0.138622
0.479185014963 1.474427938461 0.719158768654 0.989060 0.049396 0.138997
0.461908102036 0.923566401005 0.722388327122 -0.996417 -0.018234 0.082588
0.464000642300 0.809024751186 0.717207551003 -0.996159 -0.027040 0.083284
0.469800591469 0.630325913429 0.730377376080 -0.996417 -0.018234 0.082588
0.480370730162 0.225774630904 0.709956586361 -0.995589 -0.045005 0.082325
0.480675190687 0.246597006917 0.725028216839 -0.995589 -0.045005 0.082325
0.505022525787 -0.194597885013 0.688768506050 -0.987642 -0.132703 0.083380
0.682946324348 -0.758045792580 0.288744866848 -0.940817 -0.328560 0.083130
0.712532818317 -0.903023958206 0.188160419464 -0.980921 -0.183698 0.063634
0.576497614384 -0.395596295595 0.605904698372 0.202668 -0.547051 0.812195
0.474862277508 0.605817139149 0.730225324631 -0.008972 -0.010966 0.999900
0.318928658962 0.472153782845 0.749261140823 0.004945 -0.006924 0.999964
0.329485863447 0.704759061337 0.750910758972 0.004945 -0.006924 0.999964
0.326635003090 0.753108501434 0.751115083694 0.004907 0.000981 0.999987
0.325962126255 1.008157014847 0.751118183136 0.004907 0.000981 0.999987
0.314682513475 1.218639016151 0.750216543674 0.004945 0.008902 0.999948
0.330829113722 1.382101774216 0.749041557312 0.004916 -0.000983 0.999987
0.305459499359 1.546438932419 0.714756071568 -0.999987 -0.000981 0.004907
0.305458694696 1.154799580574 0.715946018696 -0.999987 0.000981 0.004907
0.305569171906 1.078121900558 0.740325987339 -0.999987 0.000981 0.004907
0.305558204651 0.574135780334 0.736803054810 -0.999987 -0.000981 0.004907
0.305531799793 0.325847148895 0.728313267231 -0.999987 -0.000981 0.004907
0.307603269815 0.220388084650 0.743550062180 -0.958889 -0.243340 0.146004
0.341175705194 1.550409555435 0.720710277557 0.999987 0.000981 -0.004907
0.341247797012 1.398510098457 0.736088693142 0.999987 0.000981 -0.004907
0.341244578362 0.905829071999 0.737413764000 0.999987 0.000981 -0.004907
0.341271609068 0.615826189518 0.742441356182 0.999987 0.000981 -0.004907
0.341219961643 0.283740758896 0.727521359921 0.999987 0.000981 -0.004907
0.099535159767 0.222894594073 0.745337903500 0.005223 -0.067905 0.997678
0.106027349830 0.603019356728 0.750210702419 0.004945 -0.006924 0.999964
0.124206647277 0.736315011978 0.751061022282 0.004907 0.000981 0.999987
0.096668094397 0.953138172626 0.751187622547 0.004907 -0.000981 0.999987
0.109225966036 1.147532224655 0.750811398029 0.004945 0.008902 0.999948
0.100049585104 1.599985837936 0.737276852131 -0.022526 0.899696 0.435935
0.091286964715 1.207701921463 0.720453798771 -0.999987 0.000981 0.004907
0.091352537274 1.147683978081 0.735236823559 -0.999987 0.000981 0.004907
0.091416239738 1.057915925980 0.749396681786 -0.999987 -0.000981 0.004907
0.091265752912 0.281985849142 0.712122976780 -0.999987 -0.000981 0.004907
0.124082311988 1.584693431854 0.735195159912 0.983367 0.181597 -0.003426
0.127038955688 1.370205163956 0.732956171036 0.999987 0.000981 -0.004907
0.127004951239 1.057921528816 0.727643847466 0.999987 0.000981 -0.004907
0.127009212971 0.778495848179 0.728568017483 0.999987 0.000981 -0.004907
0.126953199506 0.494342297316 0.714667916298 0.999987 0.000981 -0.004907
0.126954123378 0.357656061649 0.713191151619 0.999987 0.000981 -0.004907
-0.120132319629 0.246391817927 0.745957911015 -0.004984 -0.014953 0.999876
-0.108613230288 0.540306508541 0.749740898609 -0.004945 -0.006924 0.999964
-0.095383316278 0.642840206623 0.750550270081 -0.004945 -0.006924 0.999964
-0.117380499840 1.005303144455 0.751092374325 -0.004907 0.000981 0.999987
-0.091450221837 1.056575179100 0.751211583614 -0.004907 -0.000981 0.999987
-0.092635430396 1.236951231956 0.750089108944 -0.004945 0.008902 0.999948
-0.091307871044 1.480541348457 0.723977148533 0.999987 -0.000981 0.004907
-0.091335922480 1.374256968498 0.729872763157 0.999987 -0.000981 0.004907
-0.091384112835 1.079319596291 0.742413580418 0.999987 0.000981 0.004907
-0.091315530241 0.784131228924 0.727513074875 0.999987 0.000981 0.004907
-0.091317310929 0.536767363548 0.726484835148 0.999987 -0.000981 0.004907
-0.126974165440 1.525601506233 0.719161570072 -0.999987 0.000981 -0.004907
-0.127027809620 1.261975288391 0.731267392635 -0.999987 -0.000981 -0.004907
-0.127093598247 0.876327872276 0.746901154518 -0.999987 -0.000981 -0.004907
-0.127058491111 0.732309341431 0.739273309708 -0.999987 -0.000981 -0.004907
-0.126954957843 0.552802026272 0.715483903885 -0.999987 0.000981 -0.004907
-0.127029046416 0.250026106834 0.727812826633 -0.999987 0.000981 -0.004907
-0.123519897461 0.212820321321 0.737417280674 -0.978085 -0.208177 -0.003489
-0.337381988764 0.687017798424 0.750744998455 -0.004945 -0.006924 0.999964
-0.317563414574 0.682769954205 0.750805079937 -0.004945 -0.006924 0.999964
-0.326121538877 0.951591372490 0.751117467880 -0.004907 -0.000981 0.999987
-0.322119921446 1.442879319191 0.749195277691 -0.004916 -0.000983 0.999987
-0.305486589670 1.517483949661 0.720582544804 0.999987 -0.000981 0.004907
-0.305616080761 1.206234693527 0.749675393105 0.999987 0.000981 0.004907
-0.305521309376 1.057688474655 0.729928076267 0.999987 0.000981 0.004907
-0.305471986532 0.359963446856 0.715849161148 0.999987 -0.000981 0.004907
-0.341177910566 1.353142380714 0.720822989941 -0.999987 0.000981 -0.004907
-0.341255068779 1.240681648254 0.738542854786 -0.999987 -0.000981 -0.004907
-0.341293007135 0.989784240723 0.747928261757 -0.999987 -0.000981 -0.004907
-0.341223567724 0.238403484225 0.727605640888 -0.999987 0.000981 -0.004907
0.612894535065 -0.327437311411 0.578714549541 0.838195 -0.099203 0.536272
0.676288783550 -0.524099767208 0.422101229429 0.873175 -0.106485 0.475632
0.762850165367 -0.784349143505 0.165644928813 0.912329 -0.172218 0.371479
0.564683020115 0.405708402395 0.657449841499 0.025420 -0.017286 0.999527
0.565001904964 0.549572467804 0.658683240414 0.025168 -0.005034 0.999671
0.572331428528 0.629515051842 0.652102053165 0.867007 -0.001336 0.498295
0.630242705345 -0.371151745319 0.531337559223 -0.020926 0.645926 -0.763113
0.555306553841 0.747711598873 0.659100174904 0.025117 0.005023 0.999672
0.566473603249 0.240287378430 0.654555797577 0.025624 -0.025624 0.999343
0.640601158142 -0.470144212246 0.479938894510 0.023824 -0.651645 0.758150
0.752710640430 0.957958042622 0.214116081595 0.950879 -0.001233 0.309560
0.677022039890 1.061614274979 0.399958908558 -0.001189 0.969226 0.246171
0.711902320385 0.961275160313 0.335746377707 0.946173 -0.001240 0.323658
0.703206002712 1.026638865471 0.358701288700 0.931838 -0.001264 0.362873
0.691706597805 0.998370409012 0.388220757246 0.931838 -0.001264 0.362873
0.649692833424 0.911057770252 0.487542778254 0.916599 -0.001286 0.399807
0.622702658176 1.009594440460 0.546606898308 0.909655 -0.001294 0.415362
0.624864280224 0.253496795893 0.535372376442 0.916599 -0.001286 0.399807
0.573193609715 0.281130939722 0.637634754181 0.000978 -0.000978 0.999999
0.722838878632 0.211271822453 0.218305319548 -0.001122 0.986665 -0.162760
0.648058235645 0.213300839067 0.436675131321 -0.005711 -0.983357 0.181595
-0.744943320751 0.180145949125 0.204993546009 -0.959249 -0.001213 0.282560
-0.677700698376 0.211535930634 0.401154965162 -0.937307 -0.001258 0.348502
-0.650624036789 0.250889122486 0.443383783102 0.001139 0.983039 -0.183394
-0.615692317486 0.269749164581 0.551080644131 -0.712089 0.675017 0.193083
-0.672998368740 0.204095035791 0.386176139116 0.005679 -0.984768 0.173783
-0.574457526207 0.281535804272 0.621300995350 0.001118 0.987489 -0.157685
-0.591549098492 0.263501048088 0.607890129089 -0.903843 -0.001300 0.427862
-0.752401292324 1.072092533112 0.192126497626 -0.000978 -0.000978 -0.999999
-0.714595377445 0.941777586937 0.327871233225 -0.946173 -0.001240 0.323658
-0.692172527313 1.044337391853 0.387046754360 -0.931838 -0.001264 0.362873
-0.663326799870 0.949361562729 0.456225544214 -0.916599 -0.001286 0.399807
-0.646579504013 1.018548846245 0.494467377663 -0.909655 -0.001294 0.415362
-0.613916158676 0.992481410503 0.565256059170 -0.862174 -0.001337 0.506611
-0.576062679291 0.868199765682 0.629592239857 -0.862174 -0.001337 0.506611
-0.695992529392 -0.561415433884 0.364394098520 0.020971 0.669667 -0.742366
-0.703754603863 -0.591042816639 0.354921162128 -0.874983 -0.112396 0.470926
-0.614791452885 -0.317506343126 0.577582597733 -0.838195 -0.099203 0.536272
-0.583201706409 -0.237965717912 0.632302045822 -0.024745 -0.201491 0.979178
-0.567374527454 0.958371460438 0.632234036922 0.021100 -0.009043 -0.999736
-0.590866029263 -0.008965784684 0.627253234386 -0.866480 0.020276 0.498800
-0.580927550793 0.168558403850 0.638678312302 -0.866770 0.012094 0.498561
-0.572695732117 0.384083360434 0.650715351105 -0.867668 -0.001333 0.497143
-0.580208480358 0.389657109976 0.637642979622 -0.867668 -0.001333 0.497143
0.597856044769 -0.486578375101 0.527144908905 0.360902 -0.489223 0.793984
0.570848882198 -0.485234588385 0.540224194527 0.360902 -0.489223 0.793984
0.295124679804 -0.432115346193 0.640910625458 0.154932 -0.506112 0.848438
-0.200653105974 -0.431364327669 0.651780426502 -0.051420 -0.521154 0.851912
-0.230524033308 -0.438078641891 0.645883619785 -0.051495 -0.519125 0.853146
-0.471661865711 -0.384849101305 0.631500363350 -0.205595 -0.472718 0.856895
-0.558945059776 -0.422592073679 0.584127128124 -0.354580 -0.462703 0.812514
-0.598911166191 -0.498128592968 0.519124269485 -0.367538 -0.513258 0.775553
-0.660500347614 -0.662286520004 0.378171235323 -0.469448 -0.499307 0.728225
-0.702575325966 -0.853149771690 0.221840724349 -0.554730 -0.406583 0.725923
-0.409626305103 -1.086903452873 0.183493137360 -0.153566 -0.484099 0.861432
-0.468574553728 -1.013590931892 0.214104130864 -0.142732 -0.451264 0.880902
-0.379992932081 -1.034792542458 0.217051550746 -0.112149 -0.458532 0.881573
-0.373173803091 -1.087651252747 0.187092661858 -0.089052 -0.496145 0.863661
-0.235761210322 -1.083613276482 0.204217642546 -0.063357 -0.533609 0.843355
-0.262192934752 -1.065329432487 0.213730052114 -0.059635 -0.495107 0.866783
-0.163986891508 -1.054114103317 0.225897789001 -0.031313 -0.496922 0.867230
-0.068039730191 -1.103384613991 0.198089763522 -0.006789 -0.541774 0.840497
-0.122135676444 -1.125272989273 0.182692393661 -0.020531 -0.535167 0.844497
0.202767610550 -1.070440649986 0.214870557189 0.059635 -0.495107 0.866783
0.602334022522 -0.954167783260 0.217994630337 0.307541 -0.490488 0.815377
0.533414840698 -1.024906158447 0.196191325784 0.156815 -0.485100 0.860283
0.291184216738 -1.087157607079 0.197721436620 0.066318 -0.534780 0.842385
0.239966198802 -1.097904086113 0.194857209921 0.063357 -0.533609 0.843355
0.184858441353 -1.083822369576 0.207431569695 0.020531 -0.535167 0.844497
0.111986711621 -1.100670933723 0.198852568865 0.026166 -0.543979 0.838691
0.059836629778 1.791796445847 0.667776405811 0.001351 0.838844 0.544370
0.315202653408 1.793169379234 0.648058712482 0.075970 0.812735 0.577659
0.471431285143 1.778630018234 0.631311595440 0.291413 0.808080 0.511942
0.488251537085 1.777696371078 0.625949501991 0.214301 0.793994 0.568901
0.583353340626 1.821490526199 0.503682136536 0.300449 0.835963 0.459235
0.601537406445 1.963624358177 0.206863477826 0.233770 0.898324 0.371974
-0.151266902685 2.021278381348 0.195317044854 -0.016788 0.923367 0.383552
-0.383730798960 2.008938312531 0.197142988443 -0.068808 0.946435 0.315478
-0.576678872108 1.851372838020 0.451704680920 -0.273965 0.855566 0.439262
-0.592280149460 1.830337882042 0.481682926416 -0.300449 0.835963 0.459235
-0.465444982052 1.768734574318 0.650551617146 -0.300697 0.810780 0.502212
0.737524032593 1.184451580048 0.238091066480 0.895195 0.006573 0.445626
0.743763208389 1.240404367447 0.225549370050 0.896243 -0.006580 0.443515
0.732395887375 1.444521069527 0.247275531292 0.883302 0.028320 0.467948
0.559476196766 1.424160361290 0.649911522865 0.863536 0.014865 0.504067
0.560109615326 0.387254059315 0.656880259514 0.927860 -0.001273 0.372926
0.569707453251 0.124110758305 0.638360679150 0.926784 0.019335 0.375096
0.572737157345 -0.069559924304 0.641991913319 0.926002 0.022017 0.376876
0.675561666489 -0.536918997765 0.394816368818 0.935302 0.026943 0.352823
0.741804599762 -0.563081800938 0.175564095378 0.959049 0.003647 0.283217
0.735867023468 -0.097471997142 0.198220223188 0.958842 -0.006092 0.283876
0.732796192169 0.168170094490 0.215282559395 0.920784 -0.014246 0.389812
0.728834450245 0.186703741550 0.227528542280 0.945191 -0.018879 0.325971
0.620342075825 0.259398639202 0.526754021645 0.909655 0.001294 0.415362
0.608736693859 0.240186974406 0.552259385586 0.909655 -0.001294 0.415362
0.738802731037 0.384337455034 0.208434522152 0.897706 -0.017187 0.440259
-0.737267792225 1.023619174957 0.234000414610 -0.888920 -0.028156 0.457197
-0.734620928764 0.675351500511 0.226341515779 -0.898286 -0.011872 0.439250
-0.737108230591 0.413214832544 0.212985172868 -0.897706 -0.017187 0.440259
-0.732499837875 0.342465579510 0.221313491464 -0.927111 -0.008951 0.374681
-0.737060129642 0.049658123404 0.200541019440 -0.920784 -0.014246 0.389812
-0.743316590786 -0.628006160259 0.171110525727 -0.959049 0.003647 0.283217
-0.733295202255 -0.714909434319 0.236481040716 -0.969064 0.005960 0.246736
-0.592879354954 -0.279370367527 0.600485444069 -0.932136 -0.024428 0.361283
-0.588432848454 -0.236164987087 0.612863123417 -0.919790 0.006432 0.392358
-0.579634726048 -0.039631500840 0.623165786266 -0.926002 0.022017 0.376876
-0.571276366711 -0.036012362689 0.643542349339 -0.927268 0.021985 0.373752
-0.568986475468 0.312028020620 0.634222447872 -0.944326 0.006254 0.328951
-0.562906563282 0.506502091885 0.648515045643 -0.944109 0.001244 0.329630
-0.563195466995 0.672999799252 0.647617280483 -0.933196 0.006348 0.359312
-0.567204356194 0.685667932034 0.637330710888 -0.916186 0.001289 0.400751
-0.607085585594 1.021574497223 0.568104028702 -0.903843 0.001300 0.427862
-0.651689887047 1.054296970367 0.468891441822 -0.925729 0.001273 0.378186
-0.707520604134 1.074347615242 0.326494634151 -0.934187 0.001261 0.356781
-0.733065366745 1.120271682739 0.248492687941 -0.951224 -0.018700 0.307932
-0.586921870708 1.598098874092 0.597614705563 -0.942486 -0.006258 0.334188
-0.636967718601 1.656569957733 0.479645788670 -0.925489 -0.008985 0.378668
-0.677634954453 1.689302086830 0.374687820673 -0.934497 0.014024 0.355695
-0.734608650208 1.568071722984 0.237267091870 -0.857838 0.017618 0.513619
-0.740704417229 1.336926102638 0.232972085476 -0.892024 -0.006588 0.451941
-0.739093661308 1.226475954056 0.234766647220 -0.896243 -0.006580 0.443515
-0.521919250488 -0.342606961727 0.647165954113 -0.286747 -0.427820 0.857174
-0.452088207006 -0.358638495207 0.657040297985 0.022664 0.223059 0.974541
-0.351902246475 -0.416924536228 0.647669374943 -0.255872 -0.966491 0.020615
-0.139291495085 -0.451090484858 0.652383565903 -0.056792 -0.497276 0.865732
0.152744263411 -0.448223769665 0.642835497856 0.073433 -0.776084 -0.626339
0.307210147381 -0.418340623379 0.633351564407 0.188333 -0.764049 -0.617058
0.383646219969 -0.380606234074 0.659329950809 -0.188495 0.758579 0.623721
0.280396580696 -0.433312892914 0.650808691978 0.147797 -0.490217 0.858978
-0.722840011120 -0.844870924950 0.221764758229 -0.544606 -0.403107 0.735465
-0.720849692822 -0.941663861275 0.150915920734 -0.537872 -0.842893 -0.014979
-0.668908953667 -0.652196705341 0.386924833059 -0.343955 -0.550651 0.760577
-0.493124634027 0.498955309391 0.729279577732 0.008972 -0.010966 0.999900
-0.464960932732 0.980744361877 0.730907499790 0.008867 0.000985 0.999960
-0.468783855438 1.099279522896 0.730935871601 0.008867 0.000985 0.999960
-0.463638722897 0.806170642376 0.711961150169 0.996159 -0.027040 0.083284
-0.471337735653 0.458000719547 0.709836602211 0.996417 -0.018234 0.082588
-0.472106397152 0.501425981522 0.728822648525 0.996417 -0.018234 0.082588
-0.591967880726 -0.477493494749 0.535241365433 0.923927 -0.373617 0.082277
-0.459470123053 1.385329008102 0.730128765106 0.008884 0.000987 0.999960
-0.453305155039 1.451696753502 0.719473958015 0.995468 -0.047298 0.082497
-0.458371609449 1.221287965775 0.711454093456 0.995910 -0.033741 0.083809
-0.494179338217 0.721640229225 0.716363668442 -0.989974 0.025963 0.138845
-0.744759202003 -0.594527602196 0.184109076858 -0.936173 -0.001260 0.351537
-0.741375803947 -0.322819918394 0.181704595685 -0.768462 0.029502 -0.639215
-0.737257719040 0.771405100822 0.235450476408 0.249025 -0.025510 0.968161
-0.745284914970 0.933548808098 0.220322266221 -0.768018 0.015277 -0.640246
-0.740987777710 -0.504871368408 0.193839952350 -0.929435 -0.001268 0.368984
-0.738246202469 -0.230767741799 0.204184025526 -0.936811 -0.013982 0.349556
-0.739128470421 0.189135283232 0.218713983893 -0.936344 -0.008869 0.350971
-0.743202269077 0.439075052738 0.218125343323 -0.929705 -0.014106 0.368035
-0.743121206760 0.685293197632 0.227951392531 -0.929705 -0.014106 0.368035
0.810533761978 0.037218481302 0.132310658693 -0.002938 -0.000979 0.999995
0.807555496693 0.034115757793 0.105557397008 0.002938 0.000979 -0.999995
0.804984390736 -0.046603638679 0.105346940458 0.002956 -0.004926 -0.999984
0.819714426994 -0.038971681148 0.125757753849 0.996286 -0.085942 0.005305
0.807143807411 -0.101685032248 0.132316023111 -0.002944 0.000981 0.999995
0.777494311333 0.081330709159 0.105554394424 0.000979 0.000979 -0.999999
0.806566953659 0.797159969807 0.159722477198 -0.002956 0.004926 0.999984
-0.804846405983 -0.109365314245 0.105550050735 -0.000979 -0.000979 -0.999999
-0.758548617363 -0.137145102024 0.116881676018 0.999999 -0.000978 0.000978
-0.790060102940 0.071840658784 0.105538107455 -0.000979 0.000979 -0.999999
-0.780020952225 0.105020448565 0.105584703386 -0.000978 0.000978 -0.999999
-0.813193738461 0.869390666485 0.132858246565 -0.002956 0.006896 -0.999972
-0.804960489273 0.844916522503 0.159436538815 0.002956 0.004926 0.999984
-0.807253539562 0.961302340031 0.159715637565 0.002944 -0.000981 0.999995
-0.058124192059 2.115886926651 -0.067786134779 -0.018055 0.612494 -0.790269
0.525911927223 1.737936735153 0.661558985710 0.051692 0.540670 -0.839645
0.395686447620 1.747732400894 0.660257339478 0.049166 0.571731 -0.818966
-0.525133073330 1.728026270866 0.655138671398 -0.051692 0.540670 -0.839645
-0.457281082869 1.709656476974 0.723644971848 -0.147297 0.074238 0.986302
-0.400706052780 1.809893608093 0.723744153976 -0.208345 0.148818 0.966667
-0.379376202822 1.780732393265 0.729800522327 -0.018088 0.075545 0.996978
-0.372781068087 1.708932757378 0.734629511833 -0.015282 0.029545 0.999447
-0.126951932907 1.782817006111 0.734533488750 -0.020258 0.075702 0.996925
0.104563347995 1.677376151085 0.739502668381 -0.007061 0.025218 0.999657
0.195327699184 1.676803946495 0.738307416439 0.019358 0.025471 0.999488
0.247732535005 1.698630332947 0.736720025539 0.019397 0.027563 0.999432
0.147948384285 1.806811571121 0.732292532921 0.020258 0.075702 0.996925
0.186280936003 1.817206859589 0.730722784996 0.020258 0.075702 0.996925
0.372508317232 1.786768674850 0.729468464851 0.018088 0.075545 0.996978
0.430976212025 1.657782077789 0.729298770428 0.131587 0.030366 0.990839
0.004330910742 1.777462840080 0.734231770039 -0.007371 0.074762 0.997174
-0.232369437814 1.797844290733 0.731240212917 -0.020258 0.075702 0.996925
-0.358603060246 1.800208330154 0.701243102551 -0.046934 0.669876 -0.740988
-0.284575879574 1.790258646011 0.687638759613 -0.046934 0.669876 -0.740988
-0.229645878077 1.803333878517 0.698242843151 -0.004154 0.671632 -0.740873
0.034127093852 1.810257792473 0.703822016716 0.001379 0.671779 -0.740750
0.119403131306 1.829715132713 0.721635818481 0.001379 0.671779 -0.740750
0.175769194961 1.796934962273 0.692175745964 0.004154 0.671632 -0.740873
0.270693898201 1.816108584404 0.710220217705 0.046934 0.669876 -0.740988
0.312012255192 1.780487895012 0.680476844311 0.046934 0.669876 -0.740988
0.402062475681 1.765466690063 0.673120915890 0.061491 0.630637 -0.773638
-0.153230890632 1.634597539902 0.733131051064 -0.003414 -0.984316 0.176380
0.437987536192 1.636213064194 0.721745491028 0.035436 -0.988772 0.145172
-0.206815272570 1.829151630402 0.725078940392 -0.026036 0.998749 0.042699
0.209346666932 2.060641288757 0.044813856483 -0.085942 -0.005305 0.996286
0.153569638729 2.091202020645 0.071380615234 -0.001143 0.982047 0.188635
0.072436518967 2.095151424408 0.050921332091 0.001143 0.982047 0.188635
0.057480957359 2.066990137100 0.060467850417 -0.000981 -0.004907 0.999987
0.039007257670 2.077327251434 0.074255444109 -0.048247 -0.005133 0.998822
0.019302474335 2.093858003616 0.055935792625 -0.461432 -0.003966 0.887167
0.034104216844 2.073873519897 0.041659150273 -0.079115 0.005274 -0.996852
-0.036825068295 2.052130460739 0.065165109932 0.762647 0.004137 -0.646802
-0.023302771151 2.070935726166 0.069973729551 0.752485 -0.004142 0.658597
-0.224074900150 2.065516948700 0.056632701308 -0.999999 -0.000978 -0.000978
0.066538155079 1.483813047409 -0.520216643810 0.002973 0.012883 -0.999913
0.146408259869 0.871313333511 -0.528245687485 0.002973 0.012883 -0.999913
0.013942673802 0.398986190557 -0.534824490547 0.002973 0.012883 -0.999913
0.258120566607 0.693987131119 -0.530393421650 0.002973 0.012883 -0.999913
0.214468300343 0.571781933308 -0.532114267349 0.002973 0.012883 -0.999913
0.088707156479 0.481917351484 -0.533566594124 0.002973 0.012883 -0.999913
0.081333547831 1.378280401230 -0.521597921848 0.002973 0.012883 -0.999913
0.004425361753 0.204540207982 -0.537442982197 0.002973 0.012883 -0.999913
0.022247791290 1.445163726807 -0.520821750164 0.002973 0.012883 -0.999913
0.038917228580 0.685596585274 -0.530942976475 0.002973 0.012883 -0.999913
0.244594603777 1.012917160988 -0.526156723499 0.002973 0.012883 -0.999913
0.445234209299 1.326969146729 -0.521557807922 0.002973 0.012883 -0.999913
0.251523733139 1.031832337379 -0.525889992714 0.002973 0.012883 -0.999913
0.481491148472 1.408453345299 -0.520396173000 0.002973 0.012883 -0.999913
0.144024550915 0.499069303274 -0.533226966858 0.002973 0.012883 -0.999913
0.201281547546 1.006404995918 -0.526330173016 0.002973 0.012883 -0.999913
0.490437686443 1.376953601837 -0.520799398422 0.002973 0.012883 -0.999913
0.083716332912 1.492857098579 -0.520061492920 0.002973 0.012883 -0.999913
0.439617484808 1.321030735970 -0.521648466587 0.002973 0.012883 -0.999913
0.264117419720 0.842846572399 -0.528391361237 0.002973 0.012883 -0.999913
0.189049646258 0.538962721825 -0.532603740692 0.002973 0.012883 -0.999913
0.114660732448 0.499342411757 -0.533281862736 0.002973 0.012883 -0.999913
0.138580650091 1.264654994011 -0.523002803326 0.002973 0.012883 -0.999913
0.309469252825 1.528131127357 -0.519139468670 0.002973 0.012883 -0.999913
0.022912144661 1.505263566971 -0.520016908646 0.002973 0.012883 -0.999913
0.236037194729 1.181630730629 -0.523918271065 0.002973 0.012883 -0.999913
0.104617744684 1.248882651329 -0.523281395435 0.002973 0.012883 -0.999913
0.119727671146 1.442679047585 -0.520660400391 0.002973 0.012883 -0.999913
0.196182399988 1.165496349335 -0.524213492870 0.002973 0.012883 -0.999913
0.014661967754 1.475241661072 -0.520434737206 0.002973 0.012883 -0.999913
0.324204295874 0.929313898087 -0.527115523815 0.002973 0.012883 -0.999913
0.150515168905 0.460331916809 -0.533731818199 0.002973 0.012883 -0.999913
0.123264044523 0.684753060341 -0.530785977840 0.002973 0.012883 -0.999913
0.154077365994 0.628584563732 -0.531475365162 0.002973 0.012883 -0.999913
0.388252019882 1.299389839172 -0.522040247917 0.002973 0.012883 -0.999913
0.128512710333 1.186895728111 -0.524062454700 0.002973 0.012883 -0.999913
0.491585999727 1.434199452400 -0.520031809807 0.002973 0.012883 -0.999913
0.078394770622 0.678242623806 -0.530962526798 0.002973 0.012883 -0.999913
0.058225721121 0.160787537694 -0.537920534611 0.002973 0.012883 -0.999913
0.525583803654 1.492674946785 -0.519182264805 0.002973 0.012883 -0.999913
0.114608943462 1.054236769676 -0.525863707066 0.002973 0.012883 -0.999913
0.058995455503 0.620354950428 -0.531775116920 0.002973 0.012883 -0.999913
0.074759125710 1.299133062363 -0.522669196129 0.002973 0.012883 -0.999913
0.077767461538 0.940309941769 -0.527460277081 0.002973 0.012883 -0.999913
0.196114301682 1.515529632568 -0.519534111023 0.002973 0.012883 -0.999913
0.067501828074 0.742842733860 -0.530120611191 0.002973 0.012883 -0.999913
0.409875273705 0.964179575443 -0.526521205902 0.000991 0.012883 -0.999917
0.534638226032 1.356512784958 -0.521016061306 0.000991 0.012883 -0.999917
0.575772225857 1.568299889565 -0.518074870110 0.000991 0.012883 -0.999917
0.382403045893 0.834689140320 -0.528322219849 0.000991 0.012883 -0.999917
0.525943517685 1.377613902092 -0.520737946033 0.000991 0.012883 -0.999917
0.276474595070 0.648132443428 -0.530994296074 0.000991 0.012883 -0.999917
0.342940688133 0.850990772247 -0.528145551682 0.000991 0.012883 -0.999917
0.470901906490 0.978534817696 -0.526253938675 0.000991 0.012883 -0.999917
0.524668455124 1.198285937309 -0.523189187050 0.000991 0.012883 -0.999917
0.077143847942 0.132551223040 -0.538270056248 0.000991 0.012883 -0.999917
0.226496189833 0.589536786079 -0.531853020191 0.000991 0.012883 -0.999917
0.480534344912 1.180764317513 -0.523480057716 0.000991 0.012883 -0.999917
0.479379445314 0.893467903137 -0.528645336628 -0.036455 0.030206 -0.998879
0.325417041779 0.490229874849 -0.535670220852 -0.036455 0.030206 -0.998879
0.426142930984 0.715903878212 -0.532261312008 -0.036455 0.030206 -0.998879
0.566075146198 0.780107080936 -0.535284996033 -0.036455 0.030206 -0.998879
0.201088294387 0.333292573690 -0.536092698574 -0.036455 0.030206 -0.998879
0.544126987457 0.765451908112 -0.534953474998 -0.036455 0.030206 -0.998879
0.550686657429 0.834232091904 -0.533048152924 -0.036455 0.030206 -0.998879
0.446996629238 0.866760313511 -0.528314411640 -0.036455 0.030206 -0.998879
0.321237862110 0.548430085182 -0.533708810806 -0.036455 0.030206 -0.998879
0.336417376995 0.482774049044 -0.536297082901 -0.036455 0.030206 -0.998879
0.373577207327 0.641826629639 -0.532680332661 -0.036455 0.030206 -0.998879
0.621988177299 0.766461491585 -0.535946965218 -0.000985 0.006896 -0.999976
0.274248421192 0.308254271746 -0.538712799549 -0.000985 0.006896 -0.999976
0.055200312287 0.015317896381 -0.540484488010 -0.000985 0.006896 -0.999976
0.490369170904 0.527521371841 -0.537442147732 -0.000985 0.006896 -0.999976
0.565230011940 0.727544426918 -0.536152899265 -0.000985 0.006896 -0.999976
0.674548804760 0.766245245934 -0.536004364491 -0.000985 0.006896 -0.999976
0.625607430935 0.677269279957 -0.536561191082 -0.000985 0.006896 -0.999976
0.616217494011 0.618941247463 -0.536911010742 0.000983 0.004916 -0.999987
0.578734278679 0.351129144430 -0.537251412868 0.006883 0.000983 -0.999976
0.657055616379 0.567336678505 -0.536758661270 0.006883 0.000983 -0.999976
0.766297101974 0.494404554367 -0.536071598530 0.006883 0.000983 -0.999976
0.478226959705 0.423471570015 -0.537883520126 0.006883 0.000983 -0.999976
0.644845187664 0.394996583462 -0.536835551262 0.006883 0.000983 -0.999976
0.409589648247 0.243172138929 -0.538315355778 0.006883 0.000983 -0.999976
0.386354327202 0.213625535369 -0.538461506367 0.006883 0.000983 -0.999976
0.477915406227 0.331448823214 -0.537885546684 0.006883 0.000983 -0.999976
0.228405237198 0.167532861233 -0.539455056190 0.006883 0.000983 -0.999976
0.611304759979 0.375571072102 -0.537046492100 0.006883 0.000983 -0.999976
0.685642242432 0.632184445858 -0.536578834057 0.006883 0.000983 -0.999976
0.418963313103 0.128794983029 -0.538375675678 0.004916 0.000983 -0.999987
0.376200228930 0.054893042892 -0.538695275784 0.004916 0.000983 -0.999987
0.246288537979 0.081371128559 -0.539381563663 0.004916 0.000983 -0.999987
0.394965380430 0.099339306355 -0.538541376591 0.004916 0.000983 -0.999987
0.495462238789 0.228894174099 -0.537840187550 0.004916 0.000983 -0.999987
0.476125806570 0.227774888277 -0.537948131561 0.004916 0.000983 -0.999987
0.706889390945 0.172215014696 -0.536738753319 0.004916 0.000983 -0.999987
0.300373256207 0.143034130335 -0.539013385773 0.004916 0.000983 -0.999987
0.526978075504 0.184599682689 -0.537716686726 0.004916 0.000983 -0.999987
0.383506059647 0.208991169930 -0.538480162621 0.004916 0.000983 -0.999987
0.340402185917 0.075161531568 -0.538869619370 0.004916 0.000983 -0.999987
0.111523330212 -0.020855797455 -0.540240645409 0.004916 0.000983 -0.999987
0.167013347149 0.009732004255 -0.539900004864 0.004916 0.000983 -0.999987
0.633849620819 -0.259591966867 -0.536993503571 0.006883 -0.000983 -0.999976
0.320862144232 -0.077257543802 -0.538962543011 0.006883 -0.000983 -0.999976
0.324296563864 -0.115531414747 -0.538920998573 0.006883 -0.000983 -0.999976
0.242870271206 -0.070656150579 -0.539431869984 0.006883 -0.000983 -0.999976
0.696228623390 -0.281621396542 -0.536608934402 0.006883 -0.000983 -0.999976
0.562071561813 -0.016224935651 -0.537556052208 0.006883 -0.000983 -0.999976
0.735301613808 -0.074572876096 -0.536489665508 0.006883 -0.000983 -0.999976
0.609176874161 -0.006559342146 -0.537280082703 0.006883 -0.000983 -0.999976
0.609572410583 -0.091853663325 -0.537230789661 0.006883 -0.000983 -0.999976
0.603425502777 -0.170780807734 -0.537224054337 0.006883 -0.000983 -0.999976
0.068611085415 -0.045085266232 -0.540486335754 0.006883 -0.000983 -0.999976
0.651998877525 0.047785401344 -0.537054419518 0.006883 -0.000983 -0.999976
0.569893240929 -0.157255440950 -0.537431716919 0.006883 -0.000983 -0.999976
0.560187339783 -0.152713358402 -0.537492096424 0.006883 -0.000983 -0.999976
0.506401181221 -0.140042930841 -0.537820279598 0.006883 -0.000983 -0.999976
0.513349711895 -0.024983808398 -0.537842094898 0.006883 -0.000983 -0.999976
0.464681029320 -0.183619350195 -0.538045346737 0.006883 -0.000983 -0.999976
0.602113187313 -0.208057671785 -0.537211358547 0.006883 -0.000983 -0.999976
0.719437301159 -0.384595036507 -0.536553919315 0.006883 0.000983 -0.999976
0.736462652683 -0.414558261633 -0.536473929882 0.006883 0.000983 -0.999976
0.723044514656 -0.358937323093 -0.536504149437 0.006883 0.000983 -0.999976
0.367215782404 -0.387551248074 -0.538847208023 0.006883 0.000983 -0.999976
0.656320393085 -0.392484217882 -0.536972463131 0.006883 0.000983 -0.999976
0.644744098186 -0.699498355389 -0.537362456322 0.006883 0.000983 -0.999976
0.558520138264 -0.372029125690 -0.537587404251 0.006883 0.000983 -0.999976
0.645258784294 -0.683109581470 -0.537342309952 0.006883 0.000983 -0.999976
0.737389147282 -0.529112219810 -0.536585330963 0.006883 0.000983 -0.999976
0.769065082073 -0.385945945978 -0.536232650280 0.006883 0.000983 -0.999976
0.512868165970 -0.460403740406 -0.537974834442 0.006883 0.000983 -0.999976
0.675738394260 -0.498350143433 -0.536954760551 0.006883 0.000983 -0.999976
0.294087558985 -0.354482173920 -0.539288818836 0.006883 0.000983 -0.999976
0.724370419979 -0.506212294102 -0.536646544933 0.006883 0.000983 -0.999976
0.699334144592 -0.396711140871 -0.536697089672 0.006883 0.000983 -0.999976
0.416146367788 -0.358314156532 -0.538499116898 0.006883 0.000983 -0.999976
0.559454321861 -0.514756739140 -0.537727653980 0.006883 0.000983 -0.999976
0.737690687180 -0.396746069193 -0.536447703838 0.006883 0.000983 -0.999976
0.672075808048 -0.462087959051 -0.536941349506 0.006883 0.000983 -0.999976
0.635753571987 -0.337596207857 -0.537049889565 0.006883 0.000983 -0.999976
0.561177313328 -0.651844978333 -0.537581503391 -0.008972 -0.012960 -0.999876
0.124766774476 -0.182030051947 -0.540207862854 -0.008972 -0.012960 -0.999876
0.582247018814 -0.806782424450 -0.536978662014 -0.000983 -0.004916 -0.999987
0.188462555408 -0.314034104347 -0.539526581764 -0.000983 -0.004916 -0.999987
0.387030899525 -0.629637062550 -0.537856936455 -0.000983 -0.004916 -0.999987
0.535571515560 -0.675306260586 -0.537699520588 -0.000983 -0.004916 -0.999987
0.462123006582 -0.616770267487 -0.537983477116 -0.000983 -0.004916 -0.999987
0.061172425747 -0.126471638680 -0.540512263775 -0.000983 -0.004916 -0.999987
0.112935602665 -0.243212163448 -0.539879441261 -0.000983 -0.004916 -0.999987
0.673966467381 -0.893249154091 -0.536547422409 -0.000983 -0.004916 -0.999987
0.090390324593 -0.176204562187 -0.540247738361 -0.000983 -0.004916 -0.999987
0.531621873379 -0.846190214157 -0.536717236042 -0.000983 -0.004916 -0.999987
0.397708326578 -0.697385847569 -0.537476122379 -0.000983 -0.004916 -0.999987
0.476669967175 -0.727673530579 -0.537357985973 -0.000983 -0.004916 -0.999987
0.632602155209 -0.903151750565 -0.531913578510 -0.045425 -0.998283 0.036973
0.594682693481 -0.901577651501 -0.514378845692 -0.044148 -0.998982 -0.009240
0.496291846037 -0.910958468914 -0.495624005795 0.999999 0.000978 0.000978
0.496291875839 -1.158855676651 -0.509858250618 0.999999 0.000978 0.000978
0.690346598625 -0.905905663967 -0.483621537685 -0.043309 -0.998212 -0.041196
0.814718663692 -0.911141991615 -0.510129988194 -0.041842 -0.999111 0.005103
0.642787635326 -0.905149936676 -0.454141646624 -0.043572 -0.997905 -0.047823
0.496291846037 -0.923891127110 -0.443644404411 0.999999 0.000978 0.000978
0.496291846037 -0.971263408661 -0.402288049459 0.999999 0.000978 0.000978
0.496291846037 -0.927031278610 -0.401266247034 0.999999 0.000978 0.000978
0.505681991577 -0.905654072762 -0.385488480330 -0.043580 -0.993394 -0.106156
0.712303459644 -0.909201860428 -0.436793744564 -0.043828 -0.992311 -0.115751
0.641225755215 -0.912458240986 -0.373890489340 -0.040679 -0.994996 -0.091254
0.555002510548 -0.914613068104 -0.338883340359 -0.040712 -0.985228 -0.166337
0.496291846037 -1.046567320824 -0.399374097586 0.999999 0.000978 0.000978
0.496291875839 -1.122373700142 -0.434297740459 0.999999 0.000978 0.000978
0.496291846037 -1.057034730911 -0.325513601303 0.999999 0.000978 0.000978
0.687053978443 -0.931848227978 -0.269013375044 -0.038596 -0.959910 -0.277639
0.625267565250 -0.924414038658 -0.297570437193 -0.038243 -0.986200 -0.161083
0.759415626526 -0.932462811470 -0.280899196863 -0.038243 -0.986200 -0.161083
0.728607654572 -0.942306935787 -0.240045279264 -0.041836 -0.952075 -0.302991
0.535818994045 -0.950329840183 -0.194784909487 -0.040275 -0.934120 -0.354680
0.496291846037 -0.983391702175 -0.260642081499 0.999999 0.000978 0.000978
0.659675717354 -0.963219344616 -0.182410642505 -0.045409 -0.868277 -0.493996
0.710911393166 -0.960903227329 -0.191341623664 -0.046875 -0.906687 -0.419192
0.528440177441 -0.987362444401 -0.141023829579 -0.043986 -0.764796 -0.642769
0.653273344040 -0.988312423229 -0.148506194353 -0.043986 -0.764796 -0.642769
0.496291846037 -1.126426935196 -0.307193398476 0.999999 0.000978 -0.000978
0.496291846037 -1.131878495216 -0.297960191965 0.999999 0.000978 -0.000978
0.496291875839 -1.081745147705 -0.077582001686 0.999999 0.000978 0.000978
0.496291875839 -1.078809618950 -0.157557412982 0.999999 0.000978 0.000978
0.633536458015 -1.059022545815 -0.077475205064 -0.046625 -0.600477 -0.798281
0.823811054230 -1.041908621788 -0.101699352264 -0.052243 -0.577502 -0.814716
0.565179347992 -1.100838661194 -0.052289150655 -0.047123 -0.304391 -0.951381
0.786804020405 -1.133828520775 -0.054719354957 -0.053751 -0.261256 -0.963772
0.503006339073 -1.154166102409 -0.037597995251 -0.043225 -0.036899 -0.998384
0.623235166073 -1.226086854935 -0.040160074830 -0.043137 -0.034720 -0.998466
0.831347823143 -1.161971926689 -0.051504172385 -0.043137 -0.034720 -0.998466
0.759720206261 -1.235441803932 -0.045925434679 -0.044238 0.011317 -0.998957
0.840314745903 -1.287015914917 -0.048533517867 -0.038073 -0.015435 -0.999156
0.764816582203 -1.312738895416 -0.045848678797 -0.038305 0.021741 -0.999030
0.742268502712 -1.327038288116 -0.045379243791 -0.040785 0.030327 -0.998708
0.753584206104 -1.341905474663 -0.046297874302 -0.040785 0.030327 -0.998708
0.645723700523 -1.401479244232 -0.045025538653 -0.039962 0.068043 -0.996882
0.749264538288 -1.422573685646 -0.051045008004 -0.042635 0.079803 -0.995898
0.788254201412 -1.435826182365 -0.054098654538 -0.042075 0.317477 -0.947332
0.741036593914 -1.475923061371 -0.064991258085 -0.041803 0.305291 -0.951341
0.775381624699 -1.495006084442 -0.076237991452 -0.058287 0.592821 -0.803222
0.822324216366 -1.518952608109 -0.091962441802 -0.025749 0.494660 -0.868705
0.637002527714 -1.553055047989 -0.108138427138 -0.070919 0.730897 -0.678793
0.635510921478 -1.576500654221 -0.132522523403 -0.018055 0.612494 -0.790269
0.816711604595 -1.587824344635 -0.152326211333 -0.044059 0.714896 -0.697841
0.528522193432 -1.609499454498 -0.156489297748 -0.049498 0.793384 -0.606705
0.802301108837 -1.609967470169 -0.177848011255 -0.046831 0.776260 -0.628671
0.740083694458 -1.619953632355 -0.187051996589 -0.040038 0.854605 -0.517733
0.582553029060 -1.642765164375 -0.212328583002 -0.036324 0.891946 -0.450681
0.608309209347 -1.657632946968 -0.247102037072 -0.033001 0.914778 -0.402608
0.828366279602 -1.645680069923 -0.237970203161 -0.030492 0.908118 -0.417602
0.846222996712 -1.678735256195 -0.323204249144 -0.026256 0.953951 -0.298813
0.552916646004 -1.684552073479 -0.316070079803 -0.025977 0.958686 -0.283276
0.586049079895 -1.694175243378 -0.360689699650 -0.024688 0.979274 -0.201028
0.634774029255 -1.699451804161 -0.410337954760 -0.022261 0.997519 -0.066784
0.666402399540 -1.699679613113 -0.424421846867 -0.022220 0.997802 -0.062429
0.542674660683 -1.702690601349 -0.429971098900 -0.021869 0.998662 -0.046861
0.642610311508 -1.702881932259 -0.487080961466 -0.017354 0.999411 -0.029605
0.562813937664 -1.704358220100 -0.491673558950 -0.017354 0.999411 -0.029605
0.714509487152 -1.702298402786 -0.515175402164 -0.019590 0.999080 0.038149
0.355598390102 -1.802202463150 -0.520313382149 0.000978 0.000978 -0.999999
0.660398483276 -1.704289793968 -0.519874989986 0.000978 0.000978 -0.999999
0.569868147373 -1.744038343430 -0.520008027554 0.000978 0.000978 -0.999999
0.216895103455 -1.857102274895 -0.520796120167 0.000978 0.000978 -0.999999
0.373245000839 -1.829676270485 -0.520775616169 0.000978 -0.000978 -0.999999
0.280795931816 -1.862768769264 -0.520787358284 0.000978 -0.000978 -0.999999
0.457495301962 -1.845618963242 -0.520763635635 0.000978 -0.000978 -0.999999
0.658403396606 -1.833900094032 -0.520736336708 0.000978 -0.000978 -0.999999
0.659180045128 -1.873966336250 -0.520734429359 0.000978 -0.000978 -0.999999
0.306116193533 -1.906222462654 -0.520611584187 0.000999 -0.020974 -0.999780
0.392830342054 -1.928982257843 -0.519677877426 0.001016 -0.039643 -0.999213
0.284078896046 -1.946821212769 -0.518950164318 -0.001032 -0.058843 -0.998267
0.322893530130 -1.995906710625 -0.516824901104 0.007033 -0.023109 -0.999708
0.213660389185 -1.986162185669 -0.517741799355 0.003038 -0.033416 -0.999437
