0.824234843254 0.790967166424 -0.016753844917 0.995026 -0.001071 0.099610
0.830301046371 0.569996595383 -0.080485016108 0.995026 -0.001071 0.099610
0.825648486614 0.808321475983 -0.030447933823 0.995026 -0.001071 0.099610
0.831413447857 0.671452105045 -0.089783534408 0.995026 -0.001071 0.099610
0.824411928654 0.534003734589 -0.026312960312 0.994010 -0.003245 0.109244
0.825145244598 0.268620759249 -0.041372083127 0.994010 -0.003245 0.109244
0.832504391670 0.278270304203 -0.107672646642 0.994010 -0.003245 0.109244
0.822884380817 0.844993472099 -0.002618277911 0.994010 -0.003245 0.109244
0.821119189262 0.851428270340 0.010318476707 0.980742 -0.005776 0.195224
0.816117942333 0.613981127739 0.027969919145 0.980742 -0.005776 0.195224
0.818933665752 0.883345961571 0.022344777361 0.980742 -0.005776 0.195224
0.836544096470 1.030073165894 -0.139792874455 0.999987 -0.000981 0.004907
0.836471021175 0.722528278828 -0.176586076617 0.999995 -0.000979 0.002938
0.836541712284 0.540381789207 -0.200105518103 0.999995 -0.000979 0.002938
0.836620807648 0.453408211470 -0.235308125615 0.999889 0.000991 -0.014865
0.836649358273 0.604182779789 -0.229865565896 0.999889 0.000991 -0.014865
0.836337864399 0.680045068264 -0.250446945429 0.999889 0.000991 -0.014865
0.779980719090 0.710780084133 0.120529383421 0.688264 -0.029557 0.724858
0.775584101677 0.379803657532 0.115171574056 0.788925 -0.018025 0.614225
0.792137742043 0.734892606735 0.108140870929 0.848510 -0.020495 0.528782
0.793492019176 0.868268132210 0.111285954714 0.853205 -0.020412 0.521176
0.804301202297 0.402953684330 0.075051873922 0.849273 -0.020448 0.527558
0.812149405479 0.280387401581 0.034491978586 0.978430 -0.008163 0.206415
0.809090554714 0.451798558235 0.055820718408 0.978430 -0.008163 0.206415
0.808814048767 1.166752338409 0.035001732409 -0.001022 0.998844 0.048051
0.819811820984 0.905476033688 -0.049165334553 -0.001018 0.999040 -0.043791
0.831509172916 1.131817221642 -0.082005061209 0.995476 -0.003201 0.094960
0.836248934269 0.856471776962 -0.253723621368 0.999917 0.000989 -0.012857
0.835734665394 0.572746276855 -0.296494513750 0.999917 0.000989 -0.012857
0.835123240948 0.755859255791 -0.338824778795 0.999917 0.000989 -0.012857
0.835398018360 0.465872883797 -0.323122441769 0.999917 0.000989 -0.012857
0.834729969501 0.642421066761 -0.345141440630 0.992979 0.001085 -0.118289
0.830063879490 0.364149272442 -0.388846486807 0.992979 0.001085 -0.118289
0.830557107925 0.433672010899 -0.383620262146 0.992979 0.001085 -0.118289
0.813479542732 0.326346933842 -0.511600017548 0.984851 0.001133 -0.173397
0.805357515812 0.489497840405 -0.557283759117 0.984851 0.001133 -0.173397
0.816435575485 0.605374991894 -0.493021011353 0.985368 0.001129 -0.170436
0.808274805546 0.645720481873 -0.539959907532 0.985368 0.001129 -0.170436
0.818393766880 0.445148706436 -0.482889562845 0.985368 0.001129 -0.170436
0.829518735409 0.756100952625 -0.388696670532 0.993508 0.001083 -0.113760
0.820626795292 0.506150364876 -0.468163251877 0.993508 0.001083 -0.113760
0.826702833176 0.684601366520 -0.413804203272 0.993508 0.001083 -0.113760
0.832561135292 0.813251197338 -0.361505776644 0.993508 0.001083 -0.113760
0.835905790329 0.932038724422 -0.277512848377 0.999917 0.000989 -0.012857
0.836156010628 1.002727270126 -0.257586747408 0.999917 0.000989 -0.012857
0.835599720478 1.028203964233 -0.298695236444 0.999917 0.000989 -0.012857
0.825400412083 0.870625317097 -0.423367857933 0.993536 0.001081 -0.113516
0.814549922943 0.801295876503 -0.502668559551 0.985745 0.001129 -0.168243
0.811696529388 0.763210117817 -0.519564270973 0.985368 0.001129 -0.170436
0.792841613293 0.696002602577 -0.587563514709 -0.000978 0.000978 -0.999999
0.773413836956 0.471563398838 -0.587699532509 -0.000978 0.000978 -0.999999
0.776800155640 0.853726565838 -0.566727578640 -0.001367 0.799835 -0.600218
0.828590512276 0.229178220034 -0.073801793158 0.994010 -0.003245 0.109244
0.743332028389 0.856792569160 0.135649695992 0.001003 -0.027071 0.999633
0.801752567291 0.973869383335 -0.035320259631 0.997312 -0.046162 0.056897
0.808684468269 0.942721486092 -0.015525288880 0.702730 0.021040 -0.711146
0.814060211182 1.021147251129 -0.068533912301 0.562168 -0.825728 0.046263
0.821745872498 1.006312847137 0.008033781312 0.001005 -0.029133 0.999575
0.838229656219 0.986157834530 -0.027467226610 0.960546 -0.030985 0.276389
0.837002038956 0.946161150932 -0.028522625566 0.888310 -0.108399 0.446267
0.825365960598 0.933091402054 -0.027699874714 -0.893792 0.293952 -0.338716
-0.796104073524 -0.797611534595 -0.377377957106 0.001087 -0.992690 -0.120688
-0.802827656269 -0.809369862080 -0.204347342253 0.000989 -0.999917 -0.012857
-0.823151707649 -0.483668655157 -0.381659716368 -0.997096 -0.020219 -0.073425
-0.816733419895 -0.610296666622 -0.434478759766 -0.997096 -0.020219 -0.073425
-0.813905835152 -0.757829904556 -0.432065248489 -0.997096 -0.020219 -0.073425
-0.818279981613 -0.373166114092 -0.474378913641 -0.996925 -0.020258 -0.075702
-0.824337244034 -0.282285451889 -0.418363213539 -0.996925 -0.020258 -0.075702
-0.825987696648 -0.337261855602 -0.383097559214 -0.996925 -0.020258 -0.075702
-0.816909730434 -0.322347074747 -0.493388414383 -0.989948 -0.019059 -0.140140
-0.808547854424 -0.380318015814 -0.545183062553 -0.989948 -0.019059 -0.140140
-0.809914648533 -0.652855336666 -0.499238759279 -0.989948 -0.019059 -0.140140
-0.808822512627 -0.655332505703 -0.508350491524 -0.995105 -0.011859 -0.098109
-0.808098793030 -0.596678495407 -0.522254586220 -0.995105 -0.011859 -0.098109
-0.802177488804 -0.546712338924 -0.586082398891 -0.995128 -0.009703 -0.098111
-0.786326944828 -0.135627046227 -0.587833702564 0.000978 0.000978 -0.999999
-0.777722060680 -0.512514233589 -0.587833642960 0.000978 -0.000978 -0.999999
-0.808082401752 -0.128204345703 -0.557591140270 -0.990935 0.009965 -0.133970
-0.806538045406 -0.018301907927 -0.561761856079 -0.987489 0.001118 -0.157685
-0.819780528545 -0.155968561769 -0.479649633169 -0.987489 0.001118 -0.157685
-0.820284426212 -0.041688643396 -0.474945485592 -0.995047 0.001069 -0.099398
-0.826178848743 -0.049892976880 -0.415381848812 -0.995047 0.001069 -0.099398
-0.829944849014 -0.166291892529 -0.362141638994 -0.997110 -0.011631 -0.075074
-0.826198697090 -0.165087997913 -0.411686390638 -0.997110 -0.011631 -0.075074
-0.829777657986 -0.230539664626 -0.347119808197 -0.999826 -0.011031 -0.015043
-0.832704961300 -0.079979307950 -0.273591995239 -0.999826 -0.011031 -0.015043
-0.832430839539 -0.107220135629 -0.270358532667 -0.999826 -0.011031 -0.015043
-0.831073939800 -0.196641385555 -0.289335548878 -0.999826 -0.011031 -0.015043
-0.827346861362 -0.406964033842 -0.292698532343 -0.999626 -0.021269 -0.017217
-0.828193008900 -0.349467098713 -0.316415667534 -0.999626 -0.021269 -0.017217
-0.829025149345 -0.321924507618 -0.301736027002 -0.999626 -0.021269 -0.017217
-0.820678710938 -0.728158593178 -0.274962246418 -0.999658 -0.021269 -0.015192
-0.819068253040 -0.773359179497 -0.315319210291 -0.999658 -0.021269 -0.015192
-0.819287717342 -0.718545854092 -0.183158233762 -0.996802 -0.024626 0.076018
-0.820400416851 -0.710762202740 -0.205942854285 -0.999643 -0.023248 0.013140
-0.823928058147 -0.587698698044 -0.261430382729 -0.999643 -0.023248 0.013140
-0.828439414501 -0.378498494625 -0.246698707342 -0.999643 -0.023248 0.013140
-0.831330895424 -0.160129100084 -0.187655836344 -0.999831 -0.013011 0.013011
-0.830204129219 -0.273349940777 -0.212219461799 -0.999831 -0.013011 0.013011
-0.832603454590 -0.117923878133 -0.244164109230 -0.999831 -0.013011 0.013011
-0.833507359028 -0.002643957734 -0.200427249074 -0.999831 -0.013011 0.013011
-0.834673047066 0.048949636519 -0.240112870932 -0.999831 -0.013011 0.013011
-0.834273219109 0.066196464002 -0.285079032183 -0.999826 -0.011031 -0.015043
-0.833413004875 0.048493314534 -0.327706962824 -0.999826 -0.011031 -0.015043
-0.827260911465 0.047429058701 -0.409423947334 -0.994915 -0.009701 -0.100246
-0.821073293686 0.064485691488 -0.467639595270 -0.993508 0.001083 -0.113760
-0.816121339798 0.119933255017 -0.498442947865 -0.985302 0.001131 -0.170816
-0.817910969257 0.017048507929 -0.489568978548 -0.987621 0.010135 -0.156533
-0.792541980743 0.182221204042 -0.587833702564 0.000978 0.000978 -0.999999
-0.828381121159 0.184446156025 -0.403544306755 -0.993347 -0.009835 -0.114743
-0.835248708725 0.204322934151 -0.329715371132 -0.999826 -0.011031 -0.015043
-0.834230184555 0.210773199797 -0.355379998684 -0.993095 -0.009833 -0.116899
-0.804534375668 0.245482519269 -0.498637944460 -0.001120 0.987081 0.160219
-0.823817014694 0.227258801460 -0.344533413649 -0.001059 0.996132 0.087863
-0.799377202988 0.226313769817 -0.015367994085 -0.001044 0.997400 -0.072063
-0.833251059055 0.058979183435 -0.154629886150 -0.998254 -0.013589 0.057491
-0.830165386200 -0.220398351550 -0.171696022153 -0.997518 -0.015834 0.068612
-0.822835385799 -0.460390776396 -0.147515237331 -0.996247 -0.024772 0.082931
-0.810135245323 -0.729760229588 -0.108313150704 -0.989247 -0.026063 0.143911
-0.815707266331 -0.550950288773 -0.113532245159 -0.989247 -0.026063 0.143911
-0.812193691730 -0.601306319237 -0.098677262664 -0.989247 -0.026063 0.143911
-0.799097597599 -0.706126570702 -0.033584732562 -0.983095 -0.029155 0.180759
-0.804494202137 -0.458664357662 -0.025111639872 -0.987348 -0.026253 0.156378
-0.803184688091 -0.485334485769 -0.021213309839 -0.987348 -0.026253 0.156378
-0.801551997662 -0.192395195365 0.033925134689 -0.987615 -0.019320 0.155700
-0.813620567322 -0.132851839066 -0.027056526393 -0.981576 -0.029318 0.188810
-0.807063698769 0.098318710923 0.040058873594 -0.982089 -0.022082 0.187120
-0.813468158245 0.076392799616 0.004825942218 -0.977628 -0.032073 0.207880
-0.778023064137 -0.738945722580 0.027503211051 -0.888043 -0.050473 0.456981
-0.795580625534 -0.197867304087 0.049767650664 -0.836263 -0.040352 0.546841
-0.794849634171 0.141729131341 0.076487481594 -0.844574 -0.040218 0.533926
-0.778798758984 0.070851951838 0.093633249402 -0.792231 -0.043777 0.608648
-0.778970479965 -0.273007601500 0.067413493991 -0.800766 -0.052440 0.596677
-0.766935586929 -0.505617201328 0.064734183252 -0.866799 -0.039711 0.497074
-0.737028956413 -0.171652793884 0.094018310308 0.001032 -0.058843 0.998267
-0.762799143791 -0.169826135039 0.094126805663 0.001032 -0.058843 0.998267
-0.765643596649 0.184960559011 0.115195803344 0.001032 -0.058843 0.998267
-0.732752561569 -0.428331285715 0.078775487840 0.001032 -0.058843 0.998267
-0.802241444588 0.049945231527 -0.022094722837 -0.001022 0.048051 -0.998844
-0.819711446762 0.020866775885 -0.035562872887 -0.675341 0.023869 -0.737119
-0.810749471188 0.046969782561 -0.101366095245 -0.513331 -0.037158 0.857386
-0.816007912159 0.013823953457 -0.039213810116 -0.673988 0.021018 -0.738444
-0.811479687691 0.107312113047 -0.073031820357 -0.572967 -0.817921 0.052088
-0.828178703785 -0.038701705635 -0.114788495004 -0.991311 -0.018914 0.130172
-0.819055676460 -0.184613496065 -0.071175143123 -0.987982 -0.028554 0.151909
-0.815206766129 -0.212040200830 -0.051404338330 -0.987982 -0.028554 0.151909
-0.813281416893 -0.381233692169 -0.068595029414 -0.988152 -0.026154 0.151236
-0.807379603386 -0.524564862251 -0.054077550769 -0.988152 -0.026154 0.151236
-0.814844489098 -0.513364434242 -0.100697912276 -0.988152 -0.026154 0.151236
-0.833828687668 0.256063401699 -0.358757436275 -0.992979 0.001085 -0.118289
-0.826574981213 0.265021115541 -0.419964998960 -0.992979 0.001085 -0.118289
-0.798083782196 0.250221818686 -0.518090665340 0.001118 -0.987489 -0.157685
-0.803047180176 0.772957265377 -0.587375521660 -0.996331 -0.001057 0.085581
-0.786807000637 0.297816276550 -0.587804794312 -0.000978 0.000978 -0.999999
-0.782842874527 0.634056091309 -0.587601065636 -0.000978 0.000978 -0.999999
-0.809679508209 0.762268960476 -0.531468451023 -0.985368 0.001129 -0.170436
-0.819020509720 0.726023375988 -0.477334976196 -0.985368 0.001129 -0.170436
-0.810675859451 0.631463229656 -0.526337862015 -0.985368 0.001129 -0.170436
-0.812356173992 0.613856554031 -0.516740143299 -0.985368 0.001129 -0.170436
-0.807546854019 0.485092431307 -0.545055508614 -0.984851 0.001133 -0.173397
-0.809664309025 0.496635347605 -0.533066809177 -0.984851 0.001133 -0.173397
-0.821990609169 0.515258431435 -0.456425666809 -0.993536 0.001081 -0.113516
-0.828247368336 0.629057407379 -0.401005238295 -0.993536 0.001081 -0.113516
-0.820884644985 0.438970148563 -0.466633379459 -0.993536 0.001081 -0.113516
-0.830403029919 0.857956171036 -0.379905432463 -0.993508 0.001083 -0.113760
-0.823887526989 0.792595505714 -0.437567740679 -0.993536 0.001081 -0.113516
-0.829211533070 0.922395348549 -0.389694511890 -0.993508 0.001083 -0.113760
-0.829145073891 0.974483251572 -0.389705449343 -0.993804 -0.001079 -0.111142
-0.823379337788 1.113834619522 -0.157647475600 -0.001307 0.897798 -0.440405
-0.805451691151 1.164087891579 0.089411348104 -0.001022 0.998844 0.048051
-0.836385190487 1.020164370537 -0.243092060089 -0.999917 0.000989 -0.012857
-0.835169553757 0.830100476742 -0.336763292551 -0.999917 0.000989 -0.012857
-0.836624205112 0.978256344795 -0.226120278239 -0.999917 0.000989 -0.012857
-0.835465073586 0.635508000851 -0.317635804415 -0.999917 0.000989 -0.012857
-0.835440874100 0.594155788422 -0.320009201765 -0.999917 0.000989 -0.012857
-0.835143744946 0.550551414490 -0.342615932226 -0.999917 0.000989 -0.012857
-0.834272861481 0.406908512115 -0.352770328522 -0.992979 0.001085 -0.118289
-0.831240057945 0.658107101917 -0.374700784683 -0.992979 0.001085 -0.118289
-0.834734261036 0.671601712704 -0.344922006130 -0.992979 0.001085 -0.118289
-0.836620867252 0.456209093332 -0.237023547292 -0.999889 0.000991 -0.014865
-0.836225450039 0.413933783770 -0.266189783812 -0.999889 0.000991 -0.014865
-0.835892856121 0.549862682819 -0.287178158760 -0.999889 0.000991 -0.014865
-0.836091578007 0.405824601650 -0.275936603546 -0.999889 0.000991 -0.014865
-0.836677730083 0.719380319118 -0.226826757193 -0.999995 -0.000979 0.002938
-0.836603939533 0.467386722565 -0.212063670158 -0.999995 -0.000979 0.002938
-0.836530447006 0.699537754059 -0.185069113970 -0.999995 -0.000979 0.002938
-0.836582243443 1.010613799095 -0.145583838224 -0.999987 -0.000981 0.004907
-0.836671590805 0.963727295399 -0.211049377918 -0.999999 -0.000978 0.000978
-0.836683750153 1.032707810402 -0.219229385257 -0.999999 -0.000978 0.000978
-0.835691809654 1.127118468285 -0.124359771609 -0.995277 -0.001067 0.097074
-0.813888669014 1.147321820259 0.058837372810 -0.980742 -0.005776 0.195224
-0.834831833839 0.923097193241 -0.122470110655 -0.996315 -0.001059 0.085761
-0.834285616875 0.798813819885 -0.120429068804 -0.996111 -0.003182 0.088048
-0.836273610592 0.608587324619 -0.163846105337 -0.999917 -0.000991 0.012883
-0.835914134979 0.357946306467 -0.165489912033 -0.999917 -0.000991 0.012883
-0.833432018757 0.598521471024 -0.113920047879 -0.998513 -0.001028 0.054502
-0.824578225613 0.482674777508 -0.029214814305 -0.994010 -0.003245 0.109244
-0.823952496052 0.663146615028 -0.017781306058 -0.994010 -0.003245 0.109244
-0.827141463757 0.595067083836 -0.048821240664 -0.994010 -0.003245 0.109244
-0.830591201782 0.745969295502 -0.080072909594 -0.995026 -0.001071 0.099610
-0.830018699169 0.621959328651 -0.076528199017 -0.995026 -0.001071 0.099610
-0.823472261429 0.893872082233 -0.007118036970 -0.995026 -0.001071 0.099610
-0.811553418636 1.082077264786 -0.049615591764 0.001036 -0.997999 0.063217
-0.830016136169 1.080441594124 -0.075072497129 0.001036 -0.997999 0.063217
-0.812938332558 1.041723370552 0.059165965766 -0.980100 -0.008119 0.198340
-0.811921894550 0.927325308323 0.059422720224 -0.980726 -0.008086 0.195221
-0.811552345753 0.701599478722 0.053917713463 -0.980742 -0.005776 0.195224
-0.813186109066 0.731152594090 0.046629320830 -0.980742 -0.005776 0.195224
-0.814348161221 0.596773147583 0.036484804004 -0.980742 -0.005776 0.195224
-0.820564925671 0.292286217213 -0.004772273824 -0.978430 -0.008163 0.206415
-0.806921899319 0.689925074577 0.075748734176 -0.978430 -0.008163 0.206415
-0.782493770123 0.237819448113 0.040400996804 0.001135 -0.983996 0.178186
-0.811780512333 1.118334412575 0.068283081055 -0.980191 -0.008101 0.197890
-0.803400933743 0.723964273930 0.089373588562 -0.853205 -0.020412 0.521176
-0.790522158146 0.722383499146 0.110286816955 -0.848510 -0.020495 0.528782
-0.796104788780 0.252915769815 0.082263357937 -0.848510 -0.020495 0.528782
-0.771910727024 0.793059051037 0.132048964500 -0.788925 -0.018025 0.614225
-0.781774401665 0.550573945045 0.112611457705 -0.688264 -0.029557 0.724858
-0.760025441647 1.113471508026 0.142395377159 0.001003 -0.027071 0.999633
-0.785313904285 0.952784657478 0.124489232898 -0.649930 -0.029478 0.759422
-0.759965121746 0.655925869942 0.130364269018 0.001003 -0.027071 0.999633
-0.745803296566 0.999940931797 0.139404356480 0.001003 -0.027071 0.999633
-0.749182999134 0.524826109409 0.126914277673 0.001003 -0.027071 0.999633
-0.801758289337 0.960294127464 -0.040808670223 -0.995043 -0.022837 0.096786
-0.805398821831 0.972697496414 -0.068609841168 -0.542351 -0.040226 0.839188
-0.831029474735 1.052531838417 -0.069111198187 -0.993635 -0.038944 0.105706
-0.807116329670 0.938560903072 -0.018020521849 -0.607653 0.794201 -0.001372
-0.800136148930 0.946110188961 -0.023889038712 -0.702730 0.021040 -0.711146
-0.826237380505 0.966092646122 -0.082400493324 -0.542351 -0.040226 0.839188
-0.827446758747 0.967283606529 -0.095262050629 -0.021782 0.042527 -0.998858
-0.830925703049 0.997355222702 -0.004001997411 -0.888310 -0.108399 0.446267
-0.834436357021 0.988262653351 -0.013943082653 -0.960546 -0.030985 0.276389
0.841193318367 0.004766047001 -0.310864716768 0.999826 -0.011031 -0.015043
0.839890718460 -0.127368509769 -0.293347656727 0.999826 -0.011031 -0.015043
0.829687416553 -0.637265741825 -0.339515417814 0.999626 -0.021269 -0.017217
0.830832362175 -0.611621022224 -0.301972538233 0.999658 -0.021269 -0.015192
0.826487779617 -0.445476353168 -0.343381673098 -0.000997 0.020933 -0.999780
0.832439839840 0.122837543488 -0.331723809242 -0.000997 0.020933 -0.999780
0.837816715240 0.095663376153 -0.332281261683 -0.000997 0.020933 -0.999780
0.834128320217 0.530946671963 -0.272768974304 0.000997 -0.020933 0.999780
0.844001650810 0.865412831306 -0.276182681322 0.999917 0.000989 -0.012857
0.843454539776 0.700834631920 -0.319737762213 0.999917 0.000989 -0.012857
0.843880772591 0.263843208551 -0.296856701374 0.999889 0.000991 -0.014865
0.843485176563 0.241248190403 -0.325534522533 0.999889 0.000991 -0.014865
0.835242509842 1.007359027863 -0.281323313713 -0.001270 0.928213 -0.372047
-0.831163823605 -0.583996236324 -0.318600177765 -0.999658 -0.021269 -0.015192
-0.837248802185 -0.316743731499 -0.298501700163 -0.999626 -0.021269 -0.017217
-0.840648055077 -0.069261685014 -0.289790123701 -0.999826 -0.011031 -0.015043
-0.841437160969 0.028789572418 -0.314614951611 -0.999826 -0.011031 -0.015043
-0.837079823017 0.572605311871 -0.271913975477 0.000997 -0.020933 0.999780
-0.838579654694 0.587774157524 -0.322186082602 -0.000997 0.020933 -0.999780
-0.844050824642 0.536937117577 -0.281065016985 -0.999889 0.000991 -0.014865
-0.843601882458 0.345558345318 -0.316713809967 -0.999889 0.000991 -0.014865
-0.843523979187 0.777106702328 -0.315734982491 -0.999917 0.000989 -0.012857
0.829105734825 0.065754443407 -0.038410436362 0.971032 -0.088959 0.221771
0.749744892120 1.760037779808 -0.004769865423 0.001044 -0.997400 -0.072063
0.731009006500 1.814172506332 -0.018315302208 0.909825 0.398656 0.115291
0.667823612690 1.869510293007 -0.094216562808 0.283603 0.958847 0.013505
0.724964737892 1.825293421745 -0.016134932637 0.617887 0.779331 0.104204
0.671135485172 1.865375995636 -0.044978015125 0.303703 0.947921 0.095975
-0.043233521283 1.967661619186 -0.198506236076 0.283482 -0.938947 0.194980
-0.064160615206 1.962597131729 -0.157199054956 -0.960982 0.008526 0.276480
0.617733299732 1.856588244438 0.108098320663 0.236891 0.946193 0.220459
0.588978469372 1.863233447075 0.110431633890 0.236891 0.946193 0.220459
0.604517877102 1.886651039124 -0.076033562422 0.240830 0.967101 0.081958
0.624903142452 1.890605211258 -0.257560163736 0.991465 0.001096 -0.130369
0.593769371510 1.890280246735 -0.330809921026 0.778585 0.001373 -0.627537
-0.522474527359 1.887296795845 -0.347056478262 0.000978 0.000978 -0.999999
-0.228799134493 1.950794100761 -0.347056478262 0.000978 0.000978 -0.999999
0.409371525049 1.939055442810 -0.302358329296 0.183835 0.946411 -0.265540
0.117969617248 1.975880146027 -0.294095039368 0.056565 0.978451 -0.198579
0.068224355578 1.980381727219 -0.282919794321 0.024597 0.980374 -0.195606
-0.292110919952 1.958025336266 -0.307038426399 -0.136191 0.963714 -0.229579
-0.399363249540 1.945184350014 -0.285446673632 -0.176664 0.957704 -0.227139
-0.393342018127 1.947990298271 -0.274813055992 -0.179316 0.979528 -0.091488
-0.287887692451 1.964676737785 -0.279331117868 -0.131320 0.988966 -0.068565
-0.071153901517 1.981136322021 -0.273316442966 -0.024048 0.998502 -0.049141
-0.020526293665 1.983355164528 -0.251790463924 -0.024000 0.998609 -0.046957
0.524766981602 1.922198295593 -0.278566777706 0.203908 0.975050 -0.087742
-0.608681201935 1.870111584663 -0.307903259993 -0.899646 -0.044377 -0.434358
-0.625150382519 1.882691860199 -0.256170183420 -0.991465 -0.001096 -0.130369
-0.630218565464 1.873217582703 -0.125162929296 -0.999889 -0.000991 -0.014865
-0.620441257954 1.855618715286 0.100017413497 -0.997066 -0.001048 0.076536
-0.605741083622 1.885010123253 -0.174083203077 -0.242742 0.969759 -0.025361
-0.575232744217 1.893878579140 -0.127294525504 -0.243372 0.969926 -0.003562
-0.498542100191 1.910372138023 -0.087552204728 -0.205483 0.978655 -0.003483
-0.268650889397 1.944159746170 -0.011955540627 -0.128992 0.988939 0.073212
-0.146529316902 1.951665282249 0.015782486647 -0.055989 0.995718 0.073554
-0.125453025103 1.959507703781 -0.075532563031 -0.055989 0.995718 0.073554
-0.057110045105 1.962225079536 -0.073818460107 -0.022393 0.997038 0.073578
0.000590453448 1.958810210228 -0.009093705565 0.022393 0.997038 0.073578
0.016169354320 1.955989360809 0.024560004473 0.022393 0.997038 0.073578
0.097106121480 1.954039573669 0.020861025900 0.055989 0.995718 0.073554
0.154747039080 1.953137516975 -0.010611988604 0.055989 0.995718 0.073554
0.309091657400 1.943161725998 -0.070265352726 0.128992 0.988939 0.073212
0.325549900532 1.936175584793 -0.003923773766 0.128992 0.988939 0.073212
0.445788055658 1.916714668274 -0.027996156365 0.180534 0.980213 0.081180
0.492769777775 1.909367561340 -0.050153829157 0.205866 0.975089 0.082593
0.508246719837 1.901183009148 0.008896840736 0.205866 0.975089 0.082593
0.498734295368 1.895043492317 0.059799399227 0.200132 0.954994 0.218937
0.398790091276 1.902285695076 0.114978075027 0.184696 0.958029 0.219244
0.352489352226 1.915096044540 0.097642585635 0.177239 0.962341 0.206122
0.177718847990 1.936443805695 0.090334698558 0.054442 0.976335 0.209301
0.138086885214 1.945829749107 0.056723423302 0.054442 0.976335 0.209301
-0.062102843076 1.952867507935 0.039838075638 -0.022460 0.977608 0.209234
-0.140789121389 1.940283894539 0.081965163350 -0.054442 0.976335 0.209301
-0.273061007261 1.929542660713 0.083446487784 -0.125879 0.970155 0.207255
-0.246363848448 1.940926671028 0.046427845955 -0.125879 0.970155 0.207255
-0.425134897232 1.921687126160 -0.042645096779 -0.173897 0.982218 0.070758
-0.427045494318 1.918015837669 -0.001797888428 -0.180534 0.980213 0.081180
-0.525551259518 1.880213975906 0.099777236581 -0.200132 0.954994 0.218937
-0.413976222277 1.910009264946 0.068224728107 -0.184696 0.958029 0.219244
-0.357678234577 1.919291734695 0.073552645743 -0.177239 0.962341 0.206122
-0.565512478352 1.868173122406 0.114414691925 -0.236891 0.946193 0.220459
-0.330087065697 1.896034598351 0.116116799414 -0.003026 0.029251 0.999568
0.204864814878 1.907611966133 0.116194635630 0.001007 0.029192 0.999573
0.335126668215 1.905213832855 0.115828715265 0.005053 0.029310 0.999558
-0.223534718156 1.958654999733 -0.216600418091 -0.049923 0.899956 0.433112
-0.248195901513 1.964503407478 -0.234169542789 -0.117013 0.895220 0.429988
-0.437790453434 1.932051301003 -0.228474810719 -0.157200 0.889841 0.428335
0.098723426461 1.959316134453 -0.169461488724 0.046672 0.998789 -0.015557
0.235739648342 1.953154325485 -0.129466891289 0.128817 0.991334 -0.025763
0.425436615944 1.923565864563 -0.146425381303 0.175046 0.984199 -0.026663
0.414190858603 1.924716353416 -0.178266957402 0.175046 0.984199 -0.026663
0.479466587305 1.914363026619 -0.095279827714 0.205483 0.978655 -0.003483
0.427443116903 1.923726797104 -0.104242086411 0.173784 0.984778 -0.003408
0.190009608865 1.956040382385 -0.095876701176 0.054502 0.998513 0.001028
0.154880613089 1.957787871361 -0.109743259847 0.046957 0.998609 -0.024000
-0.136470586061 1.958520770073 -0.115772113204 -0.046957 0.998609 -0.024000
-0.135590106249 1.957722425461 -0.160535216331 -0.046672 0.998789 -0.015557
-0.339510768652 1.938787221909 -0.149655163288 -0.175046 0.984199 -0.026663
-0.297596603632 1.943718075752 -0.181575879455 -0.128817 0.991334 -0.025763
-0.277530491352 1.947682857513 -0.130973875523 -0.128817 0.991334 -0.025763
-0.521005809307 1.904445290565 -0.167735278606 -0.206947 0.977974 -0.027199
-0.072579540312 1.948567748070 -0.225485682487 -0.001358 0.566240 0.824239
-0.201817706227 1.967768430710 -0.323465824127 -0.062870 0.918979 -0.389262
0.051561415195 1.977917075157 -0.317671775818 0.024675 0.923371 -0.383115
0.442375034094 1.930692195892 -0.323232024908 0.160351 0.958132 -0.237214
0.537896931171 1.908270955086 -0.337141275406 0.238465 0.938522 -0.249622
0.380293071270 1.930739521980 -0.347056478262 0.000978 0.000978 -0.999999
-0.121675066650 1.974301338196 -0.536963760853 0.021226 -0.999660 0.015162
-0.031609382480 1.976278901100 -0.527180552483 0.019206 -0.999701 0.015162
-0.013178113848 1.976673364639 -0.525706946850 0.019206 -0.999701 0.015162
-0.182781860232 1.974985361099 -0.441811621189 -0.015102 -0.999772 0.015102
-0.013387395069 1.977984666824 -0.442210197449 0.019206 -0.999701 0.015162
0.260638505220 1.983091950417 -0.455458253622 -0.999354 0.035582 0.005083
0.085146427155 1.975721716881 -0.490027993917 -0.019206 -0.999701 0.015162
0.153076425195 1.974162459373 -0.504722058773 -0.019206 -0.999701 0.015162
0.239338696003 1.975586533546 -0.457321017981 0.015102 -0.999772 0.015102
-0.055290058255 1.985527992249 -0.439654171467 -0.021269 0.999658 -0.015192
0.233302935958 1.984552860260 -0.479658842087 -0.025370 0.999562 -0.015222
0.171271637082 1.983566045761 -0.443177133799 -0.025370 0.999562 -0.015222
-0.119595780969 1.983548045158 -0.492929965258 -0.017115 0.999739 -0.015102
-0.199014276266 1.983723163605 -0.477912098169 0.025370 0.999562 -0.015222
0.693877398968 1.914829969406 -0.374236941338 0.634007 0.772387 -0.038125
0.742035210133 1.813390970230 -0.523632764816 0.851833 0.449707 -0.268596
0.694592714310 1.897861957550 -0.498702019453 0.781116 0.612146 -0.123022
0.763597428799 1.771117091179 -0.304620981216 0.956285 0.264392 0.124962
0.806930601597 1.665096759796 -0.329291701317 0.861102 0.475755 0.179334
0.785376191139 1.667843103409 -0.245506078005 0.984821 0.167455 0.045669
0.416281461716 1.950125098228 -0.586202681065 0.129612 0.846120 -0.516993
-0.732096791267 1.773341178894 -0.591665685177 -0.805494 0.342933 -0.483297
-0.727849543095 1.759780049324 -0.602821946144 -0.714192 0.199850 -0.670813
-0.812945127487 1.548941969872 -0.293549656868 0.001296 -0.418483 -0.908224
-0.820251345634 1.494094967842 -0.243415430188 0.001331 -0.493986 0.869469
-0.808765411377 1.516241908073 -0.230824023485 0.001331 -0.493986 0.869469
-0.623486876488 1.884992599487 -0.275020688772 0.910894 0.304603 0.278369
-0.547192156315 1.959959149361 -0.359737724066 -0.161711 0.769262 0.618130
0.082023561001 2.018461465836 -0.362566560507 0.015774 0.997949 0.062043
0.355710566044 1.992192506790 -0.361924439669 0.117738 0.991053 0.062870
-0.517953395844 1.959721088409 -0.358991324902 -0.042820 0.238569 0.970181
-0.328181535006 1.940523862839 -0.345956325531 -0.030649 0.261126 0.964818
-0.235701903701 1.949589729309 -0.345279216766 -0.033234 0.264638 0.963775
-0.226463794708 1.977239012718 -0.352601200342 -0.020722 0.264505 0.964162
-0.073902644217 1.976543068886 -0.349668711424 -0.003600 0.258034 0.966129
-0.100264757872 1.965044975281 -0.346912354231 -0.018179 0.258148 0.965934
-0.156346648932 1.947097420692 -0.345041424036 0.000978 0.000978 0.999999
0.062338635325 1.970452070236 -0.347993761301 0.003600 0.258034 0.966129
0.050765141845 1.989641308784 -0.353059381247 0.003600 0.258034 0.966129
0.173229455948 1.964046597481 -0.347951889038 0.018179 0.258148 0.965934
0.135645568371 1.998455166817 -0.356491744518 0.020722 0.264505 0.964162
0.260603308678 1.964663863182 -0.350256353617 0.033234 0.264638 0.963775
0.309319198132 1.976963281631 -0.355193555355 0.030649 0.261126 0.964818
0.436263382435 1.977433681488 -0.359941214323 0.032206 0.211131 0.976927
0.509152293205 1.941805005074 -0.354192644358 0.042820 0.238569 0.970181
0.368467211723 1.955912947655 -0.351480871439 0.045826 0.258856 0.964828
0.630076646805 1.870317935944 -0.211924508214 -0.999999 -0.000978 0.000978
0.524505496025 1.966539502144 -0.407556831837 0.180786 0.983522 0.001137
0.323232620955 1.974325180054 -0.567036867142 0.096756 0.827479 -0.553097
-0.411662995815 1.960935592651 -0.569618046284 -0.129612 0.846120 -0.516993
-0.645589172840 1.903891921043 -0.579605340958 -0.384585 0.770792 -0.507911
-0.819130539894 1.630758523941 -0.342038124800 -0.981448 -0.003444 -0.191698
-0.642830550671 1.930240511894 -0.278266191483 -0.328198 0.943408 -0.047621
0.017638102174 2.020680665970 -0.381705015898 0.015774 0.997949 0.062043
0.195741996169 2.010930776596 -0.381084799767 0.078748 0.994888 0.063220
0.464816063643 1.977225661278 -0.411281615496 0.150135 0.988665 0.001112
0.404376506805 1.986374974251 -0.453577518463 0.150518 0.983784 -0.097536
0.525788903236 1.948980331421 -0.551532328129 0.175324 0.954244 -0.242241
0.542741715908 1.948519110680 -0.540075242519 0.202888 0.949078 -0.241014
0.429034590721 1.962105751038 -0.563350200653 0.129612 0.846120 -0.516993
-0.277563840151 1.968969464302 -0.524187088013 -0.001042 0.997558 -0.069839
0.102895930409 1.968461036682 -0.531530380249 -0.001042 0.997558 -0.069839
0.434619128704 1.965320110321 -0.548345506191 0.146373 0.958677 -0.243955
0.380269646645 1.989326477051 -0.460845887661 0.150518 0.983784 -0.097536
0.271970719099 1.973423242569 -0.460602641106 -0.001042 0.997558 -0.069839
-0.051532205194 1.974032640457 -0.451824247837 -0.001042 0.997558 -0.069839
0.064563885331 1.974662899971 -0.442833542824 -0.001042 0.997558 -0.069839
0.119405955076 1.974075675011 -0.451241552830 -0.001042 0.997558 -0.069839
0.235215291381 1.975140571594 -0.436035633087 -0.001042 0.997558 -0.069839
0.311540216208 1.992088437080 -0.404303997755 0.000997 0.020933 -0.999780
-0.294544607401 2.000729084015 -0.383365303278 -0.118289 0.992979 0.001085
0.271404057741 2.003476381302 -0.397778928280 0.118289 0.992979 0.001085
0.131961792707 1.992324709892 -0.404431909323 0.000987 0.010858 -0.999941
-0.435749828815 1.981659293175 -0.419390618801 -0.150135 0.988665 0.001112
-0.468875974417 1.972136497498 -0.497521966696 -0.150518 0.983784 -0.097536
-0.419803112745 1.969646215439 -0.540219604969 -0.146373 0.958677 -0.243955
-0.765071868896 1.759787440300 -0.547939419746 -0.835989 0.477487 -0.270422
-0.652061522007 1.918757677078 -0.535386323929 -0.435362 0.872220 -0.222917
-0.638497114182 1.932248950005 -0.507087349892 -0.300526 0.924367 -0.235009
-0.514775693417 1.948725581169 -0.560473918915 -0.175324 0.954244 -0.242241
-0.513640820980 1.968457818031 -0.453588217497 -0.180527 0.978774 -0.097018
-0.612566828728 1.942855000496 -0.491083770990 -0.306927 0.947127 -0.093527
-0.689112126827 1.912528753281 -0.460875123739 -0.787628 0.605075 -0.116304
-0.740810930729 1.834113359451 -0.465243399143 -0.885697 0.457448 -0.079254
-0.753668606281 1.809857964516 -0.450609564781 -0.901929 0.428653 -0.052736
-0.771243214607 1.768421649933 -0.371778070927 -0.920189 0.389866 0.035442
-0.701497375965 1.909387469292 -0.358661532402 -0.634007 0.772387 -0.038125
-0.753281354904 1.808106064796 -0.236208215356 -0.905004 0.319327 0.281066
-0.375742226839 1.990817308426 -0.391075581312 -0.150135 0.988665 0.001112
-0.626153767109 1.942272186279 -0.399971723557 -0.308835 0.951115 0.001230
0.006921960041 1.965011954308 -0.580836057663 -0.001042 0.997558 -0.069839
0.094832569361 1.965419173241 -0.575030326843 -0.001042 0.997558 -0.069839
0.600765764713 1.930664181709 -0.340787589550 -0.597580 0.282058 0.750561
0.788077414036 1.564320802689 -0.209222763777 0.001219 -0.291258 0.956644
0.812097311020 1.528695821762 -0.223755627871 0.001331 -0.493986 0.869469
0.810291588306 1.486133337021 -0.269013136625 0.001217 -0.288352 -0.957524
0.803289055824 1.606696724892 -0.331999063492 0.001380 -0.680398 -0.732842
0.775934934616 1.711427211761 -0.483557194471 0.001199 -0.964929 -0.262509
0.814776360989 1.614385128021 -0.288578957319 0.870814 0.359651 0.335164
0.173728868365 1.942606806755 0.168937206268 0.005755 -0.189911 0.981784
0.173307940364 1.949924826622 0.142528384924 0.041410 0.190484 -0.980816
0.337853550911 1.927580356598 0.155781328678 0.135169 0.892114 0.431117
0.133636012673 1.931515455246 0.148531377316 -0.034132 -0.949387 -0.312248
0.290052443743 1.915512442589 0.153805211186 -0.046257 -0.271288 0.961386
0.334500372410 1.903921842575 0.149413883686 0.003032 0.033348 -0.999439
-0.025911848992 1.962531208992 -0.021180499345 -0.686470 0.337528 -0.644075
0.108376137912 0.015749275684 -0.340172141790 0.986131 -0.014820 0.165305
0.095965035260 0.136619180441 -0.325060546398 0.001061 -0.090153 0.995927
0.091577477753 0.185671955347 -0.320648461580 0.001061 -0.090153 0.995927
0.098411627114 0.255123525858 -0.314968585968 0.001044 -0.072063 0.997400
0.104715839028 0.373065590858 -0.306372106075 0.001044 -0.072063 0.997400
0.013312824070 0.432085752487 -0.302070200443 0.001044 -0.072063 0.997400
0.004577480257 0.254891663790 -0.314985424280 0.001044 -0.072063 0.997400
0.043825030327 0.506972908974 -0.296630114317 0.001022 -0.048051 0.998844
0.083817742765 0.740190804005 -0.302837848663 0.988844 0.104150 0.106491
0.094900242984 0.654356122017 -0.315758556128 0.979069 0.106875 0.173210
0.109694510698 0.263046085835 -0.326204359531 0.985409 -0.012531 0.169741
0.112822763622 0.039474260062 -0.401526272297 0.999999 0.000978 0.000978
0.112823858857 -0.042824581265 -0.395974159241 0.999999 0.000978 0.000978
0.112822368741 0.069636687636 -0.455511033535 0.999999 0.000978 0.000978
0.112821996212 0.097636990249 -0.458434522152 0.999999 0.000978 0.000978
0.112822860479 0.032714307308 -0.619267940521 0.999999 0.000978 0.000978
0.112823352218 -0.004340863787 -0.480833798647 0.999999 0.000978 0.000978
0.112824656069 -0.103012278676 -0.598627030849 0.999999 0.000978 0.000978
0.112821839750 0.109933272004 -0.600099623203 0.999999 0.000978 0.000978
0.112824887037 -0.120109178126 -0.578989386559 0.999999 0.000978 0.000978
0.112825550139 -0.170168310404 -0.585658431053 0.999999 0.000978 -0.000978
0.112825751305 -0.185698404908 -0.545909583569 0.999999 0.000978 -0.000978
0.112825654447 -0.178452372551 -0.456990718842 0.999999 0.000978 -0.000978
0.112826675177 -0.255493223667 -0.491286426783 0.999999 0.000978 0.000978
0.112827107310 -0.288375437260 -0.452883034945 0.999999 0.000978 0.000978
0.087738990784 -0.125460341573 -0.348633408546 0.001061 -0.090153 0.995927
0.019313808531 0.160249471664 -0.322935014963 0.001061 -0.090153 0.995927
-0.015710560605 -0.042940542102 -0.341211020947 0.001061 -0.090153 0.995927
-0.063654333353 0.126783818007 -0.325944989920 0.001061 -0.090153 0.995927
-0.047257769853 0.109476558864 -0.327501714230 0.001061 -0.090153 0.995927
-0.043332252651 0.321542412043 -0.310127377510 0.001044 -0.072063 0.997400
-0.014031071216 0.268385410309 -0.314001858234 0.001044 -0.072063 0.997400
-0.055916912854 0.649090051651 -0.289645880461 0.001022 -0.048051 0.998844
-0.032365605235 0.686785519123 -0.287793397903 0.001022 -0.048051 0.998844
-0.001038846094 0.886954128742 -0.261992454529 0.001160 -0.209925 0.977717
0.029284555465 0.911849915981 -0.256641149521 0.001160 -0.209925 0.977717
0.014205226675 0.798907637596 -0.280918240547 0.001160 -0.209925 0.977717
0.006099108607 0.647793114185 -0.289709657431 0.001022 -0.048051 0.998844
0.079988747835 0.800071001053 -0.471820861101 0.999999 0.000978 0.000978
0.081596441567 0.761912465096 -0.424098491669 0.993011 0.117406 -0.012070
0.099454566836 0.614154160023 -0.387271165848 0.993011 0.117406 -0.012070
0.080655463040 0.763392925262 -0.485057055950 0.993011 0.117406 -0.012070
0.093475535512 0.671782791615 -0.323240667582 0.993011 0.117406 -0.012070
0.095943637192 0.637374341488 -0.528799772263 0.990724 0.135852 0.003313
0.098718248308 0.614482045174 -0.448176622391 0.990724 0.135852 0.003313
0.102968871593 0.585109412670 -0.507507860661 0.990724 0.135852 0.003313
0.112818717957 0.344424605370 -0.378662079573 0.999999 0.000978 -0.000978
0.112817257643 0.455234616995 -0.363643497229 0.999999 0.000978 -0.000978
0.112818464637 0.364303976297 -0.458930134773 0.999999 0.000978 -0.000978
0.112818472087 0.363292157650 -0.466042280197 0.999999 0.000978 -0.000978
0.112816981971 0.476398229599 -0.604731142521 0.999999 0.000978 0.000978
0.112818300724 0.376359224319 -0.494378060102 0.999999 0.000978 0.000978
0.112817719579 0.420264810324 -0.528065323830 0.999999 0.000978 0.000978
0.112819902599 0.255837798119 -0.615628898144 0.999999 0.000978 0.000978
0.112817838788 0.411548167467 -0.597111225128 0.999999 0.000978 0.000978
0.127280443907 0.588769614697 -0.614778399467 0.001003 -0.027071 0.999633
0.153635233641 0.791258513927 -0.539762198925 0.001311 -0.893111 0.449834
0.142773464322 0.813759863377 -0.495245903730 0.001311 -0.893111 0.449834
0.136058241129 0.853905022144 -0.415823727846 0.001311 -0.893111 0.449834
0.273316204548 0.871767282486 -0.380489081144 0.001311 -0.893111 0.449834
0.196312278509 0.784906327724 -0.552330315113 0.001311 -0.893111 0.449834
0.302611827850 0.837989211082 -0.447315394878 0.001311 -0.893111 0.449834
0.233279585838 0.857147872448 -0.409410655499 0.001311 -0.893111 0.449834
0.287360042334 0.874528169632 -0.375027388334 0.001311 -0.893111 0.449834
0.524249494076 0.788470625877 -0.545287370682 0.001311 -0.893111 0.449834
0.428819566965 0.771417617798 -0.579022049904 0.001311 -0.893111 0.449834
0.368435114622 0.793684124947 -0.534969151020 0.001311 -0.893111 0.449834
0.287322640419 0.768968522549 -0.583863556385 0.001311 -0.893111 0.449834
0.325411230326 0.821822047234 -0.479300767183 0.001311 -0.893111 0.449834
0.322158664465 0.776568770409 -0.568828403950 0.001311 -0.893111 0.449834
0.417841732502 0.735761761665 -0.610685288906 0.001003 -0.027071 0.999633
0.388662695885 0.719086587429 -0.611149609089 0.001003 -0.027071 0.999633
0.288302302361 0.595100343227 -0.614602148533 0.001003 -0.027071 0.999633
0.222143843770 0.735813915730 -0.610683739185 0.001003 -0.027071 0.999633
0.266049623489 0.731102049351 -0.610814988613 0.001003 -0.027071 0.999633
0.189642295241 0.566366016865 -0.615402281284 0.001003 -0.027071 0.999633
0.178336322308 0.345807194710 -0.627850055695 0.001038 -0.065416 0.997858
0.192761316895 0.419344067574 -0.623080551624 0.001038 -0.065416 0.997858
0.121574282646 0.176553100348 -0.637313425541 0.694817 -0.047082 0.717644
0.112827546895 -0.320998400450 -0.498110711575 0.999999 0.000978 0.000978
0.112828247249 -0.373924016953 -0.560214102268 0.999999 0.000978 0.000978
0.112829610705 -0.476805090904 -0.589377820492 0.999999 0.000978 0.000978
0.112827539444 -0.321124941111 -0.445146232843 0.999999 0.000978 0.000978
0.111733883619 -0.322532385588 -0.426991492510 0.986174 -0.003381 0.165677
0.062410533428 -0.183723062277 -0.356882393360 0.001257 -0.350710 0.936483
-0.011216435581 -0.165566846728 -0.352240711451 0.001061 -0.090153 0.995927
-0.109271474183 -0.117226012051 -0.357399642467 -0.986131 -0.014820 0.165305
-0.112833984196 -0.150606229901 -0.486297458410 -0.999999 -0.000978 0.000978
-0.112833596766 -0.180265188217 -0.647121310234 -0.999999 -0.000978 -0.000978
-0.112834878266 -0.082846142352 -0.637737452984 -0.999999 -0.000978 -0.000978
-0.112836085260 0.007995329797 -0.510106444359 -0.999999 -0.000978 -0.000978
-0.112834855914 -0.084715865552 -0.427796244621 -0.999999 -0.000978 -0.000978
-0.112836353481 0.028296008706 -0.499875187874 -0.999999 -0.000978 -0.000978
-0.120420373976 0.495550304651 -0.615485906601 -0.694817 -0.047082 0.717644
-0.115652389824 0.687217831612 -0.612036883831 0.001003 -0.027071 0.999633
-0.143218994141 0.817522883415 -0.487793803215 0.001311 -0.893111 0.449834
-0.285745143890 0.847213506699 -0.429050922394 0.001311 -0.893111 0.449834
-0.194766193628 0.902242720127 -0.320185005665 0.001311 -0.893111 0.449834
-0.347492873669 0.863245546818 -0.397331953049 0.001311 -0.893111 0.449834
-0.181007653475 0.814040660858 -0.494681924582 0.001311 -0.893111 0.449834
-0.272753626108 0.804765760899 -0.513028681278 0.001311 -0.893111 0.449834
-0.336787343025 0.790697276592 -0.540859699249 0.001311 -0.893111 0.449834
-0.483492732048 0.819716930389 -0.483444184065 0.001311 -0.893111 0.449834
-0.477478951216 0.876280367374 -0.371540904045 0.001311 -0.893111 0.449834
-0.489841878414 0.825377941132 -0.472244441509 0.001311 -0.893111 0.449834
-0.227057158947 0.770664393902 -0.580495059490 0.001311 -0.893111 0.449834
-0.482137888670 0.848610579967 -0.426281839609 0.001311 -0.893111 0.449834
-0.545843899250 0.819608330727 -0.339748829603 0.885236 -0.462396 0.050468
-0.529874444008 0.849449336529 -0.346003741026 0.885236 -0.462396 0.050468
-0.548285484314 0.827323675156 -0.322534054518 0.591959 -0.648975 0.477928
-0.548332810402 0.875737547874 -0.215055614710 0.929190 -0.348959 0.121794
-0.537681579590 0.894531071186 -0.242590323091 0.929190 -0.348959 0.121794
-0.530618190765 0.949672937393 -0.137464284897 0.929190 -0.348959 0.121794
-0.500424385071 1.061469554901 -0.046333022416 0.929190 -0.348959 0.121794
-0.553009629250 0.881915748119 -0.161247417331 0.929190 -0.348959 0.121794
-0.571809709072 1.043126463890 0.040345538408 0.442483 -0.136039 0.886398
-0.610985755920 1.107817530632 0.069903120399 0.442483 -0.136039 0.886398
-0.552443742752 1.124606251717 0.045339051634 -0.127551 -0.875661 -0.465777
-0.424181580544 1.088807106018 0.111329928041 0.001286 -0.916599 -0.399807
-0.487213313580 1.115482687950 0.050284713507 0.001286 -0.916599 -0.399807
-0.445613622665 1.112650275230 0.056767750531 0.001286 -0.916599 -0.399807
-0.362825393677 1.100224971771 0.085203513503 0.001286 -0.916599 -0.399807
-0.249991744757 1.126412153244 0.025281634182 0.001286 -0.916599 -0.399807
-0.074047543108 1.105686783791 0.072713948786 0.001286 -0.916599 -0.399807
-0.066975213587 1.099912166595 0.085928417742 0.001286 -0.916599 -0.399807
0.182845160365 1.112011313438 0.058248788118 0.001286 -0.916599 -0.399807
0.087683297694 1.125119328499 0.028250146657 0.001286 -0.916599 -0.399807
0.314103811979 1.123164415359 0.032730445266 0.001286 -0.916599 -0.399807
0.475646674633 1.098026394844 0.090260155499 0.001286 -0.916599 -0.399807
0.389360785484 1.106194019318 0.071567028761 0.001286 -0.916599 -0.399807
0.439288914204 1.098412036896 0.089376777411 0.001286 -0.916599 -0.399807
0.592396736145 1.102261900902 0.098490335047 0.127551 -0.875661 -0.465777
0.635205090046 1.097319483757 0.110080905259 -0.113438 0.958356 -0.262081
0.718686759472 1.165702342987 0.124463409185 -0.376167 0.129091 0.917515
0.697170376778 1.232495427132 0.106240607798 -0.376167 0.129091 0.917515
0.732520699501 1.369070768356 0.103796645999 -0.001016 -0.041673 0.999131
0.556939482689 1.339016199112 0.102558419108 -0.001016 -0.041673 0.999131
0.660703003407 1.369185209274 0.103799857199 -0.001016 -0.041673 0.999131
0.594798982143 1.169015645981 0.095575824380 -0.001016 -0.041673 0.999131
0.688273131847 1.650669336319 0.081921026111 0.001061 0.088049 0.996116
0.708121240139 1.402848720551 0.104046449065 0.001061 0.088049 0.996116
0.713787198067 1.594021201134 0.086972288787 0.001061 0.088049 0.996116
0.534411370754 1.400348901749 0.104321725667 0.001061 0.088049 0.996116
0.523525834084 1.451807618141 0.098767235875 -0.034550 0.112567 0.993043
0.627515733242 1.663236975670 0.078529417515 -0.034550 0.112567 0.993043
0.551057040691 1.688160777092 0.072981566191 -0.034550 0.112567 0.993043
0.696511745453 1.676825642586 0.079449750483 -0.034550 0.112567 0.993043
0.521580457687 1.672863364220 0.073663368821 -0.034550 0.112567 0.993043
0.706446111202 1.771299719810 0.075449429452 0.022485 -0.076022 0.996853
0.505499541759 1.797101974487 0.081968024373 0.022485 -0.076022 0.996853
0.724713325500 1.754399538040 0.099566757679 -0.454158 -0.828171 -0.328440
0.548082053661 1.842694520950 0.121549360454 -0.454158 -0.828171 -0.328440
0.521599769592 1.862015247345 0.094200775027 -0.222571 -0.906287 -0.359314
0.354622244835 1.900520324707 0.097107455134 -0.073082 -0.972367 -0.221724
0.186567246914 1.904502034187 0.133878648281 -0.068951 -0.966567 -0.246970
-0.033304508775 1.915756464005 0.132660627365 0.074164 -0.966652 -0.245120
-0.343680977821 1.897351980209 0.112026333809 0.074164 -0.966652 -0.245120
-0.439406454563 1.870913505554 0.128835350275 0.271487 -0.932620 -0.237727
-0.464941322803 1.869760394096 0.109719529748 0.222571 -0.906287 -0.359314
-0.569185197353 1.837223529816 0.106186352670 0.454158 -0.828171 -0.328440
-0.749324142933 1.530107617378 0.119870141149 0.999995 0.002938 0.000979
-0.749404788017 1.571598172188 0.096639350057 0.999995 0.002938 0.000979
-0.666417717934 1.142281532288 0.106251403689 0.376167 0.129091 0.917515
-0.652537524700 1.170389890671 0.096599340439 0.376167 0.129091 0.917515
-0.591956794262 1.173772335052 0.095771811903 0.001016 -0.041673 0.999131
-0.588455915451 1.321223974228 0.101828835905 0.001016 -0.041673 0.999131
-0.688900947571 1.384532809258 0.104431644082 0.001016 -0.041673 0.999131
-0.652179181576 1.306937456131 0.101243346930 0.001016 -0.041673 0.999131
-0.624217331409 1.420876502991 0.102460175753 -0.001061 0.088049 0.996116
-0.718798458576 1.516854763031 0.093860380352 -0.001061 0.088049 0.996116
-0.684134602547 1.523590087891 0.093269340694 -0.001061 0.088049 0.996116
-0.627134323120 1.512726664543 0.094256699085 -0.001061 0.088049 0.996116
-0.693601667881 1.696616053581 0.077100627124 0.034550 0.112567 0.993043
-0.675418913364 1.717216014862 0.074119612575 0.034550 0.112567 0.993043
-0.532671809196 1.624610424042 0.079519748688 0.034550 0.112567 0.993043
-0.653668105602 1.609499812126 0.085543371737 0.034550 0.112567 0.993043
-0.453660011292 1.689519762993 0.074833609164 -0.022485 -0.076022 0.996853
-0.533915162086 1.818318367004 0.082968078554 -0.022485 -0.076022 0.996853
-0.591511785984 1.715533018112 0.073736436665 -0.022485 -0.076022 0.996853
-0.443284332752 1.706779956818 0.076232939959 -0.001041 -0.065552 0.997849
-0.410307824612 1.839213132858 0.084899604321 -0.001041 -0.065552 0.997849
-0.328800380230 1.728134036064 0.077509902418 0.003122 -0.065552 0.997844
-0.253139913082 1.783954024315 0.080995835364 0.003122 -0.065552 0.997844
-0.275642454624 1.723346590996 0.077063679695 0.003122 -0.065552 0.997844
-0.111200675368 1.716692924500 0.076219953597 0.003122 -0.065552 0.997844
-0.205992043018 1.744168639183 0.078261740506 0.003122 -0.065552 0.997844
-0.056014906615 1.752848744392 0.078544758260 -0.001044 -0.072063 0.997400
-0.014734551311 1.735508441925 0.077325351536 -0.001044 -0.072063 0.997400
-0.064340747893 1.842192769051 0.084949925542 -0.001044 -0.072063 0.997400
-0.023501237854 1.778227567673 0.080385066569 -0.001044 -0.072063 0.997400
-0.060072325170 1.911345124245 0.089913949370 -0.001044 -0.072063 0.997400
0.080883748829 1.907346487045 0.089614398777 0.001044 -0.072063 0.997400
0.134570181370 1.880711197853 0.087671160698 0.001044 -0.072063 0.997400
0.013638064265 1.871013283730 0.087047994137 0.001044 -0.072063 0.997400
0.096291333437 1.824036359787 0.083627909422 0.001044 -0.072063 0.997400
