-0.022420620546 -0.088481664658 -0.087632276118 -0.016879 0.000993 0.999857
0.011040499434 0.142240226269 -0.087189018726 -0.016879 0.000993 0.999857
-0.111964464188 -0.467463046312 -0.086390241981 0.000979 0.002938 0.999995
-0.079713985324 0.089738048613 -0.088036663830 0.000979 0.002938 0.999995
0.002269414254 -0.526488482952 0.103698357940 0.051966 0.997959 0.037119
0.030137300491 -0.530864715576 0.184487193823 0.051966 0.997959 0.037119
0.119493871927 -0.534942984581 0.169867843390 0.051966 0.997959 0.037119
-0.050943836570 -0.550797700882 0.267325431108 0.040797 0.792016 0.609135
0.165870457888 -0.648022830486 0.344948291779 0.022232 0.398867 0.916739
0.102238647640 -0.616380870342 0.332224667072 0.014399 0.414943 0.909733
-0.034626547247 -0.735211133957 0.356662720442 -0.003086 -0.050399 0.998724
0.008327947930 -0.790930032730 0.353918731213 -0.001026 -0.050296 0.998734
-0.111690901220 -0.697341680527 0.363069385290 0.484155 -0.036823 0.874207
-0.164862439036 -0.873398065567 0.345357835293 0.007560 -0.102601 0.994694
-0.246946692467 -1.020164012909 0.330831706524 0.007560 -0.102601 0.994694
-0.231950938702 -0.900282025337 0.342387169600 -0.026987 -0.080960 0.996352
-0.294526517391 -0.900857865810 0.340647548437 -0.026987 -0.080960 0.996352
-0.251904010773 -0.868191540241 0.344479590654 -0.026987 -0.080960 0.996352
-0.254686415195 -0.802904844284 0.349759161472 -0.026987 -0.080960 0.996352
-0.428063333035 -0.886054694653 0.338250100613 -0.026987 -0.080960 0.996352
-0.502175211906 -0.804899632931 0.342853754759 -0.038400 -0.091062 0.995105
-0.519006252289 -0.920215427876 0.331725478172 -0.038400 -0.091062 0.995105
-0.597118556499 -0.943147599697 0.326216220856 -0.045276 -0.089447 0.994962
-0.610572874546 -0.450495988131 0.530794799328 0.680330 0.210171 -0.702125
-0.576402783394 -0.514469087124 0.544668436050 0.680330 0.210171 -0.702125
-0.149273872375 -0.403312057257 0.692627787590 -0.035376 -0.734398 -0.677797
-0.356903076172 -0.377300232649 0.671500980854 -0.043264 -0.827603 -0.559644
-0.516306340694 -0.392555028200 0.632872879505 0.566697 -0.724386 0.392581
-0.559137880802 -0.440702676773 0.579393565655 0.505982 0.238381 -0.828949
-0.519948959351 -0.348291367292 0.620796442032 0.307792 -0.028895 -0.951015
-0.268853217363 0.503228008747 0.801679313183 0.557517 -0.713026 0.425169
-0.270034492016 0.473516017199 0.756940007210 0.763181 -0.525602 0.375895
-0.286861896515 0.411283940077 0.782166838646 0.907872 -0.055145 0.415604
-0.285886853933 0.265870451927 0.760429501534 0.907398 -0.055280 0.416621
-0.198385462165 -0.026404010132 0.741043150425 0.062480 0.926571 0.370894
-0.019776323810 -0.044421631843 0.760826647282 0.047888 0.940925 0.335213
0.056164562702 -0.107865080237 0.700413703918 0.019326 0.369766 -0.928924
0.125524014235 -0.087413556874 0.710008621216 0.019326 0.369766 -0.928924
0.371899962425 -0.117898494005 0.704733371735 0.024487 0.362151 -0.931798
0.528135597706 -0.150997966528 0.696039795876 0.024487 0.362151 -0.931798
0.255091339350 -0.125500127673 0.698610424995 0.024487 0.362151 -0.931798
0.445070803165 -0.171282693744 0.685973525047 0.024320 0.352001 -0.935683
0.434543550014 -0.179054483771 0.682776272297 0.024320 0.352001 -0.935683
0.616778969765 -0.272971093655 0.652204215527 0.024320 0.352001 -0.935683
0.586835741997 -0.212916925550 0.674009859562 0.024320 0.352001 -0.935683
0.130767256021 -0.162519469857 0.681255817413 0.016362 0.325986 -0.945233
0.210450068116 -0.239384874701 0.656160354614 0.016362 0.325986 -0.945233
0.185905009508 -0.219279304147 0.662657678127 0.016362 0.325986 -0.945233
0.234483480453 -0.287391483784 0.650820553303 -0.011295 -0.040048 -0.999134
0.342276930809 -0.362180680037 0.652636647224 -0.011295 -0.040048 -0.999134
0.407624453306 -0.322929590940 0.650293886662 -0.011295 -0.040048 -0.999134
0.266244500875 -0.271368205547 0.649806201458 -0.011295 -0.040048 -0.999134
0.614009678364 -0.407151371241 0.620874702930 -0.309558 0.003700 -0.950873
0.656693696976 -0.449156194925 0.590577423573 -0.479199 0.288768 -0.828843
0.667466819286 -0.539663612843 0.546728372574 -0.654398 0.279999 -0.702398
0.672103166580 -0.591325581074 0.521743655205 -0.656222 0.279413 -0.700928
0.734888017178 -0.687414288521 0.405878692865 -0.749070 0.317348 -0.581536
0.573586106300 -0.058566763997 0.711444199085 -0.062392 0.158922 -0.985318
0.593060970306 -0.044934973121 0.712387502193 -0.062392 0.158922 -0.985318
0.424024969339 -0.015919849277 0.728559136391 -0.125190 0.083070 -0.988649
0.329124927521 -0.062095344067 0.724190950394 0.011257 0.321456 -0.946858
0.702516734600 1.005536675453 0.655421435833 -0.847525 -0.275330 -0.453756
0.713991343975 1.073007941246 0.587001979351 -0.824463 -0.365549 -0.432012
0.764434814453 1.101207256317 0.448369443417 -0.845045 -0.385816 -0.370195
0.770465314388 1.156656742096 0.399672687054 -0.894356 -0.174826 -0.411780
0.800620377064 1.222078084946 0.307292610407 -0.934674 -0.135084 -0.328842
0.818738222122 1.177421689034 0.203367084265 -0.949264 -0.313920 -0.018760
0.821721673012 1.166025519371 0.244089573622 -0.949264 -0.313920 -0.018760
0.834094703197 1.158218860626 0.155067443848 -0.887313 -0.435747 -0.151001
0.823136210442 1.179118514061 0.159214958549 -0.887313 -0.435747 -0.151001
0.829799413681 1.161627769470 0.062424294651 -0.826120 -0.378969 0.417024
0.850590586662 1.064731597900 0.011637806892 -0.854278 -0.376751 0.358146
0.878057599068 0.960127115250 -0.032160013914 -0.802268 -0.393899 0.448563
0.790049672127 1.043832421303 -0.115999914706 -0.802268 -0.393899 0.448563
0.790689349174 1.181015491486 0.005450726021 -0.802268 -0.393899 0.448563
0.786875188351 1.113721966743 -0.060379769653 -0.802268 -0.393899 0.448563
0.781815707684 1.174508929253 -0.012751704082 -0.517064 -0.577697 0.631593
0.775789618492 1.160050392151 -0.030827643350 -0.517064 -0.577697 0.631593
0.718061745167 1.288781046867 -0.005626040511 -0.773227 -0.290556 0.563646
0.694514811039 1.183889627457 -0.097734063864 -0.976545 -0.037145 0.212084
0.681811153889 1.250369429588 -0.148949787021 -0.996132 -0.087863 0.001059
0.635080516338 1.266711831093 -0.175278306007 -0.000987 0.010858 0.999941
0.504385828972 1.352586984634 -0.176264688373 -0.000987 0.010858 0.999941
0.304270803928 1.346177816391 -0.176225528121 -0.000987 0.010858 0.999941
0.354109883308 1.397788524628 -0.176797255874 -0.000987 0.010858 0.999941
0.291694879532 1.379565954208 -0.176602751017 -0.000987 0.010858 0.999941
0.638400554657 1.161664843559 -0.174097418785 -0.000987 0.010858 0.999941
0.519575119019 1.380689859390 -0.176577955484 -0.000987 0.010858 0.999941
0.578926503658 1.182673931122 -0.174343258142 -0.000987 0.010858 0.999941
0.557281017303 1.420014977455 -0.176375731826 -0.000995 -0.016913 0.999856
0.266420364380 1.416060686111 -0.176843076944 -0.000995 -0.016913 0.999856
0.597791075706 1.497621655464 -0.174953907728 -0.000995 -0.016913 0.999856
0.472641199827 1.494245648384 -0.175184473395 -0.000995 -0.016913 0.999856
0.659879744053 1.569444775581 -0.173604413867 -0.000995 -0.016913 0.999856
0.548247218132 1.412650108337 -0.176517754793 -0.000995 -0.016913 0.999856
0.243120312691 1.603296875954 -0.173476934433 -0.000995 -0.018902 0.999821
0.240391373634 1.480450034142 -0.175722807646 -0.000995 -0.018902 0.999821
0.236682713032 1.580236792564 -0.173905432224 -0.000995 -0.018902 0.999821
0.207881629467 1.483722448349 -0.175701022148 -0.000995 -0.018902 0.999821
0.682482004166 1.589353919029 -0.173218414187 -0.000995 -0.018902 0.999821
0.304535210133 1.550196766853 -0.174374610186 -0.000995 -0.018902 0.999821
0.670755088329 1.631707072258 -0.172377780080 -0.000997 -0.020933 0.999780
0.346772879362 1.611763000488 -0.173187419772 -0.000997 -0.020933 0.999780
0.258687794209 1.680964589119 -0.173117026687 -0.002938 0.000979 0.999995
0.475931614637 1.662417173386 -0.172465860844 -0.002938 0.000979 0.999995
0.386364042759 1.666801691055 -0.172733843327 -0.002938 0.000979 0.999995
0.499689757824 1.745574474335 -0.171540290117 -0.002979 -0.014894 0.999885
0.182640910149 1.865798830986 -0.171032667160 -0.002979 -0.014894 0.999885
0.254112929106 1.889590501785 -0.170436933637 -0.002979 -0.014894 0.999885
0.167221754789 1.857090234756 -0.171211093664 -0.002979 -0.014894 0.999885
0.228083014488 1.947341680527 -0.169727146626 -0.002979 -0.014894 0.999885
0.726652622223 1.693313956261 -0.171431988478 -0.002979 -0.014894 0.999885
0.192050457001 1.744372725487 -0.172692298889 -0.002979 -0.014894 0.999885
0.175453811884 1.869338750839 -0.171009793878 -0.002979 -0.014894 0.999885
0.295838236809 1.747368812561 -0.172267496586 -0.002979 -0.014894 0.999885
0.165267705917 1.747135758400 -0.172752574086 -0.002979 -0.014894 0.999885
0.549517393112 1.759866356850 -0.171156987548 -0.002979 -0.014894 0.999885
0.633360385895 1.969384670258 -0.173083454370 0.011009 0.013011 0.999855
0.559888303280 1.896057128906 -0.171310245991 0.011009 0.013011 0.999855
0.636757671833 1.927750706673 -0.172601729631 0.011009 0.013011 0.999855
0.575946271420 1.920867800713 -0.171807780862 0.011009 0.013011 0.999855
0.338932007551 1.981251716614 -0.169805273414 0.011009 0.013011 0.999855
0.616129517555 1.822398662567 -0.171042591333 0.011009 0.013011 0.999855
0.791741728783 1.780012845993 -0.172555804253 0.011009 0.013011 0.999855
0.806523025036 1.764551877975 -0.172534272075 0.011009 0.013011 0.999855
0.508164286613 1.998852849007 -0.171995282173 0.011009 0.013011 0.999855
0.534043669701 1.950380325317 -0.171689599752 0.011009 0.013011 0.999855
0.666096508503 1.948059558868 -0.173197463155 0.011009 0.013011 0.999855
0.803819179535 1.811594605446 -0.156479656696 -0.995675 -0.091494 0.016146
0.797609508038 1.899214863777 -0.093506410718 -0.994184 -0.098643 0.043225
0.810427188873 1.759256958961 -0.124231562018 -0.990305 -0.112088 0.082044
0.807481765747 1.873244524002 0.007331494242 -0.993813 -0.095236 0.057141
0.804077863693 1.721705079079 0.279652416706 -0.999488 -0.019358 -0.025471
0.810619294643 1.708200097084 0.040202796459 -0.999488 -0.019358 -0.025471
0.810613274574 1.780460953712 -0.010776972398 -0.999488 -0.019358 -0.025471
0.807066440582 1.819940686226 0.096266165376 -0.999488 -0.019358 -0.025471
0.809747338295 1.788477182388 0.016508594155 -0.999488 -0.019358 -0.025471
0.810313880444 1.683941364288 0.069022141397 -0.999488 -0.019358 -0.025471
0.807706952095 1.717652440071 0.144371911883 -0.999488 -0.019358 -0.025471
0.808990597725 1.692384600639 0.113412402570 -0.999488 -0.019358 -0.025471
0.807025372982 1.627293229103 0.028593212366 -0.996124 0.081294 -0.033602
0.811130285263 1.663855791092 -0.005177818239 -0.996124 0.081294 -0.033602
0.755409717560 1.617826461792 -0.164899349213 -0.574832 0.746472 0.335184
0.725271105766 1.558280348778 -0.101707205176 -0.667229 0.644164 0.373977
0.703592121601 1.517034053802 -0.146412208676 -0.964141 0.238139 0.117139
0.711419403553 1.512209057808 -0.077128104866 -0.963404 0.166014 0.210459
0.703906714916 1.416893601418 -0.037383317947 -0.971072 0.015566 0.238278
0.743425846100 1.356779575348 0.032815597951 -0.788696 0.012431 0.614658
0.765168786049 1.297414898872 0.057232879102 -0.771158 -0.041034 0.635321
0.790584027767 1.313691496849 0.097342133522 -0.998426 0.053208 -0.017736
0.797069132328 1.470417737961 0.189978629351 -0.998824 0.046577 -0.013456
0.798923730850 1.490275502205 0.126093804836 -0.998824 0.046577 -0.013456
0.756012260914 1.423950076103 0.039057560265 -0.718565 0.240570 0.652526
0.744375288486 1.497411608696 -0.011719740927 -0.748674 0.349164 0.563535
0.788020968437 1.544380664825 0.008119726554 -0.685075 0.484075 0.544375
0.800329148769 1.518553733826 0.111189201474 -0.999075 0.040128 -0.015434
0.799130022526 1.564679622650 0.285814970732 -0.999276 0.033822 -0.017423
0.803369522095 1.636725187302 0.179023370147 -0.999276 0.033822 -0.017423
0.798422276974 1.547342658043 0.292843341827 -0.999276 0.033822 -0.017423
0.798871457577 1.575347185135 0.322947204113 -0.999276 0.033822 -0.017423
0.811101377010 1.629799962044 0.340817570686 -0.066925 -0.022308 0.997509
0.808102428913 1.771710515022 0.319811314344 -0.995407 0.086700 0.040606
0.806126296520 1.763810396194 0.313870608807 -0.974214 0.132332 0.182744
0.808874189854 1.867987036705 0.241814136505 -0.991762 0.090577 0.090577
0.496911495924 2.084046602249 -0.188155755401 0.023188 0.259947 0.965344
0.477331221104 2.042496919632 -0.176454216242 0.023188 0.259947 0.965344
0.484977900982 2.051000118256 -0.178939580917 0.023188 0.259947 0.965344
0.531482458115 2.115864276886 -0.197604224086 0.023188 0.259947 0.965344
0.663886547089 2.091999292374 -0.194462493062 0.023188 0.259947 0.965344
0.557623744011 2.163183212280 -0.209192648530 0.039320 0.203749 0.978233
0.254346668720 2.093968153000 -0.182934284210 0.037077 0.209303 0.977148
0.338434576988 2.145312786102 -0.197106406093 0.037077 0.209303 0.977148
0.396432816982 2.121147632599 -0.194097787142 0.037077 0.209303 0.977148
0.273545414209 2.131244659424 -0.191938623786 0.017897 0.232659 0.972394
0.240158870816 2.103944540024 -0.184786453843 0.017897 0.232659 0.972394
0.072031252086 2.219433069229 -0.210628435016 0.005908 0.232788 0.972510
0.110328711569 2.112288475037 -0.185182034969 0.005908 0.232788 0.972510
-0.095164604485 2.221855640411 -0.211845323443 -0.015284 0.212795 0.976977
-0.086633846164 2.170372724533 -0.200528770685 -0.015284 0.212795 0.976977
-0.171459510922 2.177011251450 -0.203354120255 -0.017611 0.207812 0.978010
0.146087393165 2.049980163574 -0.170797124505 0.003607 0.260877 0.965365
-0.323629617691 2.201068639755 -0.210340335965 0.003607 0.260877 0.965365
-0.321508347988 2.076059579849 -0.176467373967 0.003607 0.260877 0.965365
-0.322145760059 2.187594652176 -0.206693157554 0.003607 0.260877 0.965365
-0.425392121077 2.147365808487 -0.199854642153 -0.077499 0.327074 0.941815
-0.469800651073 1.955526590347 0.267819344997 0.949654 0.052545 0.308862
-0.478472501040 1.918874859810 0.323249012232 0.995473 -0.022797 0.092274
-0.472185641527 1.803755044937 0.396419584751 0.945814 -0.090767 -0.311764
-0.416133046150 1.747371077538 0.573685705662 0.949354 -0.026406 -0.313098
-0.404848486185 1.676946878433 0.626608550549 0.968235 -0.032966 -0.247858
-0.377032279968 1.674035906792 0.703029274940 0.909843 -0.130378 -0.393938
-0.758207619190 -0.788238108158 -0.412433415651 0.999395 0.033550 0.009150
-0.758270263672 -0.796137094498 -0.342951834202 0.999298 0.037461 -0.001012
-0.758676350117 -0.787909746170 -0.015938043594 0.999371 0.035439 0.001013
-0.756192624569 -0.851478815079 -0.313425242901 0.999371 0.035439 0.001013
-0.752976834774 -0.891002893448 -0.316492229700 0.856218 0.498612 -0.135192
-0.755724072456 -0.908299267292 0.030290156603 0.998586 -0.052666 0.007229
-0.753263890743 -0.855926573277 0.076815888286 0.998586 -0.052666 0.007229
-0.754027903080 -0.918397128582 -0.302220284939 0.998586 -0.052666 0.007229
-0.752277851105 -0.880467712879 -0.263796269894 0.998586 -0.052666 0.007229
-0.752704977989 -0.849065959454 0.047642409801 0.998586 -0.052666 0.007229
-0.750893831253 -0.817012906075 0.030587747693 0.998586 -0.052666 0.007229
-0.739539146423 -0.822966814041 0.258614659309 0.916090 -0.035589 -0.399389
-0.624517083168 -0.635484993458 0.477270066738 0.612795 -0.562151 0.555399
-0.650698065758 -0.530851244926 0.464810073376 0.777849 0.238499 -0.581438
-0.724057912827 -0.771796405315 0.258876085281 0.811218 0.233322 -0.536177
-0.463532567024 -0.860072255135 -0.445433050394 -0.000978 -0.000978 0.999999
-0.537643432617 -0.821051180363 -0.445470988750 -0.000978 -0.000978 0.999999
-0.588905990124 -0.775545060635 -0.445480555296 -0.000978 -0.000978 0.999999
-0.747660398483 -0.851819097996 -0.445705890656 -0.000978 -0.000978 0.999999
-0.407473444939 -0.843753814697 -0.445363044739 -0.000978 -0.000978 0.999999
-0.704499900341 -0.888030052185 -0.445695936680 -0.000978 -0.000978 0.999999
-0.738574862480 -0.821227490902 -0.445669382811 -0.000978 -0.000978 0.999999
-0.255269080400 -0.760123193264 -0.445250153542 -0.000985 0.006896 0.999976
-0.207437366247 -0.772375345230 -0.445129990578 -0.000985 0.006896 0.999976
-0.323688447475 -0.768320679665 -0.445226043463 -0.000985 0.006896 0.999976
-0.538982868195 -0.093225948513 -0.443842202425 -0.002944 -0.002944 0.999991
-0.422319740057 -0.474837660789 -0.444865465164 -0.002944 -0.002944 0.999991
-0.269287586212 -0.580217897892 -0.444867551327 -0.002944 -0.002944 0.999991
-0.482946574688 -0.223205059767 -0.444152891636 -0.002944 -0.002944 0.999991
-0.482685267925 -0.156006842852 -0.443924367428 -0.002944 -0.002944 0.999991
-0.427808612585 -0.370914399624 -0.444525778294 -0.002944 -0.002944 0.999991
-0.258220404387 -0.584887802601 -0.444857716560 -0.002944 -0.002944 0.999991
-0.322867363691 -0.317392915487 -0.444100677967 -0.002944 -0.002944 0.999991
-0.132810130715 -0.627204835415 -0.444710075855 -0.002944 -0.002944 0.999991
-0.484602898359 -0.030980113894 -0.443504840136 -0.002944 -0.002944 0.999991
-0.302211374044 -0.455325871706 -0.444520443678 -0.002944 -0.002944 0.999991
-0.231677517295 -0.465161263943 -0.444390058517 -0.002944 -0.002944 0.999991
-0.408088713884 -0.480736076832 -0.444852441549 -0.002944 -0.002944 0.999991
-0.542738735676 -0.612172484398 -0.445610761642 -0.002944 -0.002944 0.999991
-0.580692112446 -0.151742219925 -0.444137454033 -0.002944 -0.002944 0.999991
-0.365758478642 -0.539967894554 -0.444955050945 -0.002944 -0.002944 0.999991
-0.606338739395 -0.539237082005 -0.445511072874 -0.002944 -0.002944 0.999991
-0.500981450081 -0.042748745531 -0.443582773209 -0.002944 -0.002944 0.999991
-0.533368289471 -0.631298542023 -0.445653885603 -0.002944 -0.002944 0.999991
-0.282025337219 -0.524473965168 -0.444708079100 -0.002944 -0.002944 0.999991
-0.276057511568 -0.566982686520 -0.444838404655 -0.002944 -0.002944 0.999991
-0.171532079577 -0.586266815662 -0.444661140442 -0.002944 -0.002944 0.999991
-0.377932816744 -0.379872292280 -0.444440364838 -0.002944 -0.002944 0.999991
-0.591211080551 -0.649992704391 -0.445851564407 -0.002944 -0.002944 0.999991
-0.456482172012 -0.573061645031 -0.445277899504 -0.002944 -0.002944 0.999991
-0.571459114552 -0.688206493855 -0.445935308933 -0.002944 -0.002944 0.999991
-0.079889401793 -0.697222650051 -0.444824665785 -0.002944 -0.002944 0.999991
-0.112361460924 -0.543462991714 -0.444273203611 -0.006924 -0.006924 0.999952
-0.039984475821 -0.358234941959 -0.442684531212 -0.006924 -0.006924 0.999952
-0.072134897113 -0.429332733154 -0.443322032690 -0.006924 -0.006924 0.999952
-0.115473300219 -0.308473050594 -0.442859292030 -0.006924 -0.006924 0.999952
-0.011795161292 0.040027394891 -0.440076172352 -0.006924 -0.006924 0.999952
-0.466719508171 0.080227449536 -0.442713648081 -0.006924 -0.006924 0.999952
-0.004165481776 -0.566305518150 -0.443726956844 -0.006924 -0.006924 0.999952
-0.177048102021 -0.318473309278 -0.443310469389 -0.006924 -0.006924 0.999952
-0.144578903913 -0.455808222294 -0.443942576647 -0.006924 -0.006924 0.999952
-0.019773967564 0.002214387059 -0.440357446671 -0.006924 -0.006924 0.999952
-0.075104728341 -0.483260512352 -0.443669825792 -0.006924 -0.006924 0.999952
-0.090398006141 -0.499169498682 -0.443863779306 -0.006924 -0.006924 0.999952
-0.015898041427 -0.346998929977 -0.442463338375 -0.006924 -0.006924 0.999952
-0.164836853743 -0.124138496816 -0.442047506571 -0.006924 -0.006924 0.999952
-0.031341947615 -0.206001564860 -0.441701024771 -0.006924 -0.006924 0.999952
-0.392005950212 0.012558192015 -0.442653030157 -0.006924 -0.006924 0.999952
0.053297739476 -0.061002526432 -0.440280079842 -0.006924 -0.006924 0.999952
-0.319456964731 -0.129835367203 -0.443062007427 -0.006924 -0.006924 0.999952
-0.256178140640 -0.350110232830 -0.444004923105 -0.006924 -0.006924 0.999952
-0.033762004226 -0.164623662829 -0.441463917494 -0.006924 -0.006924 0.999952
-0.416268348694 -0.033908501267 -0.443090260029 -0.006924 -0.006924 0.999952
0.034758791327 -0.511013329029 -0.443142980337 -0.006924 -0.006924 0.999952
-0.273330718279 -0.290900528431 -0.443752348423 -0.006924 -0.006924 0.999952
-0.364658087492 -0.099316217005 -0.443162232637 -0.006924 -0.006924 0.999952
-0.285968959332 -0.287915647030 -0.443814218044 -0.006924 -0.006924 0.999952
0.019885458052 -0.684232354164 -0.444294005632 -0.006924 -0.006924 0.999952
0.030888039619 -0.203119948506 -0.441289097071 -0.006924 -0.006924 0.999952
0.015801308677 -0.466775119305 -0.442993193865 -0.006924 -0.006924 0.999952
-0.451797187328 0.173167467117 -0.440151900053 -0.009151 -0.031519 0.999461
-0.527968406677 0.168891042471 -0.441018015146 -0.009151 -0.031519 0.999461
-0.203420907259 0.120857074857 -0.439482510090 -0.009151 -0.031519 0.999461
-0.258469283581 0.170329809189 -0.438398927450 -0.009151 -0.031519 0.999461
-0.454328805208 0.132997259498 -0.441482514143 -0.009151 -0.031519 0.999461
-0.357966542244 0.161692827940 -0.439629495144 -0.009151 -0.031519 0.999461
-0.429251134396 0.204953402281 -0.438902914524 -0.009151 -0.031519 0.999461
-0.078454121947 0.249658480287 -0.437037646770 -0.000989 -0.012857 0.999917
0.010378714651 0.142350554466 -0.438316911459 -0.000989 -0.012857 0.999917
-0.537594616413 0.308273762465 -0.436610966921 -0.000989 -0.012857 0.999917
-0.074546590447 0.165042251348 -0.438090205193 -0.000989 -0.012857 0.999917
-0.426371663809 0.296008765697 -0.436690211296 -0.000989 -0.012857 0.999917
0.028200738132 0.197313964367 -0.437619686127 -0.000989 -0.012857 0.999917
-0.357974171638 0.261647373438 -0.437073349953 -0.000989 -0.012857 0.999917
-0.279362618923 0.280398011208 -0.436787456274 -0.000989 -0.012857 0.999917
0.030629809946 0.154604077339 -0.438150674105 -0.000989 -0.012857 0.999917
-0.060449320823 0.239617004991 -0.437150925398 -0.000989 -0.012857 0.999917
-0.119941517711 0.444502621889 -0.435737788677 -0.000979 -0.002938 0.999995
-0.260586947203 0.510511517525 -0.435688495636 -0.000979 -0.002938 0.999995
-0.543926477432 0.401051610708 -0.436207950115 -0.000979 -0.002938 0.999995
-0.461157262325 0.422384053469 -0.436083406210 -0.000979 -0.002938 0.999995
-0.147698044777 0.341687738895 -0.436023712158 -0.000979 -0.002938 0.999995
-0.151340574026 0.401753753424 -0.435873508453 -0.000979 -0.002938 0.999995
-0.294011473656 0.466776847839 -0.435828447342 -0.000979 -0.002938 0.999995
-0.197837203741 0.365848183632 -0.436004549265 -0.000979 -0.002938 0.999995
-0.466414064169 0.593680322170 -0.435650676489 -0.000979 -0.002938 0.999995
-0.318180918694 0.354118525982 -0.436136454344 -0.000979 -0.002938 0.999995
-0.488576203585 0.535017251968 -0.435819149017 -0.000979 -0.002938 0.999995
-0.175473645329 0.357788443565 -0.436006158590 -0.000979 -0.002938 0.999995
-0.418069750071 0.558189511299 -0.435700297356 -0.000979 -0.002938 0.999995
-0.282052427530 0.555974543095 -0.435586392879 -0.002961 -0.006910 0.999972
0.029099756852 0.603573203087 -0.434136092663 -0.002961 -0.006910 0.999972
-0.216203048825 0.516687214375 -0.435631304979 -0.002961 -0.006910 0.999972
0.085145406425 0.620280563831 -0.433816909790 -0.002961 -0.006910 0.999972
-0.002269152552 0.487392246723 -0.435076206923 -0.002961 -0.006910 0.999972
0.075519204140 0.582367956638 -0.434121489525 -0.002961 -0.006910 0.999972
0.032842144370 0.376475304365 -0.435741394758 -0.002961 -0.006910 0.999972
0.074946328998 0.479593038559 -0.434856057167 -0.002961 -0.006910 0.999972
-0.119358435273 0.672394633293 -0.434175670147 -0.002961 -0.006910 0.999972
-0.118869513273 0.488007575274 -0.435488164425 -0.002961 -0.006910 0.999972
0.052885375917 0.532478570938 -0.434557914734 -0.002961 -0.006910 0.999972
0.029362646863 0.613715946674 -0.434062868357 -0.002961 -0.006910 0.999972
-0.502206325531 0.801369547844 -0.441603153944 0.001046 0.074296 0.997236
-0.456675708294 0.744328618050 -0.437381774187 0.001046 0.074296 0.997236
-0.205846220255 0.740124583244 -0.437273800373 0.001046 0.074296 0.997236
-0.432346761227 0.788002610207 -0.440662503242 0.001046 0.074296 0.997236
-0.324450254440 0.771454095840 -0.439515531063 0.001046 0.074296 0.997236
-0.414625704288 0.849823415279 -0.445292711258 0.001046 0.074296 0.997236
-0.030720556155 0.828161656857 -0.443654030561 -0.001044 0.072063 0.997400
-0.066474802792 0.840482890606 -0.444544523954 -0.001044 0.072063 0.997400
0.001153669786 0.860453128815 -0.445943981409 -0.001044 0.072063 0.997400
0.024550892413 0.770129978657 -0.439499378204 -0.001044 0.072063 0.997400
-0.185736745596 0.852384269238 -0.445434242487 -0.001044 0.072063 0.997400
0.345002353191 0.783795058727 -0.442271828651 0.007358 0.070423 0.997490
0.325034946203 0.847592175007 -0.446638196707 0.007358 0.070423 0.997490
0.211169585586 0.848378777504 -0.445819407701 0.007358 0.070423 0.997490
0.518240809441 0.800173521042 -0.444762706757 0.007358 0.070423 0.997490
0.164256751537 0.745029807091 -0.438137233257 0.007358 0.070423 0.997490
0.556480169296 0.711933791637 -0.438534319401 0.007371 0.074762 0.997174
0.730791926384 0.812730610371 -0.447225451469 0.007371 0.074762 0.997174
0.744162678719 0.817856550217 -0.447698414326 0.007371 0.074762 0.997174
0.652512788773 0.778677523136 -0.444156140089 0.007371 0.074762 0.997174
0.676160335541 0.713063716888 -0.439440101385 0.007371 0.074762 0.997174
0.633072853088 0.698983490467 -0.438097417355 0.007371 0.074762 0.997174
0.797199666500 0.760902345181 -0.442948758602 -0.020258 0.075702 0.996925
0.798738002777 1.782696247101 0.378276735544 -0.945924 0.044800 -0.321281
0.780504941940 1.798809766769 0.434234619141 -0.945924 0.044800 -0.321281
0.763588964939 1.714604496956 0.471249639988 -0.943859 0.071801 -0.322452
0.792643010616 1.718404293060 0.403472363949 -0.123149 -0.850454 -0.511431
0.865751385689 1.691840171814 0.430006623268 -0.123149 -0.850454 -0.511431
0.790688037872 1.648252367973 0.519931197166 -0.170174 -0.811715 -0.558713
0.729969978333 1.600751042366 0.606662988663 -0.131534 -0.805463 -0.577865
0.681326866150 1.555322289467 0.706452965736 -0.918338 -0.038209 -0.393950
0.669903576374 1.571310162544 0.707344591618 -0.039643 0.003049 -0.999209
0.529356241226 1.609818220139 0.713092207909 -0.039643 0.003049 -0.999209
0.500805497169 1.613977670670 0.714252233505 -0.039643 0.003049 -0.999209
0.148532062769 1.580677032471 0.725351631641 -0.032352 0.038613 -0.998730
0.230602860451 1.591165900230 0.723170161247 -0.032352 0.038613 -0.998730
0.583325445652 1.545345902443 0.710235714912 -0.032352 0.038613 -0.998730
0.357614815235 1.497249007225 0.720202147961 -0.034790 -0.045332 -0.998366
0.151423066854 1.488750457764 0.727966547012 -0.034790 -0.045332 -0.998366
0.539805710316 1.524685382843 0.712428331375 -0.034790 -0.045332 -0.998366
0.638691544533 1.439721465111 0.716973185539 -0.029439 -0.090497 -0.995462
0.496494531631 1.494231939316 0.716175258160 -0.029439 -0.090497 -0.995462
0.695546925068 1.369034290314 0.721537709236 -0.013856 -0.082067 -0.996530
0.665237188339 1.218308925629 0.730996668339 0.039876 -0.067897 -0.996895
0.668432831764 1.156061291695 0.735349059105 0.039876 -0.067897 -0.996895
0.658923804760 1.083393931389 0.739073514938 -0.151926 0.087327 -0.984527
0.719590723515 1.113518357277 0.622897803783 -0.086514 0.935685 0.342064
0.790746569633 1.155618190765 0.534548997879 -0.086631 0.906189 0.413904
0.717589855194 1.150999665260 0.529389202595 -0.086513 0.907704 0.410595
0.883675336838 1.236432433128 0.376107484102 -0.086298 0.908186 0.409574
0.918755352497 1.310474872589 0.341076940298 -0.060687 -0.033005 0.997611
0.854125618935 1.399515509605 0.339670687914 -0.080285 -0.018198 0.996606
0.867190659046 1.583643198013 0.343600302935 -0.079949 -0.013858 0.996703
0.786031901836 1.291283845901 0.310122787952 -0.998575 0.051022 -0.015619
0.787445187569 1.283520817757 0.194274753332 -0.998575 0.051022 -0.015619
0.526932477951 1.271328568459 0.730623483658 -0.028686 -0.062683 -0.997621
0.625439465046 1.400402665138 0.719806015491 -0.028686 -0.062683 -0.997621
0.522837996483 1.430293440819 0.720826745033 -0.028686 -0.062683 -0.997621
0.592456936836 1.357134819031 0.723431050777 -0.028686 -0.062683 -0.997621
0.346308201551 1.363471865654 0.729956150055 -0.028686 -0.062683 -0.997621
0.402503907681 1.408275008202 0.725582718849 -0.028686 -0.062683 -0.997621
0.273428946733 1.436753034592 0.727435827255 -0.028686 -0.062683 -0.997621
0.291554301977 1.449821710587 0.726111412048 -0.028686 -0.062683 -0.997621
0.388997823000 1.349700212479 0.729614675045 -0.028686 -0.062683 -0.997621
0.552581489086 1.212957382202 0.733541905880 -0.028686 -0.062683 -0.997621
0.202289134264 1.252146959305 0.734359800816 0.005014 -0.021058 -0.999766
0.358473896980 1.203114509583 0.736141383648 0.005014 -0.021058 -0.999766
0.233220607042 1.137302756310 0.737019240856 0.005014 -0.021058 -0.999766
0.226727426052 1.040828824043 0.739106595516 0.005014 -0.021058 -0.999766
0.217496782541 0.911695182323 0.741898059845 0.005014 -0.021058 -0.999766
0.260386109352 1.111527204514 0.737707555294 0.005014 -0.021058 -0.999766
0.186860978603 0.998585581779 0.739853262901 0.005014 -0.021058 -0.999766
0.167971566319 1.131713151932 0.736847043037 0.005014 -0.021058 -0.999766
0.159692183137 1.007926464081 0.739525496960 0.005014 -0.021058 -0.999766
0.328476130962 1.231993794441 0.735372245312 0.005014 -0.021058 -0.999766
0.437238037586 1.013890385628 0.740648984909 0.005014 -0.021058 -0.999766
0.181378632784 0.909842908382 0.741775512695 0.005014 -0.021058 -0.999766
0.310675024986 1.110333919525 0.737961053848 0.005014 -0.021058 -0.999766
0.327605396509 1.247471451759 0.735028684139 0.005014 -0.021058 -0.999766
0.249654829502 1.304302811623 0.733429491520 0.005014 -0.021058 -0.999766
0.152395516634 1.201521515846 0.735245049000 0.005014 -0.021058 -0.999766
0.636904120445 1.048295140266 0.740345537663 -0.008955 0.008955 -0.999920
0.562914907932 0.980369627476 0.740344822407 -0.008955 0.008955 -0.999920
0.594902396202 1.020884156227 0.740455150604 -0.008955 0.008955 -0.999920
0.618019282818 0.896735727787 0.741689741611 0.001011 -0.033348 -0.999443
0.602467477322 0.920929074287 0.740846216679 0.001011 -0.033348 -0.999443
0.612930893898 0.817654013634 0.744373798370 0.001011 -0.033348 -0.999443
0.609984874725 0.864673018456 0.742770195007 0.001011 -0.033348 -0.999443
0.483587205410 0.849264800549 0.743129312992 0.001011 -0.033348 -0.999443
0.360969364643 0.743641078472 0.743058621883 0.002967 0.008902 -0.999956
0.362505614758 0.696207940578 0.742616653442 0.002967 0.008902 -0.999956
0.246693998575 0.582600653172 0.741125464439 0.002967 0.008902 -0.999956
0.288869351149 0.805855989456 0.743384361267 0.002967 0.008902 -0.999956
0.438823342323 0.763552963734 0.743528425694 0.002967 0.008902 -0.999956
0.368812084198 0.703767597675 0.742710828781 0.002967 0.008902 -0.999956
0.553683161736 0.774294912815 0.744045734406 0.002967 0.008902 -0.999956
0.108956426382 0.690317630768 0.741642773151 0.002967 0.008902 -0.999956
0.156976819038 0.517756640911 0.740188777447 0.002967 0.008902 -0.999956
0.283091753721 0.760311543941 0.742933809757 0.002967 0.008902 -0.999956
0.305914938450 0.593628108501 0.741328954697 -0.009151 0.031519 -0.999461
0.303781986237 0.527953505516 0.739219307899 -0.009151 0.031519 -0.999461
0.236784756184 0.493230968714 0.738760769367 -0.009151 0.031519 -0.999461
0.440257042646 0.488344967365 0.739977180958 0.008937 0.008937 -0.999920
0.415437757969 0.467714011669 0.739579558372 0.008937 0.008937 -0.999920
0.344860464334 0.551388561726 0.739745140076 0.008937 0.008937 -0.999920
0.549311697483 0.659277796745 0.742455124855 0.008937 0.008937 -0.999920
0.584924995899 0.680949985981 0.742955505848 0.008937 0.008937 -0.999920
0.523811340332 0.456091701984 0.739864766598 0.000991 0.012883 -0.999917
0.622823297977 0.424470126629 0.739485740662 0.000991 0.012883 -0.999917
0.586208105087 0.650874972343 0.742561876774 0.000991 0.012883 -0.999917
0.597531676292 0.472845077515 0.740133583546 0.000991 0.012883 -0.999917
0.524105131626 0.522866964340 0.740778028965 0.000991 0.012883 -0.999917
0.517131507397 0.341705501080 0.738330006599 -0.000989 0.012857 -0.999917
0.463293224573 0.279297590256 0.737526178360 -0.000989 0.012857 -0.999917
0.501596927643 0.198646277189 0.736264288425 -0.002996 0.018978 -0.999815
0.611653566360 0.176506057382 0.734528422356 -0.003122 0.063479 -0.997978
0.521647393703 0.140286624432 0.732615113258 -0.003122 0.063479 -0.997978
0.527799189091 0.113418385386 0.731274604797 -0.021696 0.038226 -0.999034
0.450270175934 0.164124891162 0.734873950481 -0.021696 0.038226 -0.999034
0.436646640301 0.121651604772 0.747649908066 -0.912538 0.009086 0.408890
0.447970837355 -0.040937490761 0.783466219902 -0.897951 0.131511 0.419987
-0.075811304152 0.486588865519 0.751385629177 -0.045194 -0.941333 0.334438
-0.117678210139 0.510750532150 0.814128696918 -0.039560 -0.945619 0.322863
-0.386618286371 0.809239387512 0.743791520596 -0.006951 0.008937 -0.999936
-0.228333368897 0.511488974094 0.739653646946 -0.006951 0.008937 -0.999936
-0.213539570570 0.626459062099 0.740684509277 -0.006951 0.008937 -0.999936
-0.366707175970 0.503209233284 0.739876568317 0.000991 0.012883 -0.999917
-0.413650333881 0.397142291069 0.738387107849 0.000991 0.012883 -0.999917
-0.349596947432 0.500148475170 0.739849686623 0.000991 0.012883 -0.999917
-0.398244649172 0.491715312004 0.739692151546 0.000991 0.012883 -0.999917
-0.416112244129 0.509759545326 0.739923000336 0.000991 0.012883 -0.999917
-0.381362080574 0.400735110044 0.738469004631 0.000991 0.012883 -0.999917
-0.333656728268 0.299319475889 0.737232863903 0.000991 0.012883 -0.999917
-0.357285112143 0.246920153499 0.736286580563 0.005004 0.019015 -0.999807
-0.398799031973 0.211525708437 0.733894169331 0.011496 0.061658 -0.998031
-0.355188906193 0.105951249599 0.729969620705 0.025881 0.036233 -0.999008
-0.309943169355 0.070486053824 0.729844927788 0.025881 0.036233 -0.999008
-0.313732624054 -0.016494765878 0.722775340080 0.131601 0.071041 -0.988754
-0.186542049050 -0.043066583574 0.721701145172 0.021430 0.321445 -0.946686
-0.060855753720 -0.100449413061 0.701528787613 0.011497 0.364086 -0.931294
-0.062771707773 -0.078749723732 0.709986209869 0.011497 0.364086 -0.931294
-0.074816256762 -0.099716365337 0.701629996300 0.011497 0.364086 -0.931294
-0.368949890137 -0.108640342951 0.694236934185 0.011497 0.364086 -0.931294
-0.353507488966 -0.130019709468 0.686171114445 0.011430 0.351796 -0.936007
-0.219691991806 -0.133181333542 0.686690032482 0.011430 0.351796 -0.936007
-0.289002597332 -0.176961109042 0.669309020042 0.011430 0.351796 -0.936007
-0.004076158628 -0.142405763268 0.685970008373 0.011430 0.351796 -0.936007
-0.312468230724 -0.223125219345 0.652515590191 0.016362 0.325986 -0.945233
-0.013040568680 -0.168005615473 0.676800012589 0.016362 0.325986 -0.945233
-0.090642325580 -0.191714972258 0.667252600193 0.016362 0.325986 -0.945233
-0.196272566915 -0.295648157597 0.651473462582 0.007158 -0.041927 -0.999095
-0.269230693579 -0.351198732853 0.653266668320 0.007158 -0.041927 -0.999095
-0.192316934466 -0.289484500885 0.651244938374 0.007158 -0.041927 -0.999095
-0.331143915653 -0.273611575365 0.649591326714 0.007158 -0.041927 -0.999095
-0.020636994392 -0.292987883091 0.653150975704 0.015772 -0.064138 -0.997816
-0.035085700452 -0.276241034269 0.651846289635 0.015772 -0.064138 -0.997816
0.020039156079 -0.380028575659 0.661118626595 0.031436 -0.081300 -0.996194
0.129292249680 -0.343272894621 0.655775427818 -0.040283 -0.077300 -0.996194
-0.100807003677 -0.402961879969 0.687341094017 -0.084746 -0.823042 -0.561622
0.190267339349 -0.310317158699 0.652337789536 -0.022174 -0.062297 -0.997811
0.337209224701 -0.378866821527 0.653513252735 -0.022174 -0.062297 -0.997811
0.651087641716 -0.550859332085 0.571177363396 -0.600716 -0.553336 0.577026
0.693707704544 -0.761550903320 0.430604398251 -0.670291 -0.498938 0.549336
0.707890272141 -0.794835686684 0.388078093529 -0.766903 0.267230 -0.583479
0.719162523746 -0.855783283710 0.334992855787 -0.795399 0.312762 -0.519153
0.763886153698 -0.826389729977 0.286547839642 -0.780737 0.317723 -0.538054
0.712152600288 -0.770303368568 0.444569796324 -0.617045 -0.539280 0.573091
0.782273232937 -0.877844810486 0.265738904476 -0.915379 0.060311 -0.398049
0.789657413960 -1.000237703323 -0.101187042892 -0.998698 0.050502 0.007215
0.787796974182 -1.002642750740 -0.360531210899 -0.998698 0.050502 0.007215
0.794704079628 -0.935124993324 0.163436710835 -0.998698 0.050502 0.007215
0.798202574253 -0.865778863430 0.165534421802 -0.998698 0.050502 0.007215
0.791746377945 -0.953345537186 -0.141024276614 -0.998698 0.050502 0.007215
0.796985447407 -0.891748309135 0.178621530533 -0.998698 0.050502 0.007215
0.798326849937 -0.892709016800 -0.027946621180 -0.800607 0.583745 -0.135167
0.795466661453 -0.946041882038 -0.264482021332 -0.990125 0.140185 0.001104
0.804923057556 -0.879239737988 -0.132214024663 -0.990125 0.140185 0.001104
0.807835102081 -0.858622133732 -0.102939784527 -0.990125 0.140185 0.001104
0.805626332760 -0.873826026917 -0.256968587637 -0.990125 0.140185 -0.001104
0.804698467255 -0.880549550056 -0.368204414845 -0.990125 0.140185 -0.001104
0.696179032326 -0.833596050739 -0.445526182652 0.000978 -0.000978 0.999999
0.211942732334 -0.827067613602 -0.445089429617 0.000978 -0.000978 0.999999
0.397556811571 -0.863352417946 -0.445290535688 0.000978 -0.000978 0.999999
0.689117610455 -0.868528544903 -0.445554763079 0.000978 -0.000978 0.999999
0.450295239687 -0.829225897789 -0.445303350687 0.000978 -0.000978 0.999999
0.709622681141 -0.906018257141 -0.445610404015 0.000978 -0.000978 0.999999
0.227129861712 -0.808206796646 -0.445084095001 0.000978 -0.000978 0.999999
0.443471491337 -0.808280527592 -0.445287674665 0.000985 0.006896 0.999976
0.422750204802 -0.769607841969 -0.445550739765 0.000985 0.006896 0.999976
0.803189992905 -0.826883971691 -0.445630341768 0.000985 0.006896 0.999976
0.743810772896 -0.647810220718 -0.446141093969 0.008902 -0.002967 0.999956
0.753748238087 -0.685529530048 -0.446377605200 0.008902 -0.002967 0.999956
0.727501332760 -0.517187416553 -0.445481598377 0.008902 -0.002967 0.999956
0.770048916340 -0.367436856031 -0.445265144110 0.008902 -0.002967 0.999956
0.691777586937 -0.660521090031 -0.445732831955 0.008902 -0.002967 0.999956
0.767053484917 -0.117555871606 -0.443779408932 -0.012934 -0.006964 0.999892
0.817285716534 -0.370266973972 -0.444743424654 -0.012934 -0.006964 0.999892
0.753782093525 -0.005717150867 -0.443239659071 -0.012934 -0.006964 0.999892
0.807808816433 -0.093667209148 -0.443113744259 -0.012934 -0.006964 0.999892
0.827029824257 -0.502709627151 -0.445457994938 -0.012934 -0.006964 0.999892
0.740356385708 0.056650280952 -0.318293035030 -0.062325 -0.996108 0.062325
0.734813392162 0.169438034296 -0.269605666399 -0.998530 0.052992 0.011430
0.728905618191 0.066371895373 -0.308623284101 -0.998530 0.052992 0.011430
0.730954289436 0.078585579991 -0.187681183219 -0.998530 0.052992 0.011430
0.729093670845 0.087315618992 -0.408226966858 -0.997187 0.074763 -0.005265
0.734070539474 0.156539529562 -0.366603732109 -0.997187 0.074763 -0.005265
0.736221551895 0.187473416328 -0.335517942905 -0.997187 0.074763 -0.005265
0.819419622421 0.253134489059 -0.342822194099 0.048248 0.998831 -0.003080
0.841508746147 0.251521915197 -0.213626489043 0.058964 0.998255 0.003103
0.838478565216 0.251624822617 -0.182841971517 0.058964 0.998255 0.003103
0.588286042213 0.221354216337 0.730318546295 -0.938285 0.072378 -0.338204
0.604128062725 0.299744933844 0.704499185085 -0.933289 0.086787 -0.348481
0.646307647228 0.286554962397 0.587962865829 -0.933289 0.086787 -0.348481
0.647087931633 0.299904018641 0.698462665081 0.068466 0.996558 -0.046731
0.710813045502 0.287469148636 0.514454245567 0.118415 0.992692 -0.023240
0.781971454620 0.273714303970 0.220165416598 0.146100 0.989239 -0.007807
0.787055134773 0.269240796566 0.090188860893 0.076973 0.996311 -0.037944
0.820070087910 0.262115925550 -0.000302836299 0.075589 0.995809 -0.051488
0.754328608513 0.265894889832 -0.016380064189 0.059901 0.996534 -0.057723
0.814322173595 0.255455464125 -0.132508814335 0.059901 0.996534 -0.057723
0.733694851398 0.233186960220 -0.081670165062 -0.996691 0.057481 -0.057481
0.729609727859 0.113987490535 -0.127366721630 -0.996691 0.057481 -0.057481
0.730201721191 0.252315104008 -0.003396866843 -0.996691 0.057481 -0.057481
0.720093607903 0.082641728222 -0.004935085308 -0.996108 0.062325 -0.062325
0.722500741482 0.178841024637 0.051662676036 -0.996108 0.062325 -0.062325
0.779817104340 0.074648179114 -0.063467010856 -0.036137 -0.995403 0.088699
0.854580998421 0.042356036603 -0.434787809849 -0.035708 -0.996569 0.074662
0.834694445133 0.367707014084 -0.435417085886 0.002973 -0.012883 0.999913
0.863117337227 0.557152450085 -0.433241903782 0.002973 -0.012883 0.999913
0.803706526756 0.439343154430 -0.434648424387 -0.025067 -0.001003 0.999685
0.815724849701 0.596839070320 -0.434133559465 -0.025067 -0.001003 0.999685
0.759607315063 0.461815357208 -0.435713648796 -0.025067 -0.001003 0.999685
0.327751278877 0.388948112726 -0.435844331980 0.000979 -0.002938 0.999995
0.517431259155 0.521086156368 -0.435607433319 0.000979 -0.002938 0.999995
0.256483227015 0.342977762222 -0.435923725367 0.000979 -0.002938 0.999995
0.630957186222 0.453336060047 -0.435851216316 0.000979 -0.002938 0.999995
0.363660454750 0.332516700029 -0.436013340950 0.000979 -0.002938 0.999995
0.483397245407 0.299345374107 -0.436169952154 0.000979 -0.002938 0.999995
0.499682784081 0.327056527138 -0.436106622219 0.000979 -0.002938 0.999995
0.663522720337 0.398683011532 -0.436013609171 0.000979 -0.002938 0.999995
0.587987542152 0.472018092871 -0.435777217150 0.000979 -0.002938 0.999995
0.524531662464 0.476043075323 -0.435729861259 0.000979 -0.002938 0.999995
0.573581635952 0.429873317480 -0.435879528522 0.000979 -0.002938 0.999995
0.302376657724 0.410718441010 -0.435772448778 0.000979 -0.002938 0.999995
0.655092775822 0.367612421513 -0.436090320349 0.000979 -0.002938 0.999995
0.284962385893 0.503839969635 -0.435162186623 0.002961 -0.006910 0.999972
0.239800304174 0.496711432934 -0.435088068247 0.002961 -0.006910 0.999972
0.539258658886 0.569847822189 -0.435386627913 0.002961 -0.006910 0.999972
0.405774563551 0.636170804501 -0.434515833855 0.002961 -0.006910 0.999972
0.349173486233 0.526222109795 -0.435176253319 0.002961 -0.006910 0.999972
0.206567585468 0.435913801193 -0.435447782278 0.002961 -0.006910 0.999972
0.358507931232 0.507749319077 -0.435340315104 0.002961 -0.006910 0.999972
0.529269456863 0.557867646217 -0.435447812080 0.002961 -0.006910 0.999972
0.115052461624 0.603937506676 -0.433936893940 0.002961 -0.006910 0.999972
0.124341964722 0.561262369156 -0.434281289577 0.002961 -0.006910 0.999972
0.495910406113 0.562220633030 -0.435321331024 0.002961 -0.006910 0.999972
0.248748540878 0.284917831421 -0.436387568712 -0.000989 -0.012857 0.999917
0.188706070185 0.129842907190 -0.438359141350 -0.000989 -0.012857 0.999917
0.254542142153 0.107007235289 -0.438602864742 -0.000989 -0.012857 0.999917
0.384981751442 0.148556739092 -0.438003242016 -0.000989 -0.012857 0.999917
0.093151375651 0.257380515337 -0.436828136444 -0.000989 -0.012857 0.999917
0.244605779648 0.278352439404 -0.436472028494 -0.000989 -0.012857 0.999917
0.231598645449 0.181611523032 -0.437686711550 -0.000989 -0.012857 0.999917
0.211072519422 0.315972447395 -0.436023771763 -0.000989 -0.012857 0.999917
0.538088560104 0.222646087408 -0.436983644962 -0.000989 -0.012857 0.999917
0.522819995880 0.095629237592 -0.440452277660 0.007102 -0.033483 0.999414
0.362419128418 0.073656365275 -0.440198689699 0.007102 -0.033483 0.999414
0.435504019260 0.064633138478 -0.440948694944 0.007102 -0.033483 0.999414
0.495956599712 0.074302516878 -0.440997987986 0.007102 -0.033483 0.999414
0.530679166317 0.131152570248 -0.439316481352 0.007102 -0.033483 0.999414
0.505494952202 0.055817350745 -0.441672801971 0.007102 -0.033483 0.999414
0.424239218235 0.094129957259 -0.439896255732 0.007102 -0.033483 0.999414
0.594811618328 0.025658208877 -0.442648500204 0.004945 -0.006924 0.999964
0.166866421700 -0.538912236691 -0.444014042616 0.004945 -0.006924 0.999964
0.467696607113 -0.089134693146 -0.442698568106 0.004945 -0.006924 0.999964
0.067632436752 -0.633326590061 -0.444085389376 0.004945 -0.006924 0.999964
0.393891513348 -0.122908443213 -0.442506670952 0.004945 -0.006924 0.999964
0.379748284817 0.025046212599 -0.441432088614 0.004945 -0.006924 0.999964
0.307218313217 -0.322707325220 -0.443357557058 0.004945 -0.006924 0.999964
0.250702202320 0.030530583113 -0.440662860870 0.004945 -0.006924 0.999964
0.262169361115 -0.205924034119 -0.442317038774 0.004945 -0.006924 0.999964
0.559218227863 0.026995610446 -0.442437499762 0.004945 -0.006924 0.999964
0.199020802975 -0.141540750861 -0.441525995731 0.004945 -0.006924 0.999964
0.076842188835 -0.563624799252 -0.443669199944 0.004945 -0.006924 0.999964
0.119212098420 -0.054404839873 -0.440487444401 0.004945 -0.006924 0.999964
0.262929975986 -0.151309430599 -0.441954314709 0.004945 -0.006924 0.999964
0.072046101093 -0.215307965875 -0.441301137209 0.004945 -0.006924 0.999964
0.118284747005 -0.228897273540 -0.441654860973 0.004945 -0.006924 0.999964
0.048235058784 -0.720818161964 -0.444563269615 0.004945 -0.006924 0.999964
0.530295789242 -0.010862655938 -0.442527800798 0.004945 -0.006924 0.999964
0.481593728065 -0.231297746301 -0.443732857704 0.004945 -0.006924 0.999964
0.221797317266 -0.243709743023 -0.442341864109 0.004945 -0.006924 0.999964
0.528126358986 -0.103835679591 -0.443140298128 0.004945 -0.006924 0.999964
0.297607719898 -0.234622403979 -0.442711025476 0.004945 -0.006924 0.999964
0.295344293118 -0.293762952089 -0.443095624447 0.004945 -0.006924 0.999964
0.465333968401 -0.023800566792 -0.442246079445 0.004945 -0.006924 0.999964
0.336869359016 -0.131226152182 -0.442238956690 0.004945 -0.006924 0.999964
0.580460727215 -0.083952710032 -0.443303704262 0.004945 -0.006924 0.999964
0.201577216387 -0.535457432270 -0.444187819958 0.004945 -0.006924 0.999964
0.346781730652 -0.214736729860 -0.442856460810 0.004945 -0.006924 0.999964
0.697598218918 -0.305975258350 -0.444462150335 0.000981 -0.002944 0.999995
0.666435658932 -0.040454857051 -0.443441957235 0.000981 -0.002944 0.999995
0.579732656479 -0.691040813923 -0.445621997118 0.000981 -0.002944 0.999995
0.677105724812 -0.441606014967 -0.444911867380 0.000981 -0.002944 0.999995
0.096770584583 -0.702863693237 -0.444717973471 0.000981 -0.002944 0.999995
0.329254090786 -0.686812579632 -0.445115745068 0.000981 -0.002944 0.999995
0.230949461460 -0.684096634388 -0.444913208485 0.000981 -0.002944 0.999995
0.586917459965 -0.200409948826 -0.443863838911 0.000981 -0.002944 0.999995
0.619990646839 -0.115388534963 -0.443621575832 0.000981 -0.002944 0.999995
0.431423991919 -0.413842111826 -0.444330006838 0.000981 -0.002944 0.999995
0.686805129051 -0.603654325008 -0.445516258478 0.000981 -0.002944 0.999995
0.588807225227 -0.658777177334 -0.445523262024 0.000981 -0.002944 0.999995
0.610251665115 -0.608557760715 -0.445383876562 0.000981 -0.002944 0.999995
0.472901821136 -0.259110808372 -0.443852394819 0.000981 -0.002944 0.999995
0.482687711716 -0.331146627665 -0.444131761789 0.000981 -0.002944 0.999995
0.288663178682 -0.482363402843 -0.444297671318 0.000981 -0.002944 0.999995
0.338576972485 -0.438266038895 -0.444236248732 0.000981 -0.002944 0.999995
0.616114556789 -0.334868460894 -0.444406777620 0.000981 -0.002944 0.999995
0.602201819420 -0.283281505108 -0.444193154573 0.000981 -0.002944 0.999995
0.241411626339 -0.704088866711 -0.445005953312 0.000981 -0.002944 0.999995
0.637279152870 -0.547008097172 -0.445214539766 0.000981 -0.002944 0.999995
0.491126358509 -0.250833243132 -0.443858206272 0.000981 -0.002944 0.999995
0.581579804420 -0.745426297188 -0.445822089911 0.000981 -0.002944 0.999995
0.484625697136 -0.403381615877 -0.444396495819 0.000981 -0.002944 0.999995
0.596142947674 -0.192509695888 -0.443853408098 0.000981 -0.002944 0.999995
0.573659181595 -0.695364713669 -0.445625722408 0.000981 -0.002944 0.999995
0.794819772243 0.074364334345 -0.060995988548 -0.029433 -0.995263 0.092659
0.747320532799 0.167340725660 0.205174192786 -0.965373 0.040686 0.257679
0.723307549953 0.224059820175 0.095392704010 -0.971132 0.060464 0.230752
