-0.062666006386 -0.455834269524 -0.609557151794 -0.033822 0.017423 -0.999276
-0.142848923802 -0.302760481834 -0.604216575623 -0.033822 0.017423 -0.999276
-0.051055252552 0.007135868073 -0.601995170116 -0.033822 0.017423 -0.999276
-0.155672252178 -1.002307653427 -0.615802288055 -0.033822 0.017423 -0.999276
-0.219265997410 -1.364267349243 -0.619871497154 -0.033822 0.017423 -0.999276
-0.187138333917 -0.811978101730 -0.611468493938 -0.033822 0.017423 -0.999276
-0.214620947838 -0.684510886669 -0.608349442482 -0.033822 0.017423 -0.999276
-0.394228070974 -1.022883892059 -0.608091711998 -0.033822 0.017423 -0.999276
-0.380945742130 -0.750258564949 -0.603856623173 -0.033822 0.017423 -0.999276
-0.165695756674 -1.358900189400 -0.621590197086 -0.033822 0.017423 -0.999276
-0.056181509048 -1.164294481277 -0.621948599815 -0.033822 0.017423 -0.999276
-0.405978411436 -0.972616434097 -0.606830775738 -0.033822 0.017423 -0.999276
-0.040432490408 -0.649765551090 -0.613640666008 -0.033822 0.017423 -0.999276
-0.024631604552 -1.149305105209 -0.622757613659 -0.033822 0.017423 -0.999276
-0.154390186071 -0.479232192039 -0.606858491898 -0.033822 0.017423 -0.999276
-0.435895800591 -0.867352485657 -0.604010879993 -0.033822 0.017423 -0.999276
-0.113101862371 -0.881178736687 -0.615160167217 -0.033822 0.017423 -0.999276
-0.055246964097 -0.533361077309 -0.611139893532 -0.033822 0.017423 -0.999276
-0.097586497664 -1.315639734268 -0.623149335384 -0.033822 0.017423 -0.999276
-0.098904415965 -1.188505649567 -0.620920419693 -0.033822 0.017423 -0.999276
-0.143693968654 -1.353533983231 -0.622241735458 -0.033822 0.017423 -0.999276
-0.501216292381 -1.111576080322 -0.610028684139 0.001014 0.039563 -0.999217
-0.268493950367 -1.514501810074 -0.625587761402 0.001014 0.039563 -0.999217
-0.301273226738 -1.308213353157 -0.617570817471 0.001014 0.039563 -0.999217
-0.269940704107 -1.505741834641 -0.625247359276 0.001014 0.039563 -0.999217
-0.399987816811 -1.175126314163 -0.612444579601 0.001014 0.039563 -0.999217
-0.221269458532 -1.562680840492 -0.627436697483 0.001014 0.039563 -0.999217
-0.366093903780 -1.156654357910 -0.611704945564 0.001014 0.039563 -0.999217
-0.443565756083 -1.389275789261 -0.620812833309 0.001014 0.039563 -0.999217
-0.375602692366 -1.304217338562 -0.617459118366 0.001014 0.039563 -0.999217
-0.466026306152 -1.066342592239 -0.608245790005 0.001014 0.039563 -0.999217
-0.248878106475 -1.610985279083 -0.629334807396 0.001014 0.039563 -0.999217
-0.396871238947 -1.101552248001 -0.609576523304 0.001014 0.039563 -0.999217
-0.421489208937 -1.306888699532 -0.617590308189 0.001014 0.039563 -0.999217
-0.140581682324 -1.639193654060 -0.630369722843 0.001014 0.039563 -0.999217
-0.396805614233 -1.619116783142 -0.629738986492 0.001014 0.039563 -0.999217
-0.497071176767 -1.387123942375 -0.620760619640 0.001014 0.039563 -0.999217
-0.315420240164 -1.370906114578 -0.620021462440 0.001014 0.039563 -0.999217
-0.387594878674 -1.483795404434 -0.624461889267 0.001014 0.039563 -0.999217
-0.465196669102 -1.601977586746 -0.629111707211 0.001014 0.039563 -0.999217
-0.369402170181 -1.740233421326 -0.625890374184 -0.001090 -0.120950 -0.992658
-0.380557000637 -1.711489677429 -0.629353523254 -0.001090 -0.120950 -0.992658
-0.349932283163 -1.911369681358 -0.605184793472 -0.001090 -0.120950 -0.992658
-0.233922272921 -1.766371607780 -0.622971534729 -0.001090 -0.120950 -0.992658
-0.436530292034 -1.740829944611 -0.625694632530 -0.001090 -0.120950 -0.992658
-0.489227980375 -1.743032336235 -0.625330805779 -0.001090 -0.120950 -0.992658
-0.339994341135 -1.889821290970 -0.607814669609 -0.001090 -0.120950 -0.992658
-0.218193873763 -1.872608304024 -0.610124766827 -0.001090 -0.120950 -0.992658
-0.429458230734 -1.807636260986 -0.617610871792 -0.001090 -0.120950 -0.992658
-0.024172410369 -2.077133417130 -0.587926745415 -0.007617 -0.114249 -0.993423
-0.112412013113 -1.796486496925 -0.619637608528 -0.007617 -0.114249 -0.993423
-0.056682165712 -1.931447267532 -0.604485154152 -0.007617 -0.114249 -0.993423
-0.304876893759 -2.002811193466 -0.594446182251 -0.007617 -0.114249 -0.993423
-0.312251746655 -1.981015920639 -0.596905052662 -0.007617 -0.114249 -0.993423
-0.172101423144 -1.973745584488 -0.598766267300 -0.007617 -0.114249 -0.993423
-0.579986274242 -1.850668311119 -0.610605895519 -0.012139 -0.124705 -0.992120
-0.501750230789 -1.920984268188 -0.602730453014 -0.012139 -0.124705 -0.992120
-0.450030267239 -1.921410083771 -0.603337526321 -0.012139 -0.124705 -0.992120
-0.528771996498 -1.728348016739 -0.626698970795 -0.012139 -0.124705 -0.992120
-0.691642284393 -1.811927795410 -0.614608168602 -0.005503 -0.128773 -0.991659
-0.743242621422 -1.697100400925 -0.629297375679 -0.005503 -0.128773 -0.991659
-0.615603804588 -1.821724057198 -0.613808751106 -0.005503 -0.128773 -0.991659
-0.536774098873 -1.670985817909 -0.469517499208 0.007414 0.996641 -0.081553
-0.706444740295 -1.680865049362 -0.602230191231 0.007414 0.996641 -0.081553
-0.652053833008 -1.676886200905 -0.549878895283 0.007414 0.996641 -0.081553
-0.508062660694 -1.667630672455 -0.480663210154 -0.997856 0.013641 0.064006
-0.507534563541 -1.147870898247 -0.576794147491 -0.997856 0.013641 0.064006
-0.504644751549 -1.435708165169 -0.473213672638 -0.997856 0.013641 0.064006
-0.510439038277 -1.346222043037 -0.582869291306 -0.997856 0.013641 0.064006
-0.510118544102 -1.289259195328 -0.589251101017 -0.997856 0.013641 0.064006
-0.509930610657 -1.333078742027 -0.577468335629 -0.997856 0.013641 0.064006
-0.506567180157 -1.005970478058 -0.590015530586 -0.997856 0.013641 0.064006
-0.510574817657 -1.315495848656 -0.591194331646 -0.997856 0.013641 0.064006
-0.508579313755 -1.639422893524 -0.494507580996 -0.997856 0.013641 0.064006
-0.506827294827 -0.969867885113 -0.575500905514 -0.997459 -0.024432 -0.066922
-0.506682991982 -1.279416084290 -0.467682301998 -0.997459 -0.024432 -0.066922
-0.507905960083 -1.363328218460 -0.419376015663 -0.997459 -0.024432 -0.066922
-0.511090457439 -1.351575374603 -0.375411480665 -0.997459 -0.024432 -0.066922
-0.504793822765 -1.398941874504 -0.453766286373 -0.997459 -0.024432 -0.066922
-0.508127272129 -1.396570682526 -0.404217183590 -0.997459 -0.024432 -0.066922
-0.511380612850 -1.509095668793 -0.315048903227 -0.997459 -0.024432 -0.066922
-0.601695835590 -1.593841195107 -0.275056689978 0.012130 0.861212 -0.508101
-0.593325495720 -1.595069408417 -0.276951342821 0.012130 0.861212 -0.508101
-0.790500521660 -1.658779144287 -0.389755725861 0.012130 0.861212 -0.508101
-0.770594179630 -1.672817468643 -0.521128654480 0.013964 0.995725 -0.091302
-0.755689382553 -1.675669670105 -0.550182342529 0.013964 0.995725 -0.091302
-0.715381622314 -1.677058100700 -0.559287548065 0.013964 0.995725 -0.091302
-0.779503881931 -1.646591782570 -0.368828892708 0.012158 0.860513 -0.509283
-0.696926832199 -1.585149526596 -0.262792944908 0.012158 0.860513 -0.509283
-0.814351379871 -1.617856264114 -0.321121662855 0.012158 0.860513 -0.509283
-0.613160550594 -1.529994845390 -0.206679403782 0.006634 0.465682 -0.884928
-0.667067766190 -1.488321185112 -0.185182064772 0.006634 0.465682 -0.884928
-0.622203469276 -1.495158672333 -0.188419505954 0.006634 0.465682 -0.884928
-0.723902225494 -1.399423956871 -0.138881161809 0.006634 0.465682 -0.884928
-0.820391058922 -1.378636002541 -0.128737032413 0.006634 0.465682 -0.884928
-0.825632452965 -1.529416680336 -0.208088859916 0.006634 0.465682 -0.884928
-0.736650645733 -1.309780955315 -0.124984212220 0.000978 -0.000978 -0.999999
-0.637171566486 -1.368613481522 -0.124954216182 0.000978 -0.000978 -0.999999
-0.683377265930 -1.269916772842 -0.124988421798 0.000978 -0.000978 -0.999999
-0.729966402054 -1.352930784225 -0.124971061945 0.000978 -0.000978 -0.999999
-0.697025537491 -1.172644376755 -0.125002905726 0.000978 -0.000978 -0.999999
-0.710853040218 -1.206947207451 -0.125006660819 0.000978 -0.000978 -0.999999
-0.548751056194 -1.268465042114 -0.124950349331 0.000978 -0.000978 -0.999999
-0.563624620438 -1.194801926613 -0.124957308173 0.000978 -0.000978 -0.999999
-0.502629697323 -1.036748409271 -0.314518243074 -0.993376 0.077801 0.084567
-0.507604658604 -1.144249677658 -0.273802161217 -0.993376 0.077801 0.084567
-0.502207279205 -1.054290771484 -0.293250471354 -0.993376 0.077801 0.084567
-0.496433049440 -1.108994007111 -0.174120396376 -0.993376 0.077801 0.084567
-0.508291721344 -1.053392171860 -0.406675577164 -0.999889 0.014865 0.000991
-0.507956326008 -1.031278014183 -0.445509850979 -0.999889 0.014865 0.000991
-0.509270489216 -1.117910504341 -0.325524508953 -0.999889 0.014865 0.000991
-0.512915730476 -1.358203291893 -0.187281012535 -0.999889 0.014865 -0.000991
-0.511528849602 -1.266778230667 -0.251458346844 -0.999889 0.014865 -0.000991
-0.513218462467 -1.378159403801 -0.283509075642 -0.999889 0.014865 -0.000991
-0.514181494713 -1.441644668579 -0.252832144499 -0.999889 0.014865 -0.000991
-0.509736299515 -1.148616552353 -0.452578783035 -0.999889 0.014865 -0.000991
-0.510050714016 -1.169341444969 -0.454176515341 -0.999889 0.014865 -0.000991
-0.512947678566 -1.360309600830 -0.198802113533 -0.999889 0.014865 -0.000991
-0.621753692627 -0.920000672340 -0.513027608395 -0.015373 -0.999238 -0.035870
-0.618794620037 -0.920241296291 -0.507553875446 -0.015373 -0.999238 -0.035870
-0.781600713730 -0.917613267899 -0.511642456055 -0.015373 -0.999238 -0.035870
-0.724251329899 -0.918528854847 -0.510482311249 -0.015373 -0.999238 -0.035870
-0.645097911358 -0.562299966812 -0.601430892944 -0.000979 0.002938 -0.999995
-0.766802370548 -0.722531437874 -0.601841032505 -0.000979 0.002938 -0.999995
-0.553479492664 -0.883124172688 -0.602391183376 -0.000979 0.002938 -0.999995
-0.562354445457 -0.247039437294 -0.600558936596 -0.000979 0.002938 -0.999995
-0.613584816456 -0.902540028095 -0.602422058582 -0.000979 0.002938 -0.999995
-0.600902855396 -0.219903171062 -0.600464940071 -0.000979 0.002938 -0.999995
-0.533789098263 -0.185314476490 -0.600393354893 -0.000979 0.002938 -0.999995
-0.510251462460 -0.364543735981 -0.600918352604 -0.000979 0.002938 -0.999995
-0.512105166912 -0.619127511978 -0.601649463177 -0.000979 0.002938 -0.999995
-0.680523931980 -0.647238254547 -0.601660370827 -0.000979 0.002938 -0.999995
-0.532577335835 -0.104933440685 -0.600162804127 -0.000979 0.002938 -0.999995
-0.559738516808 -0.846571266651 -0.602283537388 -0.000979 0.002938 -0.999995
-0.511792123318 -0.624115169048 -0.601663887501 -0.000979 0.002938 -0.999995
-0.565528213978 -0.917203247547 -0.602484166622 -0.000979 0.002938 -0.999995
-0.607192516327 -0.763845860958 -0.602026045322 -0.000979 0.002938 -0.999995
-0.638971090317 -0.746331930161 -0.601962506771 -0.000979 0.002938 -0.999995
-0.547899425030 -0.089198708534 -0.600111246109 -0.000979 0.002938 -0.999995
-0.597452461720 -0.612178981304 -0.601594030857 -0.000979 0.002938 -0.999995
-0.643680512905 0.114097818732 -0.599541902542 0.000979 0.002938 -0.999995
-0.656741201878 -0.291364938021 -0.600652575493 0.000979 0.002938 -0.999995
-0.809712111950 -0.806935071945 -0.602070510387 0.000979 0.002938 -0.999995
-0.710717082024 0.114175856113 -0.599544525146 0.000979 0.002938 -0.999995
-0.819957435131 -0.419803500175 -0.601010978222 0.000979 0.002938 -0.999995
-0.720553755760 -0.388051688671 -0.600919961929 0.000979 0.002938 -0.999995
-0.661016881466 0.168800011277 -0.599392890930 0.000979 0.002938 -0.999995
-0.697325766087 -0.256080955267 -0.600557684898 0.000979 0.002938 -0.999995
-0.815674662590 0.002071588300 -0.599855780602 0.000979 0.002938 -0.999995
-0.720084130764 -0.066618889570 -0.600039899349 0.000979 0.002938 -0.999995
-0.803153157234 -0.303200542927 -0.600691080093 0.000979 0.002938 -0.999995
-0.694045364857 0.122300855815 -0.599521577358 0.000979 0.002938 -0.999995
-0.730335175991 -0.428642481565 -0.601031482220 0.000979 0.002938 -0.999995
-0.778100311756 -0.207420974970 -0.600427806377 0.000979 0.002938 -0.999995
-0.780126333237 -0.345811992884 -0.600806772709 0.000979 0.002938 -0.999995
-0.812835693359 -0.436869055033 -0.601057410240 0.000979 0.002938 -0.999995
-0.801896035671 0.111139230430 -0.599556624889 0.000979 0.002938 -0.999995
-0.555618405342 0.008586571552 -0.599827170372 0.000979 0.002938 -0.999995
-0.574276804924 0.196165665984 -0.599312722683 0.000979 0.002938 -0.999995
-0.703331768513 0.265885293484 -0.599117994308 0.000979 0.002938 -0.999995
-0.604811549187 0.327364385128 -0.598937094212 0.000979 0.002938 -0.999995
-0.593705654144 0.274581670761 -0.599088251591 0.000979 0.002938 -0.999995
-0.590202033520 0.380847245455 -0.598782777786 0.000979 0.002938 -0.999995
-0.734971940517 0.225763827562 -0.599234640598 0.000979 0.002938 -0.999995
-0.518446981907 0.512379944324 -0.598401725292 0.000979 0.002938 -0.999995
-0.731045603752 0.468210846186 -0.598537862301 0.000979 0.002938 -0.999995
-0.542621135712 0.510029554367 -0.598409533501 0.000979 0.002938 -0.999995
-0.701706528664 0.325759679079 -0.598945915699 0.000979 0.002938 -0.999995
-0.661426484585 0.515514016151 -0.598398923874 0.000979 0.002938 -0.999995
-0.572065770626 0.635223388672 -0.598051071167 0.000979 0.002938 -0.999995
-0.756514847279 0.544084787369 -0.598321020603 0.000979 0.002938 -0.999995
-0.508642435074 0.584355950356 -0.598194479942 0.000979 0.002938 -0.999995
-0.597338974476 0.540592074394 -0.598324120045 0.000979 0.002938 -0.999995
-0.708891749382 0.777766585350 -0.597647488117 0.000979 0.002938 -0.999995
-0.794998884201 0.570797443390 -0.598245918751 0.000979 0.002938 -0.999995
-0.586638331413 0.750987410545 -0.597719132900 0.000979 0.002938 -0.999995
-0.717774629593 0.687639415264 -0.597906827927 0.000979 0.002938 -0.999995
-0.654354453087 0.760502755642 -0.597694754601 0.000979 0.002938 -0.999995
-0.755891561508 0.817675888538 -0.587417840958 0.014103 0.994798 -0.100890
-0.530843853951 0.821209669113 -0.519684851170 0.014103 0.994798 -0.100890
-0.575575947762 0.818885207176 -0.548961281776 0.014103 0.994798 -0.100890
-0.499796569347 0.884095728397 -0.431382358074 -0.999889 0.014865 0.000991
-0.496825486422 1.079949021339 -0.537680447102 -0.999889 0.014865 0.000991
-0.499522805214 0.902141094208 -0.574806272984 -0.999889 0.014865 0.000991
-0.498191386461 0.989908397198 -0.563163995743 -0.999889 0.014865 0.000991
-0.498877316713 0.944693267345 -0.538115501404 -0.999889 0.014865 0.000991
-0.492622733116 1.356994986534 -0.546405553818 -0.999889 0.014865 0.000991
-0.498508006334 0.969036698341 -0.449555993080 -0.999889 0.014865 0.000991
-0.439676135778 1.068257093430 -0.591047108173 0.001001 0.025017 -0.999686
-0.099276602268 1.454369187355 -0.581142544746 0.001001 0.025017 -0.999686
-0.484113097191 0.952165305614 -0.594002842903 0.001001 0.025017 -0.999686
-0.440459251404 1.177262663841 -0.588288068771 0.001001 0.025017 -0.999686
-0.173024684191 1.356111168861 -0.583658099174 0.001001 0.025017 -0.999686
-0.438446074724 1.353632211685 -0.583822786808 0.001001 0.025017 -0.999686
-0.396933794022 1.419691324234 -0.582134664059 0.001001 0.025017 -0.999686
-0.316850572824 1.406847238541 -0.582428991795 0.001001 0.025017 -0.999686
-0.453220784664 1.406568288803 -0.582488417625 0.001001 0.025017 -0.999686
-0.348688721657 1.585903525352 -0.577908694744 0.001001 0.025017 -0.999686
-0.340075850487 1.341074347496 -0.584102869034 0.001001 0.025017 -0.999686
-0.020287672058 1.542028069496 -0.578893244267 0.001001 0.025017 -0.999686
-0.344756007195 1.139902591705 -0.589197039604 0.001001 0.025017 -0.999686
-0.336323559284 1.132243156433 -0.589387655258 0.001001 0.025017 -0.999686
-0.141353368759 1.407912254333 -0.582334637642 0.001001 0.025017 -0.999686
-0.403152585030 1.482062458992 -0.580558180809 0.001001 0.025017 -0.999686
-0.223708748817 1.372518897057 -0.583262205124 0.001001 0.025017 -0.999686
-0.488270819187 1.474752902985 -0.580775916576 0.001001 0.025017 -0.999686
-0.351907014847 1.550818085670 -0.578798055649 0.001001 0.025017 -0.999686
-0.324477672577 1.551555275917 -0.578768908978 0.001001 0.025017 -0.999686
-0.374873578548 1.105777740479 -0.590072393417 0.001001 0.025017 -0.999686
-0.031347706914 1.354338407516 -0.582390367985 0.013062 0.017081 -0.999769
0.012816305272 0.600554108620 -0.594217240810 0.013062 0.017081 -0.999769
-0.011189557612 0.862199425697 -0.590227127075 0.013062 0.017081 -0.999769
-0.144286260009 0.811751425266 -0.592823684216 0.013062 0.017081 -0.999769
-0.170784309506 0.745683312416 -0.594263195992 0.013062 0.017081 -0.999769
-0.060594096780 1.206177830696 -0.585218191147 0.013062 0.017081 -0.999769
-0.197009444237 0.843943953514 -0.592993021011 0.013062 0.017081 -0.999769
-0.084725171328 1.361918687820 -0.582973718643 0.013062 0.017081 -0.999769
-0.415505349636 0.899381875992 -0.594978928566 0.013062 0.017081 -0.999769
-0.006775094662 0.574200391769 -0.594911158085 0.013062 0.017081 -0.999769
-0.254885673523 0.812750220299 -0.594274580479 0.013062 0.017081 -0.999769
-0.268196702003 1.104090929031 -0.589653551579 0.013062 0.017081 -0.999769
-0.346551150084 0.769341051579 -0.596205592155 0.013062 0.017081 -0.999769
-0.330809324980 0.913050830364 -0.593630194664 0.013062 0.017081 -0.999769
-0.014202250168 0.709743976593 -0.592777669430 0.013062 0.017081 -0.999769
-0.222486764193 1.007595777512 -0.590636134148 0.013062 0.017081 -0.999769
-0.044838234782 0.985839247704 -0.588637530804 0.013062 0.017081 -0.999769
0.024645566940 1.342755079269 -0.581838250160 0.013062 0.017081 -0.999769
-0.062593109906 0.758937299252 -0.592609524727 0.013062 0.017081 -0.999769
-0.103538468480 0.779302000999 -0.592817425728 0.013062 0.017081 -0.999769
-0.035210117698 0.822445392609 -0.591200470924 0.013062 0.017081 -0.999769
-0.187567532063 1.125013828278 -0.588239312172 0.013062 0.017081 -0.999769
-0.014115483500 0.551815032959 -0.595377206802 0.013062 0.017081 -0.999769
-0.028397941962 0.952696084976 -0.588965177536 0.013062 0.017081 -0.999769
-0.075494840741 1.371922016144 -0.582686543465 0.013062 0.017081 -0.999769
-0.029606962577 1.452675342560 -0.580747902393 0.013062 0.017081 -0.999769
-0.005281072110 0.573218464851 -0.594907522202 0.013062 0.017081 -0.999769
-0.052140936255 1.069205045700 -0.587361633778 0.013062 0.017081 -0.999769
-0.327437698841 0.573822677135 -0.597296953201 0.004926 0.002956 -0.999984
-0.277780085802 0.646095812321 -0.596826076508 0.004926 0.002956 -0.999984
-0.347575306892 0.698403358459 -0.597048282623 0.004926 0.002956 -0.999984
-0.425131797791 0.643878340721 -0.597617030144 0.004926 0.002956 -0.999984
-0.407955318689 0.548889517784 -0.597796916962 0.004926 0.002956 -0.999984
-0.412056267262 0.603183746338 -0.597663640976 0.004926 0.002956 -0.999984
-0.307374060154 0.616951167583 -0.597066938877 0.004926 0.002956 -0.999984
-0.194902688265 0.561724305153 -0.596625804901 0.004926 0.002956 -0.999984
-0.306785762310 0.309886127710 -0.597940981388 0.004926 0.002956 -0.999984
-0.250119388103 0.348090380430 -0.597530126572 0.004926 0.002956 -0.999984
-0.256771743298 0.355127274990 -0.597545444965 0.004926 0.002956 -0.999984
-0.412558555603 0.254007250071 -0.598663866520 0.004926 0.002956 -0.999984
-0.493953764439 0.297048211098 -0.598974347115 0.004926 0.002956 -0.999984
-0.251164019108 0.479820400476 -0.597159326077 0.004926 0.002956 -0.999984
-0.475090771914 0.202204927802 -0.599144816399 0.004926 0.002956 -0.999984
-0.455337882042 0.438157141209 -0.598365604877 0.004926 0.002956 -0.999984
-0.403220295906 0.408898651600 -0.598171651363 0.004926 0.002956 -0.999984
-0.316969215870 0.180884361267 -0.600015997887 -0.002991 0.016947 -0.999852
-0.216744273901 0.181502714753 -0.600348055363 -0.002991 0.016947 -0.999852
-0.067723035812 0.255662500858 -0.599617123604 -0.002991 0.016947 -0.999852
-0.271795660257 0.189177080989 -0.600031673908 -0.002991 0.016947 -0.999852
-0.348543763161 0.232267886400 -0.599048972130 -0.002991 0.016947 -0.999852
-0.270797729492 0.279398858547 -0.598526537418 -0.002991 0.016947 -0.999852
-0.292146712542 0.200699716806 -0.599769473076 -0.002991 0.016947 -0.999852
-0.085567623377 0.256820887327 -0.599536776543 -0.002991 0.016947 -0.999852
-0.241953343153 0.213750481606 -0.599722683430 -0.002991 0.016947 -0.999852
-0.424014389515 1.612188339233 -0.575596868992 0.001106 0.140492 -0.990081
-0.454084575176 1.898202538490 -0.535333693027 0.001106 0.140492 -0.990081
-0.174151271582 1.743982195854 -0.556479752064 0.001106 0.140492 -0.990081
-0.472731947899 1.909399271011 -0.533794820309 0.001106 0.140492 -0.990081
-0.485096216202 1.925558924675 -0.531542778015 0.001106 0.140492 -0.990081
-0.403281986713 1.782303690910 -0.551566541195 0.001106 0.140492 -0.990081
-0.496916770935 1.948419690132 -0.528344750404 0.001106 0.140492 -0.990081
-0.466127276421 1.685921549797 -0.565290689468 0.001106 0.140492 -0.990081
-0.400499194860 1.912201762199 -0.533245205879 0.001106 0.140492 -0.990081
-0.413055956364 1.784127473831 -0.551330327988 0.001106 0.140492 -0.990081
-0.421123743057 1.807425498962 -0.548062562943 0.001106 0.140492 -0.990081
-0.441617310047 1.695191740990 -0.563931226730 0.001106 0.140492 -0.990081
-0.514011204243 1.770379781723 -0.556959748268 0.407666 0.168540 -0.897442
-0.550954818726 1.843771815300 -0.560042917728 0.407666 0.168540 -0.897442
-0.590164005756 1.942031145096 -0.559511363506 0.407666 0.168540 -0.897442
-0.637753248215 1.714965581894 -0.574781894684 0.001001 0.025017 -0.999686
-0.530942380428 1.646520733833 -0.576456367970 0.001001 0.025017 -0.999686
-0.575948476791 1.669894218445 -0.575887799263 0.001001 0.025017 -0.999686
-0.645178794861 1.754927396774 -0.573783397675 0.001001 0.025017 -0.999686
-0.679310441017 1.686288833618 -0.575516283512 0.001001 0.025017 -0.999686
-0.655053615570 1.600878477097 -0.569992303848 -0.015495 -0.998893 -0.044418
-0.719830751419 1.597884178162 -0.478533983231 -0.015495 -0.998893 -0.044418
-0.711317062378 1.598761320114 -0.501677393913 -0.015495 -0.998893 -0.044418
-0.641246736050 1.594859600067 -0.460342228413 -0.014133 -0.926332 -0.376443
-0.511348903179 1.538344860077 -0.325814604759 -0.014133 -0.926332 -0.376443
-0.722209095955 1.539394378662 -0.320513963699 -0.014133 -0.926332 -0.376443
-0.696430504322 1.563695788383 -0.381415426731 -0.014133 -0.926332 -0.376443
-0.643647134304 1.530586242676 -0.301729232073 -0.014133 -0.926332 -0.376443
-0.496202796698 1.513718962669 -0.275182723999 -0.009622 -0.586918 -0.809589
-0.523684144020 1.390863656998 -0.185820609331 -0.009622 -0.586918 -0.809589
-0.644550144672 1.453079104424 -0.229592472315 -0.009622 -0.586918 -0.809589
-0.559057056904 1.467939972878 -0.241305440664 -0.009622 -0.586918 -0.809589
-0.623604655266 1.336002945900 -0.144952341914 -0.009622 -0.586918 -0.809589
-0.729405045509 1.456675052643 -0.231266051531 -0.009622 -0.586918 -0.809589
-0.686031043530 1.416962981224 -0.202955096960 -0.009622 -0.586918 -0.809589
-0.613311529160 1.380192160606 -0.177099078894 -0.009622 -0.586918 -0.809589
-0.791169345379 1.508593678474 -0.268223553896 -0.009622 -0.586918 -0.809589
-0.503500580788 1.115089416504 -0.134885028005 0.000978 0.000978 -0.999999
-0.754120945930 1.275757193565 -0.134885028005 0.000978 0.000978 -0.999999
-0.620580792427 1.253590703011 -0.134885028005 0.000978 0.000978 -0.999999
-0.797864854336 1.301188707352 -0.134885028005 0.000978 0.000978 -0.999999
-0.646919369698 1.177831888199 -0.134885028005 0.000978 0.000978 -0.999999
-0.744141042233 1.187375307083 -0.134885028005 0.000978 0.000978 -0.999999
-0.792239725590 1.188420653343 -0.134885028005 0.000978 0.000978 -0.999999
-0.797522664070 1.246900916100 -0.134885028005 0.000978 0.000978 -0.999999
-0.578652560711 1.071726083755 -0.150279596448 0.006588 0.446677 -0.894671
-0.737007260323 1.093411684036 -0.140639066696 0.006588 0.446677 -0.894671
-0.765647590160 1.070123076439 -0.152499184012 0.006588 0.446677 -0.894671
-0.692622661591 1.048671245575 -0.162670075893 0.006588 0.446677 -0.894671
-0.831044852734 1.019351363182 -0.178378075361 0.006588 0.446677 -0.894671
-0.675543248653 0.970088303089 -0.201827466488 0.006588 0.446677 -0.894671
-0.783510923386 1.060205101967 -0.157593071461 0.006588 0.446677 -0.894671
-0.728146672249 1.031350255013 -0.171598955989 0.006588 0.446677 -0.894671
-0.690924525261 0.886879920959 -0.300881654024 0.014579 0.894597 -0.446636
-0.713497400284 0.891903817654 -0.291519790888 0.014579 0.894597 -0.446636
-0.827759742737 0.888968348503 -0.300856262445 0.014579 0.894597 -0.446636
-0.550068020821 0.879586040974 -0.311194568872 0.014579 0.894597 -0.446636
-0.659180879593 0.848742663860 -0.376184046268 0.014579 0.894597 -0.446636
-0.664148926735 0.842009842396 -0.389798879623 0.014579 0.894597 -0.446636
-0.497624903917 1.027251362801 -0.447587817907 -0.999889 0.014865 -0.000991
-0.496743023396 1.085384845734 -0.417060971260 -0.999889 0.014865 -0.000991
-0.495756387711 1.150424122810 -0.367469429970 -0.999889 0.014865 -0.000991
-0.497224986553 1.053612232208 -0.315124601126 -0.999889 0.014865 -0.000991
-0.498432189226 0.974035143852 -0.306483030319 -0.999889 0.014865 -0.000991
-0.497346520424 1.045600652695 -0.351917952299 -0.999889 0.014865 -0.000991
-0.495503962040 1.167063236237 -0.398896276951 -0.999889 0.014865 -0.000991
-0.497642099857 1.026116371155 -0.412230074406 -0.999889 0.014865 -0.000991
-0.492121815681 1.390013575554 -0.452806949615 -0.999889 0.014865 -0.000991
-0.496921807528 1.073598861694 -0.227695256472 -0.999889 0.014865 -0.000991
-0.495563894510 1.163114070892 -0.250273823738 -0.999889 0.014865 -0.000991
-0.496269255877 1.116614341736 -0.295019567013 -0.999889 0.014865 -0.000991
-0.493540436029 1.296499133110 -0.405932098627 -0.999889 0.014865 -0.000991
-0.494633764029 1.224428176880 -0.263000518084 -0.999889 0.014865 -0.000991
-0.495836079121 1.145170092583 -0.150214552879 -0.999889 0.014865 0.000991
-0.494663089514 1.222493410110 -0.193893104792 -0.999889 0.014865 0.000991
-0.494019478559 1.264920234680 -0.273945689201 -0.999889 0.014865 0.000991
-0.490275293589 1.511736154556 -0.458781898022 -0.999889 0.014865 0.000991
-0.491303533316 1.443955659866 -0.344537317753 -0.999889 0.014865 0.000991
-0.489396184683 1.569688320160 -0.447905749083 -0.999889 0.014865 -0.000991
-0.492060661316 1.394046306610 -0.225913330913 -0.999889 0.014865 -0.000991
-0.491130918264 1.455334305763 -0.269855886698 -0.999889 0.014865 0.000991
-0.816568017006 0.823033392429 -0.544161319733 0.014103 0.994798 -0.100890
-0.730737090111 0.834274590015 -0.421878367662 0.014103 0.994798 -0.100890
-0.703595399857 0.824339151382 -0.514723718166 0.014103 0.994798 -0.100890
-0.377359986305 1.943604707718 -0.528950452805 -0.007704 0.128771 -0.991644
-0.050894834101 1.746661186218 -0.556807577610 -0.007704 0.128771 -0.991644
-0.092854864895 1.703667163849 -0.562096297741 -0.007704 0.128771 -0.991644
-0.230594307184 1.940554380417 -0.530373871326 -0.007704 0.128771 -0.991644
-0.046029571444 1.905003428459 -0.536281943321 -0.007704 0.128771 -0.991644
-0.016146643087 1.759500265121 -0.555383741856 -0.007704 0.128771 -0.991644
-0.113434322178 1.855877637863 -0.542188704014 -0.007704 0.128771 -0.991644
-0.044084347785 1.882539629936 -0.539212346077 -0.007704 0.128771 -0.991644
-0.192770630121 1.986583232880 -0.524662077427 -0.007704 0.128771 -0.991644
-0.035115361214 1.800029516220 -0.549988508224 -0.007704 0.128771 -0.991644
0.004704646766 1.773704290390 -0.553685426712 -0.007704 0.128771 -0.991644
-0.052170414478 2.059733390808 -0.516148328781 -0.007704 0.128771 -0.991644
0.015567794442 1.886782884598 -0.539078950882 -0.007704 0.128771 -0.991644
-0.291576743126 2.045915365219 -0.516266524792 -0.007704 0.128771 -0.991644
-0.561124682426 -0.952937722206 -0.342280745506 -0.015584 -0.969813 -0.243352
-0.742964625359 -0.930639743805 -0.420312464237 -0.015584 -0.969813 -0.243352
-0.598847866058 -0.945580601692 -0.369392842054 -0.015584 -0.969813 -0.243352
-0.514908969402 -0.959488213062 -0.318915605545 -0.015584 -0.969813 -0.243352
-0.809562921524 -0.933101356030 -0.406426072121 -0.015584 -0.969813 -0.243352
-0.690423607826 -0.972955882549 -0.254397749901 -0.015584 -0.969813 -0.243352
-0.699855387211 -0.952080190182 -0.337240695953 -0.015584 -0.969813 -0.243352
-0.618758916855 -0.960228443146 -0.309598028660 -0.015584 -0.969813 -0.243352
-0.709623754025 -1.021866440773 -0.209305331111 -0.009628 -0.601072 -0.799137
-0.826550722122 -0.995212674141 -0.227972179651 -0.009628 -0.601072 -0.799137
-0.757069408894 -1.013501048088 -0.215041637421 -0.009628 -0.601072 -0.799137
-0.545605063438 -0.990796804428 -0.234482899308 -0.009628 -0.601072 -0.799137
-0.512315213680 -1.049642086029 -0.190735489130 -0.009644 -0.599311 -0.800459
-0.652857184410 -1.128287076950 -0.130133911967 -0.009644 -0.599311 -0.800459
-0.571814119816 -1.121868610382 -0.135883539915 -0.009644 -0.599311 -0.800459
-0.502867221832 -1.001828908920 -0.309947162867 -0.994568 -0.099786 -0.029607
-0.806567132473 0.129640579224 -0.040342256427 0.899828 0.388133 -0.199154
-0.792252838612 0.891574263573 -0.005563523620 0.901797 0.055433 -0.428590
-0.805802762508 0.961784422398 0.011872861534 -0.910037 -0.030379 0.413413
-0.176337286830 2.177614450455 -0.322632938623 -0.003911 0.428867 -0.903359
-0.758767008781 1.697328925133 -0.323796898127 -0.477314 0.082585 -0.874843
-0.625390827656 2.122396230698 -0.295178800821 -0.556422 0.825238 -0.096832
-0.696526467800 2.049792766571 -0.291565418243 -0.922921 0.381120 -0.054446
-0.716927111149 1.987935900688 -0.280607253313 -0.979419 0.199664 -0.029536
-0.758605957031 1.749905705452 -0.301233619452 -0.985513 0.167134 -0.028816
-0.737572669983 1.871807098389 -0.270339131355 -0.842695 0.142655 0.519147
-0.802205026150 -1.764436602592 -0.306474149227 -0.472747 -0.088377 0.876755
-0.645897626877 -2.039161443710 -0.362852185965 -0.262140 -0.390963 -0.882287
-0.721710681915 -1.984382867813 -0.320191055536 -0.695781 -0.718090 0.015338
-0.800132691860 -1.797806143761 -0.343356072903 -0.982067 -0.188104 0.012694
-0.778087019920 -1.883208632469 -0.324993282557 -0.927487 -0.373801 0.006379
-0.839121043682 -0.633482217789 0.110586442053 0.171947 0.975205 0.139315
-0.887312352657 -0.640952229500 0.109004966915 -0.340936 -0.754582 -0.560685
-0.904726982117 -0.616230070591 0.106729142368 0.184478 0.599172 0.779077
-0.883387506008 -0.624992251396 0.101381294429 -0.200334 -0.331048 -0.922103
-0.742644309998 -0.658482909203 0.148313850164 -0.430834 0.169722 0.886328
-0.953394830227 -0.598602533340 0.111748583615 -0.915181 -0.189889 -0.355507
-0.952417016029 -0.604852735996 0.159137174487 -0.616012 -0.782029 0.094659
-0.904916942120 -0.630293667316 0.165005296469 -0.324199 -0.891920 0.315235
-0.905847132206 -0.619814395905 0.188472673297 -0.329810 -0.853171 0.404134
-0.842380046844 0.794474422932 -0.262032359838 -0.709089 0.665066 -0.234267
-0.855974555016 -0.643254399300 -0.244929939508 -0.995000 0.003220 0.099822
-0.855024933815 -0.360596776009 -0.244906619191 -0.993746 0.003251 0.111620
-0.069369934499 -2.077034473419 -0.120601885021 -0.584070 0.334910 0.739390
-0.040980059654 -2.105743169785 -0.154206246138 -0.089630 -0.855044 0.510750
-0.059753783047 -2.120449542999 -0.212863042951 0.009833 0.116899 0.993095
-0.044051028788 -2.127151250839 -0.222409337759 -0.009833 -0.116899 -0.993095
-0.128016248345 -2.130199193954 -0.215385094285 -0.127994 -0.870070 0.476022
-0.127838730812 -2.130720615387 -0.219262704253 -0.131644 -0.950762 -0.280574
-0.166178151965 -2.098801851273 -0.184436202049 0.005451 0.116650 0.993158
-0.175066307187 -2.096012353897 -0.194882154465 -0.005451 -0.116650 -0.993158
-0.318510532379 -2.061058521271 -0.197852298617 -0.007633 -0.114497 -0.993394
-0.140662357211 -2.091677904129 -0.156007185578 -0.046932 -0.300617 0.952589
-0.225496888161 -2.060799598694 -0.128321141005 -0.062698 -0.295575 0.953260
-0.762937247753 -0.713504552841 0.090683780611 -0.945348 -0.039656 0.323644
-0.729771494865 -0.657477855682 0.171403765678 -0.908599 -0.049658 0.414708
-0.731406807899 -0.621649205685 0.166696995497 -0.925411 0.056928 0.374666
-0.716001093388 -0.690012812614 0.185656905174 -0.461849 -0.471711 0.751122
-0.433261245489 -1.957547187805 -0.104525104165 0.796380 -0.190339 0.574064
-0.486750304699 -1.922297716141 -0.120470687747 -0.952019 0.228214 0.203908
-0.418840527534 -1.987414717674 -0.177353709936 0.796380 -0.190339 0.574064
-0.474967390299 -1.958289504051 -0.209137484431 -0.796380 0.190339 -0.574064
-0.479734480381 -1.996553182602 -0.203223854303 -0.544455 -0.800302 -0.251167
0.008094936609 2.067142248154 0.094026140869 0.045913 0.983001 0.177764
-0.581516683102 0.431798487902 0.475378870964 -0.868038 0.025810 0.495827
-0.603551506996 0.484511494637 0.433960407972 -0.867973 0.028525 0.495791
-0.607684195042 0.520622611046 0.424425393343 -0.876347 0.028444 0.480840
-0.728665232658 0.669398128986 0.164021357894 -0.922941 0.019417 0.384451
-0.731582701206 0.654512107372 0.157306298614 -0.928370 0.006385 0.371603
-0.749652922153 0.519745528698 0.109322659671 -0.941995 -0.001248 0.335625
-0.747868001461 0.486893504858 0.114085927606 -0.942776 -0.003746 0.333406
-0.737235963345 0.375871181488 0.142514780164 -0.935843 -0.006315 0.352362
-0.686637282372 0.503737390041 0.269331812859 -0.917628 0.009060 0.397337
-0.663017213345 0.437058329582 0.321217238903 -0.902362 0.009168 0.430881
-0.638493478298 0.389775842428 0.371444076300 -0.884306 0.011968 0.466754
-0.569202780724 0.346049249172 0.500967681408 -0.873086 0.020242 0.487147
-0.737588405609 0.717613875866 0.139472171664 -0.938282 0.011396 0.345683
-0.740418910980 0.727404057980 0.131691351533 -0.935020 0.003786 0.354576
-0.735531687737 0.812845230103 0.140035703778 -0.934189 0.024415 0.355943
-0.725638449192 0.950581192970 0.154292494059 -0.925449 0.035243 0.377228
-0.742339789867 0.925829648972 0.117803752422 -0.911639 0.011738 0.410824
-0.687669515610 1.125260353088 0.221237555146 -0.887892 0.025445 0.459347
-0.699243366718 1.082325458527 0.201265037060 -0.887323 0.025506 0.460442
-0.694042623043 1.019489765167 0.215640142560 -0.895525 0.041746 0.443049
-0.707796335220 0.905471384525 0.196158364415 -0.896990 0.027989 0.441164
-0.725688278675 0.842536807060 0.163606330752 -0.910190 0.019701 0.413723
-0.730771899223 0.702184796333 0.157990947366 -0.918974 0.009048 0.394215
-0.610228002071 0.580796301365 0.415227800608 -0.870792 0.045254 0.489564
-0.585119962692 0.586240887642 0.457900375128 -0.859616 0.042774 0.509147
-0.598249316216 0.714876234531 0.421165347099 -0.864046 0.062612 0.499505
-0.621165454388 0.721596658230 0.382177799940 -0.858408 0.042714 0.511187
-0.642652094364 0.736604392529 0.342985570431 -0.882306 0.039425 0.469022
-0.670094609261 0.961243510246 0.269524425268 -0.895310 0.047407 0.442914
-0.656858503819 1.040781736374 0.288071066141 -0.892387 0.039152 0.449569
-0.649182379246 0.862794995308 0.321053713560 -0.889983 0.044702 0.453797
-0.656434893608 0.823341906071 0.309751540422 -0.877366 0.045169 0.477692
-0.612099528313 0.729525744915 0.396633237600 -0.855388 0.065799 0.513793
-0.567817389965 0.537811517715 0.492327988148 -0.863136 0.037050 0.503610
-0.649989008904 0.171253353357 0.349054247141 -0.892036 -0.003953 0.451947
-0.748156487942 0.125743046403 0.107632838190 -0.942486 -0.006258 0.334188
-0.753072857857 -0.087530687451 0.090483941138 -0.942205 -0.006273 0.334978
-0.761801242828 -0.219332113862 0.063191726804 -0.942205 -0.006273 0.334978
-0.759321331978 -0.283048361540 0.068578802049 -0.941881 -0.011318 0.335757
-0.762696683407 -0.397836595774 0.055812671781 -0.938584 -0.011369 0.344863
-0.745357215405 -0.568127453327 0.095821931958 -0.935977 -0.013970 0.351785
-0.750147521496 -0.573411047459 0.082904674113 -0.936320 -0.011403 0.350962
-0.746774613857 -0.598580658436 0.091041646898 -0.934819 -0.013990 0.354850
-0.716593623161 -0.677911043167 0.162530079484 -0.920908 -0.079551 0.381577
-0.734972298145 -0.677365779877 0.116352513433 -0.928253 -0.073459 0.364623
-0.739644467831 -0.344024330378 0.121868632734 -0.940504 -0.011362 0.339592
-0.730971634388 0.030010974035 0.153615251184 -0.938109 -0.006296 0.346282
-0.727188348770 0.074859671295 0.164548456669 -0.937301 -0.003774 0.348500
-0.698830366135 0.038192477077 0.237242400646 -0.928721 -0.006370 0.370724
-0.706615805626 0.004218785092 0.217421054840 -0.928733 -0.003822 0.370729
-0.714347779751 -0.049306266010 0.197184503078 -0.929597 -0.006376 0.368523
-0.696739256382 -0.195118099451 0.240097612143 -0.930303 -0.001269 0.366791
-0.714398086071 -0.324354410172 0.191695675254 -0.934003 -0.011437 0.357082
-0.698021709919 -0.367067515850 0.233052313328 -0.934136 -0.016613 0.356531
-0.694246590137 -0.468694269657 0.237395092845 -0.925146 -0.019409 0.379116
-0.673373937607 -0.531357705593 0.279471039772 -0.899585 -0.058344 0.432832
-0.667950749397 -0.405383884907 0.303316146135 -0.905696 -0.027847 0.423012
-0.677501261234 -0.417904525995 0.280600756407 -0.921675 -0.016852 0.387596
-0.669213593006 -0.367481410503 0.302446454763 -0.921108 -0.006423 0.389255
-0.677975416183 -0.296709150076 0.282832860947 -0.917604 -0.011648 0.397326
-0.676008939743 -0.210059508681 0.289242982864 -0.917533 -0.003861 0.397641
-0.681134045124 -0.166444092989 0.277658671141 -0.911587 0.006484 0.411057
-0.661734759808 -0.053404878825 0.321529507637 -0.911587 -0.006484 0.411057
-0.660153508186 0.031061043963 0.326018750668 -0.911599 -0.003890 0.411062
-0.677104592323 0.115316398442 0.289474576712 -0.910626 -0.003886 0.413214
-0.627945601940 -0.049271635711 0.389471352100 -0.890415 -0.006596 0.455101
-0.651411175728 -0.048998598009 0.343551367521 -0.889364 -0.001318 0.457199
-0.658179759979 -0.334320038557 0.326574683189 -0.898794 -0.011844 0.438211
-0.660721838474 -0.404857903719 0.318563431501 -0.897629 -0.022607 0.440171
-0.648241698742 -0.414177685976 0.342291265726 -0.878098 -0.042334 0.476604
-0.639679431915 -0.375243872404 0.361609786749 -0.876322 -0.042381 0.479858
-0.615487992764 0.054524406791 0.415576070547 -0.876375 -0.009337 0.481539
-0.568209290504 0.086146436632 0.501497983932 -0.863105 -0.009425 0.504937
-0.579950809479 -0.035537771881 0.478255003691 -0.863080 -0.012118 0.504922
-0.737967848778 -0.563429832458 0.115824773908 -0.936462 -0.016563 0.350377
-0.380754500628 1.139899849892 0.326062113047 -0.001251 0.941713 0.336415
-0.299032866955 1.143009066582 0.314480602741 0.029380 0.941422 0.335948
-0.332313328981 1.118488788605 0.351342946291 0.039371 0.313696 0.948707
-0.408039271832 1.115773439407 0.350007683039 -0.034077 0.309220 0.950380
-0.434677273035 1.090906500816 0.352633476257 -0.551699 0.265633 0.790612
-0.448475360870 1.109296202660 0.289692014456 -0.999889 0.014865 0.000991
-0.448879033327 1.082685112953 0.249671503901 -0.999889 0.014865 -0.000991
-0.371263295412 1.151118159294 0.269936591387 0.014185 0.994047 -0.108025
-0.381569504738 1.148965835571 0.248904123902 0.016399 0.993750 -0.110417
-0.320391982794 1.145379185677 0.224944531918 0.014182 0.993810 -0.110181
-0.278436511755 1.148190259933 0.256073236465 0.016367 0.994014 -0.108021
-0.424895226955 1.053163409233 0.341225802898 -0.026268 -0.559921 0.828130
-0.414636373520 1.110769629478 0.202399030328 -0.012258 0.546144 -0.837602
-0.425998985767 1.094607114792 0.206369072199 -0.031247 -0.291218 -0.956146
-0.353091806173 1.020867347717 0.260752111673 -0.012956 -0.976409 0.215540
-0.340826749802 1.023519515991 0.273836821318 -0.017675 -0.976832 0.213277
-0.309391081333 1.051409959793 0.217441946268 0.018610 -0.299000 -0.954072
-0.220885053277 1.076734066010 0.270851343870 0.999889 -0.014865 -0.000991
-0.230033397675 1.140642762184 0.230113372207 0.356573 0.928717 -0.101684
-0.042475461960 1.138467192650 0.315325111151 0.008861 0.935510 0.353190
-0.011055997573 1.069735527039 0.358210355043 -0.037678 -0.576329 0.816349
-0.083753220737 1.045686483383 0.278723835945 -0.999889 0.014865 0.000991
-0.083717077971 1.048068881035 0.258833497763 -0.999889 0.014865 0.000991
-0.083154827356 1.085132837296 0.221610188484 -0.999889 0.014865 -0.000991
-0.024027448148 1.122363448143 0.213100597262 -0.004045 0.529873 -0.848067
-0.014890358783 1.105062842369 0.201795592904 -0.012258 0.546144 -0.837602
-0.507129788399 1.024750828743 -0.035213835537 0.004041 0.850028 -0.526721
-0.405416339636 1.052545309067 0.010186559521 0.004041 0.850028 -0.526721
-0.526436030865 1.027144312859 -0.031475748867 0.004041 0.850028 -0.526721
-0.522675395012 1.029907226562 -0.027001570910 0.004041 0.850028 -0.526721
-0.484295845032 1.013575673103 -0.053078260273 0.004041 0.850028 -0.526721
-0.245565474033 1.106780648232 0.098540276289 0.004041 0.850028 -0.526721
-0.522241175175 1.015814900398 -0.049702510238 0.004041 0.850028 -0.526721
-0.172129109502 1.074834108353 0.047521159053 0.004041 0.850028 -0.526721
-0.326829105616 1.019601225853 -0.042408067733 0.004041 0.850028 -0.526721
-0.146600276232 1.106018424034 0.097917072475 0.004041 0.850028 -0.526721
-0.204015880823 0.979611217976 -0.107916772366 -0.001343 0.852716 -0.522373
0.015477266163 0.979333817959 -0.108946360648 -0.001343 0.852716 -0.522373
-0.381124347448 0.940050721169 -0.172192633152 -0.001343 0.852716 -0.522373
0.012812936679 0.945547878742 -0.164229780436 -0.001343 0.852716 -0.522373
-0.098613455892 0.970109403133 -0.123742915690 -0.001343 0.852716 -0.522373
-0.092918589711 0.955525279045 -0.147624537349 -0.001343 0.852716 -0.522373
-0.043051280081 0.976906895638 -0.112764582038 -0.001343 0.852716 -0.522373
-0.188267335296 1.041806340218 -0.006176434457 -0.001343 0.852716 -0.522373
-0.471891015768 0.951592981815 -0.153065890074 -0.001343 0.852716 -0.522373
-0.112435057759 1.050907015800 0.008517913520 -0.001343 0.852716 -0.522373
-0.055212087929 1.129000425339 0.141472771764 0.001015 0.999295 0.037537
-0.142152667046 1.128218173981 0.166139185429 0.001010 0.999374 0.035367
-0.077489599586 1.126769304276 0.177934125066 -0.003761 0.337207 0.941423
-0.266486644745 1.082740902901 0.192979261279 -0.003755 0.334192 0.942497
-0.158360332251 1.068653345108 0.198447674513 -0.003755 0.334192 0.942497
-0.123702563345 1.057100296021 0.196893811226 -0.004157 -0.683151 0.730265
-0.020117796957 1.037710070610 0.179364517331 -0.004157 -0.683151 0.730265
-0.135552600026 1.016802430153 0.125703930855 -0.003786 -0.935020 0.354576
-0.090093009174 1.016922354698 0.126372262836 -0.003786 -0.935020 0.354576
-0.044412042946 1.014877915382 0.121313884854 -0.003786 -0.935020 0.354576
-0.408040016890 1.022039055824 0.138965010643 0.001275 -0.926619 0.376001
-0.298251807690 1.021412253380 0.137045502663 0.001275 -0.926619 0.376001
-0.356493115425 1.006413340569 0.100398525596 0.001275 -0.926619 0.376001
-0.081684611738 0.961768627167 -0.025651618838 0.001248 -0.941995 0.335625
-0.209622129798 0.971252620220 0.001269842498 0.001248 -0.941995 0.335625
-0.198770463467 0.970174729824 -0.001782448730 0.001248 -0.941995 0.335625
-0.127424329519 0.958835065365 -0.033807128668 0.001248 -0.941995 0.335625
-0.141343310475 0.979588389397 0.024568224326 0.001248 -0.941995 0.335625
-0.254078179598 0.971576273441 0.002064362168 -0.013584 -0.954589 0.297615
-0.347062647343 0.979302108288 0.022407986224 -0.013584 -0.954589 0.297615
0.004375755787 0.939346134663 -0.089045792818 -0.013584 -0.954589 0.297615
-0.304124921560 0.965124368668 -0.021081872284 -0.013584 -0.954589 0.297615
-0.441622614861 0.952545106411 -0.068135291338 -0.013584 -0.954589 0.297615
-0.383997559547 0.969794750214 -0.009924747050 -0.013584 -0.954589 0.297615
-0.541610121727 0.873384833336 -0.245945453644 -0.014456 -0.902839 0.429736
-0.338944286108 0.898779690266 -0.186250284314 -0.014456 -0.902839 0.429736
-0.271840155125 0.937221407890 -0.103491052985 -0.014456 -0.902839 0.429736
-0.486070066690 0.857523918152 -0.277451068163 -0.014456 -0.902839 0.429736
-0.091980926692 0.921730220318 -0.130276545882 -0.014456 -0.902839 0.429736
-0.217218041420 0.905957043171 -0.167333900928 -0.014456 -0.902839 0.429736
-0.533596396446 0.939800202847 -0.106387011707 -0.014456 -0.902839 0.429736
-0.168933048844 0.934445083141 -0.106049239635 -0.014456 -0.902839 0.429736
-0.085059195757 0.890369594097 -0.195822849870 -0.014456 -0.902839 0.429736
-0.000796995591 0.901309609413 -0.170200765133 -0.014456 -0.902839 0.429736
-0.143972381949 0.879968822002 -0.219507783651 -0.014456 -0.902839 0.429736
-0.076586097479 0.861413002014 -0.256276190281 -0.014456 -0.902839 0.429736
-0.117029681802 0.875550448895 -0.227916061878 -0.014456 -0.902839 0.429736
-0.092583790421 0.886296987534 -0.204602673650 -0.014456 -0.902839 0.429736
-0.284617036581 0.847103357315 -0.292901813984 -0.014456 -0.902839 0.429736
-0.494096279144 1.090658187866 0.132713675499 0.991232 0.117488 -0.060455
-0.491540819407 1.086193084717 0.167047917843 0.991406 0.117239 -0.058050
-0.537249505520 1.102548837662 0.097681663930 0.093029 0.845845 -0.525254
-0.543329596519 0.933701395988 -0.183383613825 -0.221913 0.852931 -0.472508
-0.508145093918 1.046157717705 0.042992167175 0.986409 -0.157220 -0.047748
-0.525153279305 1.122361660004 0.181806176901 0.493711 0.767452 0.408982
-0.537178695202 1.134467601776 0.168348908424 -0.284742 0.800739 0.527009
-0.569606065750 1.116704463959 0.126500874758 -0.144251 0.864051 -0.482295
-0.592701435089 0.954167366028 -0.163270905614 -0.201204 0.862943 -0.463515
-0.560828089714 1.015033960342 -0.051554597914 0.263404 0.815149 -0.515897
-0.597575604916 0.933999240398 -0.197661668062 0.286334 0.783068 -0.552103
-0.560152411461 0.880257904530 -0.265922367573 -0.006727 0.856998 -0.515275
-0.544713258743 0.898870348930 -0.221637994051 0.989247 -0.140668 -0.040027
-0.513108730316 1.029251575470 0.155645668507 0.351809 -0.864927 0.357954
-0.622710049152 0.990072965622 -0.088338099420 0.838623 -0.522105 0.155300
-0.614384829998 1.026577234268 0.047686055303 -0.986655 0.154929 0.050090
-0.623130977154 0.955746471882 0.022839894518 -0.798011 -0.200652 0.568258
-0.639419078827 0.920951783657 -0.085300862789 -0.989470 0.138411 0.042324
-0.646053433418 0.898034512997 -0.148083820939 -0.973138 0.227910 0.032559
-0.643970429897 0.861250519753 -0.255948483944 -0.983033 -0.170392 -0.067919
-0.618125081062 0.816607832909 -0.212164923549 -0.578500 -0.754774 -0.309281
-0.579020917416 1.040730118752 0.172485947609 -0.326171 -0.803494 0.498007
-0.592424869537 1.041696310043 0.146903023124 -0.868371 -0.317024 0.381348
-0.542102754116 0.899844169617 -0.011894376948 0.915594 -0.305198 0.261805
-0.543342888355 0.884624302387 -0.088653251529 0.975196 -0.218971 -0.032307
-0.650017917156 0.867160081863 -0.138272911310 -0.966439 -0.255355 0.028101
-0.645714640617 0.843998312950 -0.173273265362 -0.973288 -0.226093 0.039899
-0.569048702717 0.519042730331 -0.401723712683 0.511442 -0.048511 -0.857947
-0.546144664288 0.700200557709 -0.339459419250 0.988874 -0.120253 0.087563
-0.558809340000 0.843504071236 -0.302041202784 0.237081 0.063304 0.969425
-0.579637229443 0.840828597546 -0.339590191841 0.297098 0.854349 -0.426405
-0.548116803169 0.825022399426 -0.345905035734 0.394344 0.799955 -0.452288
-0.535493731499 0.750950574875 -0.390170335770 0.988144 -0.125721 0.088122
-0.599344551563 0.474060475826 -0.407476425171 0.127151 -0.014374 -0.991779
-0.662557184696 0.624773502350 -0.402642577887 -0.627741 0.073597 -0.774935
-0.612013578415 0.773706495762 -0.408554017544 -0.156043 0.021641 -0.987513
-0.648274838924 0.548661947250 -0.407499879599 -0.124701 0.014346 -0.992091
-0.618068337440 0.845551311970 -0.323524624109 -0.199195 0.880885 -0.429376
-0.650483906269 0.816262125969 -0.318150937557 -0.909239 0.163635 0.382763
-0.663086652756 0.746940732002 -0.333353430033 -0.988874 0.120253 -0.087563
-0.678819477558 0.584879159927 -0.367085307837 -0.995717 0.092452 -0.001063
-0.666827559471 0.547590196133 -0.233030527830 -0.433406 0.038913 0.900358
-0.585761427879 0.602962732315 -0.229208707809 0.383678 0.310305 0.869771
-0.598648607731 0.462621659040 -0.303101778030 0.376522 -0.902781 0.207887
-0.606162428856 0.484004467726 -0.257694154978 0.412975 -0.668389 0.618633
-0.566990971565 0.572658777237 -0.241023063660 0.918290 -0.085454 0.386577
-0.363297730684 0.445090353489 -0.368062645197 -0.037517 -0.829536 -0.557192
-0.356603354216 0.446994155645 -0.371351301670 -0.037517 -0.829536 -0.557192
-0.476463913918 0.448424458504 -0.365460664034 -0.037517 -0.829536 -0.557192
