-0.886011660099 1.539883017540 0.201118826866 0.955534 -0.003670 -0.294858
-0.883358657360 1.485184311867 0.205626800656 0.814648 0.004094 -0.579942
-0.881678581238 1.587704420090 0.208416804671 0.805702 0.004104 -0.592307
-0.877436161041 1.650064468384 0.226395457983 0.948924 -0.003712 -0.315483
-0.848589301109 1.670744180679 0.267411708832 0.756412 0.004149 -0.654082
-0.801407873631 1.574759244919 0.298144340515 0.187957 0.026851 -0.981810
-0.811294794083 1.438192367554 0.297724187374 0.885870 -0.120865 -0.447912
-0.769516587257 1.587291598320 0.353438884020 0.907617 -0.145388 -0.393818
-0.715112864971 1.398611426353 0.496948301792 0.341354 -0.293654 -0.892886
-0.643085956573 1.283595442772 0.573500573635 0.498229 -0.293908 -0.815712
-0.910201430321 0.889991044998 -0.273099869490 0.999471 0.017320 0.027508
-0.902076184750 0.775151193142 -0.289146989584 0.992284 0.064788 0.105707
-0.904895186424 0.759376168251 -0.253199964762 0.992284 0.064788 0.105707
-0.895214974880 0.683105468750 -0.319210916758 0.994296 -0.001077 0.106647
-0.908984959126 0.447956144810 -0.193842977285 0.994296 -0.001077 0.106647
-0.901221275330 0.648721933365 -0.263834238052 0.994296 -0.001077 0.106647
-0.892986834049 0.456618130207 -0.343112140894 0.994296 -0.001077 0.106647
-0.901902318001 0.461043000221 -0.259788662195 0.994296 -0.001077 0.106647
-0.894082963467 0.398702353239 -0.333354890347 0.994321 -0.001075 0.106419
-0.904996395111 0.364567130804 -0.231561690569 0.994296 -0.001077 0.106647
-0.908328354359 0.240547984838 -0.201747849584 0.994296 -0.001077 0.106647
-0.909152448177 0.129992842674 -0.194830060005 0.994296 -0.001077 0.106647
-0.892608344555 0.121089972556 -0.348032802343 0.994296 -0.001077 0.106647
-0.893176972866 0.073323898017 -0.342899531126 0.994296 -0.001077 0.106647
-0.905538678169 -0.127153649926 -0.230895936489 0.994040 -0.001079 0.109010
-0.900983929634 -0.113436892629 -0.271993100643 0.994040 -0.001079 0.109010
-0.903308749199 -0.053923919797 -0.250152140856 0.994040 -0.001079 0.109010
-0.892944693565 -0.336557179689 -0.347453743219 0.994040 -0.001079 0.109010
-0.896428525448 -0.513460397720 -0.317815810442 0.994040 -0.001079 0.109010
-0.882028162479 -0.571395099163 -0.395695507526 0.969220 -0.003568 0.246170
-0.883403480053 -0.383221089840 -0.388432472944 0.969220 -0.003568 0.246170
-0.875671207905 -0.341793894768 -0.420788437128 0.972780 0.001176 0.231726
-0.875853836536 -0.436924040318 -0.419706970453 0.972780 0.001176 0.231726
-0.884648323059 -0.074033074081 -0.383080303669 0.972780 -0.001176 0.231726
-0.874851226807 0.017869979143 -0.425178110600 0.974588 0.001173 0.224003
-0.883040606976 0.130220323801 -0.390180826187 0.974588 0.001173 0.224003
-0.868484795094 0.181119889021 -0.461881607771 0.977717 0.001160 0.209925
-0.865888178349 0.689960598946 -0.505230069160 0.999513 0.001007 -0.031203
-0.866209506989 0.311895012856 -0.519397139549 0.999575 0.001005 -0.029133
-0.865450859070 0.278176605701 -0.494316339493 0.999513 0.001007 -0.031203
-0.865523219109 0.107852458954 -0.499217927456 0.999511 0.001009 -0.031266
-0.865633130074 -0.100041277707 -0.510864675045 0.999632 0.001005 -0.027126
-0.864598572254 -0.333793044090 -0.495392113924 0.999626 0.003020 -0.027180
-0.864326834679 -0.430540442467 -0.484781265259 0.999976 0.000985 -0.006896
-0.869199395180 -0.321109056473 -0.455546796322 0.973953 0.001175 0.226747
-0.889134407043 -0.627444922924 -0.367881178856 0.969220 0.003568 0.246170
-0.879248499870 -0.643837571144 -0.406610846519 0.969220 0.003568 0.246170
-0.867439270020 -0.980831146240 -0.456544280052 0.969926 0.003562 0.243372
-0.864704430103 -0.615230500698 -0.473738402128 0.973826 0.003533 0.227265
-0.863920032978 -0.679334402084 -0.499970763922 0.999964 0.004936 -0.006910
-0.871396362782 0.796272516251 -0.512640833855 0.997624 0.066508 -0.017947
-0.184990957379 -2.342221736908 -0.511512756348 0.039266 0.979271 0.198710
-0.078248739243 -2.311074018478 -0.462957382202 0.001026 0.050296 -0.998734
-0.423790037632 -2.312887191772 -0.413934946060 -0.962720 0.025820 -0.269266
-0.457050234079 -2.313865900040 -0.423877924681 0.290544 0.917888 0.270307
-0.737884163857 -2.184792995453 -0.498118638992 0.557619 0.513818 -0.651960
-0.812815487385 -2.058041334152 -0.476868420839 0.872705 0.487249 -0.031217
-0.794674456120 -2.093607425690 -0.386143982410 0.895617 0.444491 0.017249
-0.845786571503 -1.991374850273 -0.361416548491 0.920305 0.391097 0.009035
-0.879311859608 -1.911313533783 -0.304349839687 0.938820 0.342907 -0.032107
-0.873882293701 -1.917363643646 -0.235134154558 0.919923 0.336973 -0.200478
-0.835811614990 -2.025905609131 -0.220230668783 0.948307 0.316937 0.016285
-0.845187187195 -1.996288061142 -0.481772124767 0.948877 0.310284 -0.057937
-0.844537973404 -1.957714676857 -0.521120011806 0.969728 0.120739 0.212247
-0.884777724743 -1.642125248909 -0.024441635236 0.853599 0.129421 -0.504598
-0.868098080158 -1.737013101578 -0.027457002550 0.857971 0.166869 -0.485839
-0.658690690994 -2.238527059555 -0.175144761801 0.399176 0.506709 -0.764137
-0.664828002453 -2.280641078949 -0.221038624644 0.588363 0.793010 -0.158000
-0.567069113255 -2.322956562042 -0.201499655843 0.232062 0.514840 -0.825280
-0.492611646652 -2.308468341827 -0.177405342460 0.158206 0.507146 -0.847215
-0.478285998106 -2.344332933426 -0.196542054415 0.074620 0.513889 -0.854605
-0.339705079794 -2.360053539276 -0.196149379015 0.060513 0.538984 -0.840140
-0.253198206425 -2.386785984039 -0.225419610739 0.041874 0.977450 -0.206975
-0.104411825538 -2.385511398315 -0.210931211710 -0.020531 0.535167 -0.844497
-0.746905326843 -2.068111896515 -0.112823769450 -0.716043 -0.506712 0.480131
-0.766657173634 -2.041580438614 -0.114100269973 -0.672241 -0.501247 0.544834
-0.238302931190 -2.338217258453 -0.155445888638 0.033515 0.894193 -0.446426
-0.006580943707 -2.388631343842 -0.214798688889 0.018089 0.624762 -0.780605
-0.239524409175 -2.375550746918 -0.283894747496 0.051739 0.978236 0.200941
-0.113098189235 -2.379117727280 -0.294436901808 0.040282 0.970423 0.238028
-0.293187797070 -2.354863405228 -0.323197543621 0.072795 0.566660 0.820730
-0.458777755499 -2.338609218597 -0.326760560274 0.322625 0.889846 0.322625
-0.478193223476 -2.351587772369 -0.269609808922 0.232315 0.924983 0.300726
-0.436280190945 -2.352497577667 -0.290929883718 0.131742 0.951469 0.278122
-0.364015817642 -2.357717752457 -0.304944127798 0.119006 0.945360 0.303532
-0.423778742552 -2.367246389389 -0.225923255086 0.135383 0.981834 0.132944
-0.703619182110 -2.251224279404 -0.251378566027 0.585192 0.809727 0.043504
-0.724723994732 -2.232656955719 -0.241450145841 0.692363 0.720681 0.035397
-0.787666618824 -2.147242307663 -0.242918670177 0.903365 0.428870 -0.001304
-0.807243585587 -2.106141567230 -0.241784468293 0.901849 0.431890 -0.011815
-0.824279189110 -2.060393571854 -0.245013788342 0.951670 0.306385 -0.021259
-0.778045594692 -2.141211271286 -0.338135302067 0.833824 0.508800 0.214151
-0.543880999088 -2.325044155121 -0.285291492939 0.286469 0.897999 0.333966
-0.723816215992 -2.198790073395 -0.363571614027 0.666532 0.743604 0.052809
-0.755019247532 -2.166444063187 -0.392724424601 0.662640 0.739725 0.117111
-0.768917500973 -2.146160125732 -0.376034379005 0.854781 0.511735 0.086470
-0.775128841400 -2.139228820801 -0.354719936848 0.853568 0.520335 0.025948
-0.243275001645 -2.345992803574 -0.323971927166 -0.001026 -0.050296 0.998734
-0.862789928913 -0.877796053886 -0.497109085321 0.999461 0.009151 0.031519
-0.914142310619 1.495335936546 0.011360099539 0.971242 -0.013141 -0.237733
-0.907933533192 1.414010763168 0.041784625500 0.993804 -0.001079 -0.111142
-0.895788967609 1.737944722176 0.148117139935 0.993804 -0.001079 -0.111142
-0.906237244606 1.686096072197 0.053984593600 0.995043 -0.022837 -0.096786
-0.903357446194 1.717793226242 0.076126009226 0.995043 -0.022837 -0.096786
-0.890249013901 1.806501269341 0.181981205940 0.992110 -0.041666 -0.118242
-0.880690455437 1.889879226685 0.201785251498 0.949137 -0.034215 -0.313000
-0.876150250435 1.808661222458 0.223881900311 0.942504 -0.037187 -0.332120
-0.870568335056 1.808722853661 0.240247070789 0.948354 -0.042008 -0.314421
-0.808895885944 1.836081862450 0.298206508160 0.599610 -0.023650 -0.799943
-0.778611123562 1.821732521057 0.308632671833 0.186703 0.019714 -0.982219
-0.780823826790 1.879893660545 0.309519052505 0.220764 0.027446 -0.974941
-0.741168677807 1.802093029022 0.315406680107 0.107514 0.057718 -0.992527
-0.652777254581 1.997577190399 0.327352404594 0.082146 -0.044906 -0.995608
-0.564236700535 2.031999349594 0.332917004824 0.072203 -0.033407 -0.996830
-0.558118581772 1.972788453102 0.334960520267 0.023623 -0.027731 -0.999336
-0.410002678633 2.028350830078 0.336854904890 0.023623 -0.027731 -0.999336
-0.332699567080 2.112205028534 0.337262451649 0.021100 0.009043 -0.999736
-0.241283684969 2.178579092026 0.338613897562 0.006951 0.008937 -0.999936
-0.297537147999 2.140724182129 0.337872177362 0.006951 0.008937 -0.999936
-0.237858951092 2.089999198914 0.337621092796 0.004975 0.014924 -0.999876
-0.017974659801 2.097393751144 0.338764935732 0.004975 0.014924 -0.999876
-0.059786163270 2.042573213577 0.339793533087 0.005033 -0.027180 -0.999618
-0.111083805561 2.029127597809 0.339871346951 0.005033 -0.027180 -0.999618
-0.204997465014 2.015712261200 0.339719444513 0.005033 -0.027180 -0.999618
-0.281788825989 2.028954982758 0.338949203491 0.005043 -0.027235 -0.999616
-0.195116400719 1.985561251640 0.340581208467 0.005043 -0.027235 -0.999616
-0.106349900365 1.956005334854 0.341423779726 0.004965 -0.010923 -0.999928
-0.151323139668 1.892405390739 0.342173725367 0.006992 -0.016980 -0.999831
-0.062143255025 1.935958862305 0.342033535242 0.006992 -0.016980 -0.999831
-0.389783293009 1.905131340027 0.339810669422 0.021227 -0.013140 -0.999688
-0.507233321667 1.915580749512 0.336944252253 0.025067 0.001003 -0.999685
-0.690716564655 1.778439879417 0.328961580992 0.319795 -0.467878 -0.823906
-0.340584874153 2.015460014343 0.338858991861 0.023623 -0.027731 -0.999336
-0.330687165260 2.066129922867 0.337658673525 0.023623 -0.027731 -0.999336
-0.012781214900 2.279580593109 0.342828780413 0.007103 0.031456 -0.999480
-0.188167586923 2.295543670654 0.341918021441 0.009096 0.027289 -0.999586
-0.350930690765 2.204480886459 0.337528049946 0.027729 0.025675 -0.999286
-0.524180114269 2.188359260559 0.332367569208 0.027729 0.025675 -0.999286
-0.435746103525 2.146250724792 0.335230737925 0.029428 -0.009133 -0.999525
-0.600158631802 2.120321989059 0.328106522560 0.077663 -0.015958 -0.996852
-0.730091094971 2.141452550888 0.305239915848 0.209305 -0.067320 -0.975530
-0.748216450214 1.967315316200 0.313429355621 0.199047 -0.056698 -0.978348
-0.755407989025 1.936285495758 0.314412146807 0.232962 -0.089407 -0.968367
-0.820584893227 1.936124444008 0.285618245602 0.543012 -0.136857 -0.828498
-0.856220364571 1.987895011902 0.212214723229 0.977928 -0.206068 -0.034543
-0.869733512402 1.944727897644 0.206161305308 0.899880 -0.186332 -0.394330
-0.898462533951 1.926575183868 0.037113856524 0.993910 -0.101283 -0.043407
-0.890956640244 2.027087450027 -0.048197802156 0.989729 -0.135845 -0.044521
-0.898664891720 1.958494067192 -0.052202250808 0.995499 -0.088513 -0.033875
-0.904170751572 1.853456616402 -0.018556073308 0.998961 -0.030083 -0.034232
-0.903052747250 1.830806970596 0.044311255217 0.999030 -0.038305 -0.021741
-0.927689552307 1.539065241814 -0.052065193653 0.986767 -0.054756 -0.152617
-0.831345677376 2.168053627014 0.178150236607 0.851103 -0.467422 -0.239040
-0.906710207462 1.850151062012 -0.095122747123 0.999223 -0.029843 0.025727
-0.908758103848 1.776824474335 -0.092734880745 0.999507 -0.027453 -0.015252
-0.906118571758 1.853464365005 -0.114537790418 0.999277 -0.029783 0.023621
-0.852137327194 2.225494384766 -0.078304380178 0.870364 -0.486338 -0.077085
-0.037628524005 2.403274297714 -0.122977644205 0.017115 -0.999739 0.015102
-0.436916887760 2.389669895172 -0.119082480669 0.068330 -0.997618 0.009461
-0.905829846859 1.840092658997 -0.143331855536 0.999274 -0.029844 0.023670
-0.910486876965 1.832825660706 -0.238907068968 0.971740 -0.171933 -0.161744
-0.911589801311 1.839012026787 -0.274516433477 0.988795 -0.148037 0.019211
-0.902485251427 1.808382272720 -0.415096610785 0.967399 -0.223639 0.118848
-0.898367464542 1.823498129845 -0.422850131989 0.977901 -0.092023 -0.187728
-0.867981195450 2.106299400330 -0.366313040257 0.981300 -0.070865 -0.178964
-0.855133295059 2.173813104630 -0.398654192686 0.883455 -0.145561 0.445331
-0.850935101509 2.086549043655 -0.440744936466 0.906159 -0.160747 0.391199
-0.382705122232 2.292473793030 -0.421920120716 0.052680 -0.625042 0.778811
-0.430456697941 2.284645318985 -0.424929499626 0.052680 -0.625042 0.778811
-0.496442914009 2.321003198624 -0.390991359949 0.055543 -0.628063 0.776178
-0.452335745096 2.367527484894 -0.354746907949 0.075082 -0.993998 -0.079565
-0.535527229309 2.356872081757 -0.313528656960 0.147463 -0.984289 -0.097110
-0.048724889755 2.382875442505 -0.356122940779 0.018124 -0.996802 -0.077825
-0.107586607337 2.357844591141 -0.377692103386 0.012470 -0.622109 0.782832
-0.220768049359 2.367711067200 -0.367946475744 0.012470 -0.622109 0.782832
-0.301819175482 2.328384399414 -0.397996068001 0.012448 -0.623803 0.781483
-0.195902779698 2.336014270782 -0.393619507551 0.012448 -0.623803 0.781483
-0.131959676743 2.379115104675 -0.326167732477 0.018088 -0.996978 -0.075545
-0.037987530231 2.401740312576 -0.213727146387 0.017115 -0.999739 0.015102
-0.325912266970 2.396554470062 -0.173249989748 0.068614 -0.997549 0.013723
-0.455771833658 2.387501001358 -0.183004423976 0.068472 -0.997586 0.011588
-0.534229159355 2.381017446518 -0.199660703540 0.144231 -0.989493 0.010063
-0.636955440044 2.366658687592 -0.179065346718 0.138020 -0.990429 0.001104
-0.885129034519 2.092892646790 -0.224104136229 0.994066 -0.108776 -0.001077
-0.894068598747 2.013046503067 -0.209523186088 0.997014 -0.075548 0.015961
-0.870716929436 2.083359718323 -0.297671139240 0.939287 -0.134184 0.315807
-0.861427843571 2.160807609558 -0.289513200521 0.916961 -0.264258 0.298915
-0.853828907013 2.200582981110 -0.278296291828 0.915334 -0.255946 0.310895
-0.850519716740 2.247349500656 -0.239349439740 0.761685 -0.569259 0.309484
-0.736738383770 2.316162824631 -0.289779961109 0.416074 -0.852256 0.317083
-0.788487315178 2.265927076340 -0.387521862984 0.275633 -0.642082 0.715372
-0.699635267258 2.250472545624 -0.424008369446 0.145677 -0.635273 0.758423
-0.738743245602 2.291493654251 -0.381378829479 0.162578 -0.645754 0.746036
-0.679834604263 2.335809230804 -0.333842426538 0.255652 -0.958368 -0.127171
-0.743573963642 2.319906473160 -0.271032989025 0.421530 -0.847727 0.321981
-0.731237292290 2.338029861450 -0.235505148768 0.231825 -0.917221 0.323979
-0.384713679552 2.385307312012 -0.234574511647 0.066114 -0.947640 0.312423
-0.377388000488 2.368368387222 -0.287219226360 0.066223 -0.946601 0.315534
-0.390655755997 2.367416620255 -0.297628343105 0.072853 -0.994163 -0.079578
-0.680632531643 2.353812217712 -0.227037742734 0.231825 -0.917221 0.323979
-0.560194134712 2.353872299194 -0.357891172171 0.104388 -0.630738 0.768942
-0.076793283224 2.401823043823 -0.169336438179 0.017149 -0.999706 0.017149
-0.876737952232 2.015825510025 -0.405222415924 0.917342 -0.100099 0.385311
-0.897741198540 1.796978235245 -0.448044478893 0.898746 -0.202473 0.388922
-0.861814558506 2.014793634415 -0.439335525036 0.907108 -0.112866 0.405482
-0.779741048813 2.314692974091 -0.085881598294 0.548052 -0.835326 -0.043231
-0.614353060722 2.355171442032 -0.048724744469 0.080798 -0.517392 -0.851925
-0.702599525452 2.351558208466 -0.082512818277 0.276796 -0.960928 -0.001209
-0.208447352052 2.365182876587 -0.035357423127 0.009422 -0.510112 -0.860057
-0.161502942443 2.401945352554 -0.076127633452 0.017149 -0.999706 0.017149
-0.268520414829 2.400061845779 -0.083194784820 0.017115 -0.999739 0.015102
-0.451630800962 2.350362300873 0.020539134741 0.084543 -0.996323 -0.013912
-0.488962262869 2.346191883087 0.072558857501 0.082670 -0.995342 -0.049602
-0.324899554253 2.358758926392 0.007242271677 0.041450 -0.997995 -0.047827
-0.034818142653 2.364346981049 -0.004277809989 0.017081 -0.999769 0.013062
-0.083118923008 2.363436698914 0.002457183320 0.015867 -0.997507 -0.068757
-0.076869815588 2.359261035919 0.012841296382 0.009727 -0.665625 -0.746223
-0.056478925049 2.352933168411 0.015171849169 -0.001026 0.052343 -0.998629
-0.111545383930 2.343321323395 0.014720013365 -0.001026 0.052343 -0.998629
-0.080460868776 2.336538076401 0.092250198126 0.017738 -0.998535 -0.051127
-0.114842601120 2.335649013519 0.097623884678 0.017738 -0.998535 -0.051127
-0.275931984186 2.336477041245 0.037685304880 0.015679 -0.998223 -0.057489
-0.138893827796 2.339186906815 0.026970379055 0.015679 -0.998223 -0.057489
-0.040939833969 2.341487169266 0.147914618254 0.001026 -0.052343 0.998629
-0.217058807611 2.352355718613 0.162501186132 0.019552 -0.999232 -0.033959
-0.121061816812 2.347929477692 0.185079783201 0.018580 -0.954996 -0.296036
-0.244256541133 2.348978757858 0.174245506525 0.015986 -0.957940 -0.286521
-0.108974955976 2.335332632065 0.213871508837 0.015073 -0.831745 -0.554953
-0.165198847651 2.328211545944 0.227782264352 0.016980 -0.999831 0.006992
-0.216012567282 2.327349185944 0.232706949115 0.016980 -0.999831 -0.006992
-0.085977062583 2.329556226730 0.259820580482 0.016913 -0.999852 0.002985
-0.258906722069 2.326598405838 0.294538289309 0.018902 -0.999821 -0.000995
-0.187324181199 2.327838897705 0.321943610907 0.018902 -0.999821 -0.000995
-0.347580581903 2.316783666611 0.339858949184 0.042702 0.023955 -0.998801
-0.515469312668 2.236986637115 0.332375258207 0.044239 -0.009259 -0.998978
-0.554211914539 2.228186130524 0.328619837761 0.107915 -0.036713 -0.993482
-0.620662808418 2.166067361832 0.323804050684 0.108595 -0.045901 -0.993026
-0.767675459385 2.100226879120 0.291515380144 0.463936 -0.118482 -0.877910
-0.798319339752 2.107377767563 0.269684404135 0.611399 -0.151723 -0.776641
-0.877381742001 2.036623001099 0.110081411898 0.973456 -0.111790 -0.199715
-0.880722045898 2.067648649216 0.072790548205 0.991472 -0.124919 -0.037138
-0.843177735806 2.136808395386 0.169654205441 0.934461 -0.273193 -0.228361
-0.820827245712 2.166329622269 0.215218082070 0.964813 -0.247877 0.087710
-0.805468022823 2.144449710846 0.255007445812 0.717805 -0.216431 -0.661751
-0.568509876728 2.297383546829 0.312213689089 0.159333 -0.981538 -0.105816
-0.540572226048 2.303113222122 0.281517803669 0.149655 -0.988183 -0.033130
-0.602864384651 2.295882940292 0.237693682313 0.141570 -0.988690 -0.049492
-0.436579436064 2.315624237061 0.238419383764 0.078477 -0.996554 -0.026876
-0.429790139198 2.314846754074 0.298702210188 0.087863 -0.996132 -0.001059
-0.358393907547 2.349909067154 0.099218405783 -0.487558 -0.859449 -0.153735
-0.740001857281 1.742667913437 0.329864621162 0.322725 -0.461261 -0.826491
-0.762753665447 1.355164289474 0.425416469574 0.907762 0.003896 -0.419467
-0.759929418564 1.341654777527 0.431349873543 0.903359 0.003911 -0.428867
-0.725848793983 1.289374470711 0.502720952034 0.885632 -0.042044 -0.462481
-0.760473549366 1.474540948868 0.405292481184 0.897384 -0.092928 -0.431354
-0.774837791920 1.423839688301 0.384581178427 0.913478 -0.080321 -0.398881
-0.651281416416 1.249708890915 0.579462945461 0.454518 -0.145734 -0.878735
-0.651488006115 1.149494290352 0.601330876350 0.588818 -0.194233 -0.784581
-0.677693128586 -0.652273416519 0.407758921385 0.191840 0.465471 -0.864022
-0.706511199474 -0.737003803253 0.355753183365 0.191840 0.465471 -0.864022
-0.624643445015 -0.419224709272 0.539911091328 0.197127 0.446129 -0.872989
-0.564685046673 -0.258572459221 0.616433918476 0.185562 0.347043 -0.919309
-0.642550289631 -0.368376046419 0.559269487858 0.185562 0.347043 -0.919309
-0.603291869164 -0.002066016197 0.672270298004 0.586275 0.109653 -0.802656
-0.498489230871 0.050567418337 0.700425565243 0.166843 0.166843 -0.971765
-0.560433387756 -0.014524275437 0.678622007370 0.166843 0.166843 -0.971765
-0.558502197266 -0.062743604183 0.670703768730 0.174836 0.162074 -0.971167
-0.567046701908 -0.112985298038 0.660794794559 0.174836 0.162074 -0.971167
-0.450759708881 -0.090074665844 0.683966636658 0.096027 0.168959 -0.980934
-0.405839890242 -0.010664880276 0.701928198338 0.096027 0.168959 -0.980934
-0.315958023071 -0.271956562996 0.645544171333 0.101429 0.355677 -0.929089
-0.384454220533 -0.185924187303 0.671075284481 0.101429 0.355677 -0.929089
-0.211743175983 -0.210945650935 0.673093616962 0.021806 0.360440 -0.932527
-0.248245537281 -0.243390142918 0.659738361835 0.021806 0.360440 -0.932527
-0.213304191828 -0.290451645851 0.642386436462 0.021826 0.358205 -0.933388
-0.095678769052 -0.270318210125 0.652865767479 0.021826 0.358205 -0.933388
-0.737446069717 -0.980149269104 0.217299774289 0.280732 0.431069 -0.857536
-0.716424763203 -1.063346505165 0.204869419336 0.132032 0.101105 -0.986076
-0.751268029213 -1.207338690758 0.180782541633 0.219655 0.127169 -0.967254
-0.778613626957 -1.277618408203 0.164506852627 0.221472 0.141172 -0.964894
-0.806929588318 -1.421888709068 0.126142799854 0.470691 0.165695 -0.866600
-0.739840269089 -1.532068967819 0.129938408732 0.345397 0.204945 -0.915805
-0.761376976967 -1.625049829483 0.103432662785 0.346321 0.182348 -0.920223
-0.819644451141 -1.326039433479 0.136362195015 0.524893 0.133051 -0.840705
-0.815048635006 -1.210991621017 0.156986653805 0.529585 0.099028 -0.842457
-0.845069348812 -1.033123373985 0.157939329743 0.699667 0.092409 -0.708468
-0.880735039711 -0.493103325367 0.151144415140 0.955431 0.021121 -0.294457
-0.878246724606 -0.840143859386 0.132694676518 0.942412 0.024099 -0.333586
-0.873801231384 -0.677054882050 0.153402268887 0.751679 0.041052 -0.658250
-0.851413846016 -0.911475777626 0.161536276340 0.710585 0.046993 -0.702041
-0.856971621513 -0.734528183937 0.167559444904 0.710585 0.046993 -0.702041
-0.833729982376 -0.469337999821 0.209600180387 0.730201 0.044125 -0.681806
-0.832861185074 -0.654765963554 0.198158502579 0.730201 0.044125 -0.681806
-0.828884184361 -0.458293318748 0.215639531612 0.738287 0.046943 -0.672851
-0.842578709126 0.349955409765 0.239324152470 0.711009 0.029567 -0.702561
-0.842096507549 0.622726678848 0.249964311719 0.770674 0.020904 -0.636886
-0.838674008846 1.405968427658 0.273739695549 0.674369 0.009733 -0.738330
-0.866426825523 1.376174449921 0.244058385491 0.755354 0.012520 -0.655197
-0.838632166386 1.025989055634 0.266547739506 0.775689 0.018104 -0.630856
-0.852189958096 0.361693501472 0.229617372155 0.775689 0.018104 -0.630856
-0.861416280270 0.836184859276 0.233256712556 0.756814 0.020984 -0.653294
-0.856212973595 0.568374812603 0.231053709984 0.756814 0.020984 -0.653294
-0.876704692841 1.001551032066 0.220985203981 0.739714 0.020975 -0.672594
-0.871497273445 0.255082607269 0.204559192061 0.739714 0.020975 -0.672594
-0.864283800125 0.159432306886 0.209275260568 0.739740 0.026670 -0.672364
-0.848974585533 0.084406532347 0.223331660032 0.750308 0.026646 -0.660551
-0.840745925903 -0.045534811914 0.227264389396 0.741079 0.029531 -0.670768
-0.873013079166 -0.175985038280 0.185479342937 0.751640 0.029504 -0.658914
-0.894883990288 0.349748879671 0.148312658072 0.955770 0.008611 -0.293988
-0.782000958920 -0.739265203476 0.243402779102 0.168720 -0.232489 0.957853
-0.833298623562 -0.777966380119 0.327429473400 -0.201003 0.919484 -0.337857
-0.888476133347 -0.784494280815 0.326065957546 0.127011 0.932779 -0.337330
-0.831565976143 -0.937021136284 0.177965059876 0.611162 0.067271 -0.788642
-0.815685689449 -0.897403180599 0.193642154336 0.611162 0.067271 -0.788642
-0.883947789669 -0.195115253329 0.162659987807 0.956341 0.021087 -0.291492
-0.884092628956 -0.501455426216 0.138725191355 0.999040 0.001018 0.043791
-0.884618461132 -0.287803351879 0.151431843638 0.995888 -0.003195 0.090535
-0.884209036827 -0.354153215885 0.143766462803 0.796799 0.040753 -0.602869
-0.691465854645 -0.956075191498 0.244431644678 0.283182 0.427070 -0.858731
-0.451845794916 -0.221421763301 0.649698019028 0.107920 0.364742 -0.924833
-0.548132359982 -0.198592796922 0.641452372074 0.180582 0.362587 -0.914287
-0.561844348907 -0.202894806862 0.637265563011 0.153185 0.329830 -0.931529
-0.410086214542 1.097091317177 0.690604805946 0.094391 -0.110706 -0.989361
-0.360611170530 0.964288115501 0.710108816624 0.094391 -0.110706 -0.989361
-0.382423609495 0.957920968533 0.708708584309 0.094391 -0.110706 -0.989361
-0.392910271883 1.099149465561 0.692035079002 0.094391 -0.110706 -0.989361
-0.308796763420 0.931805551052 0.719160020351 0.102256 -0.111659 -0.988472
-0.403781682253 0.749085426331 0.730130732059 0.102256 -0.111659 -0.988472
-0.337272226810 0.801054060459 0.731103777885 0.102256 -0.111659 -0.988472
-0.248880475760 1.078376054764 0.704864621162 0.018738 -0.115733 -0.993104
-0.285891592503 0.755059957504 0.741567194462 0.018738 -0.115733 -0.993104
-0.207077890635 0.885206937790 0.728054404259 0.018738 -0.115733 -0.993104
-0.244501307607 0.823314011097 0.734481692314 0.018738 -0.115733 -0.993104
-0.117339655757 0.826246440411 0.736745536327 0.020941 -0.115728 -0.993060
-0.261913925409 0.774316608906 0.739812016487 0.020941 -0.115728 -0.993060
-0.024232177064 0.867903709412 0.733813762665 0.020941 -0.115728 -0.993060
-0.008659024723 1.039322376251 0.714165151119 0.020941 -0.115728 -0.993060
-0.024981265888 0.917976200581 0.727964997292 0.020941 -0.115728 -0.993060
-0.204108834267 0.679139256477 0.745991706848 0.019358 -0.025471 -0.999488
-0.267912328243 0.641355395317 0.745723307133 0.019358 -0.025471 -0.999488
-0.204383760691 0.663819193840 0.746374011040 0.019358 -0.025471 -0.999488
-0.103816837072 0.657330811024 0.748467981815 0.019358 -0.025471 -0.999488
-0.070397526026 0.529196679592 0.752237379551 0.017321 -0.025472 -0.999525
-0.101126439869 0.507946252823 0.752195417881 0.017321 -0.025472 -0.999525
-0.129749312997 0.594004869461 0.749562740326 0.017321 -0.025472 -0.999525
-0.059909310192 0.621188879013 0.750175416470 0.017321 -0.025472 -0.999525
-0.123538672924 0.467502385378 0.752775967121 0.017321 -0.025472 -0.999525
-0.037508219481 0.346532166004 0.750736296177 0.017666 0.048841 -0.998650
-0.085093759000 0.421383976936 0.753493070602 0.017666 0.048841 -0.998650
-0.127193197608 0.400390774012 0.751727163792 0.017666 0.048841 -0.998650
-0.152914643288 0.294044852257 0.746139347553 0.017666 0.048841 -0.998650
-0.000902381842 0.142650395632 0.741561770439 0.017666 0.048841 -0.998650
-0.049675080925 0.203126966953 0.743604302406 0.017666 0.048841 -0.998650
-0.222932979465 0.321574181318 0.746199965477 0.017703 0.048943 -0.998645
-0.127193167806 0.220330715179 0.743034541607 0.017703 0.048943 -0.998645
-0.285268545151 0.209043473005 0.739605784416 0.017703 0.048943 -0.998645
-0.050175823271 0.121874868870 0.739663064480 0.017703 0.048943 -0.998645
-0.228924900293 0.346058070660 0.747278273106 0.017703 0.048943 -0.998645
-0.256648391485 -0.048085670918 0.707122683525 0.019496 0.170873 -0.985100
-0.214667111635 -0.038283392787 0.709595024586 0.019496 0.170873 -0.985100
-0.128962293267 0.006310203113 0.718873918056 0.019496 0.170873 -0.985100
-0.020750671625 0.099884718657 0.737005531788 0.019496 0.170873 -0.985100
-0.099353820086 -0.176187291741 0.688230931759 0.019503 0.168645 -0.985484
-0.031573344022 -0.154182657599 0.693338334560 0.019503 0.168645 -0.985484
-0.054753709584 0.016059204936 0.721991837025 0.019503 0.168645 -0.985484
-0.200311943889 -0.104837484658 0.698430061340 0.019503 0.168645 -0.985484
-0.041345264763 -0.166558638215 0.691028058529 0.019503 0.168645 -0.985484
-0.334706723690 -0.081537738442 0.696623384953 0.093433 0.166237 -0.981649
-0.332858622074 0.051164336503 0.719397962093 0.093433 0.166237 -0.981649
-0.404750108719 0.033004850149 0.709513247013 0.093433 0.166237 -0.981649
-0.325719118118 0.214326560497 0.736185550690 0.091830 0.047574 -0.994638
-0.358097672462 0.213792577386 0.733177483082 0.091830 0.047574 -0.994638
-0.407522648573 0.319338262081 0.733792841434 0.089635 0.047584 -0.994837
-0.441994339228 0.350787431002 0.732215285301 0.089635 0.047584 -0.994837
-0.506454586983 0.320611029863 0.721346974373 0.156859 0.047639 -0.986471
-0.497033983469 0.242277264595 0.719096720219 0.156859 0.047639 -0.986471
-0.500636637211 0.124352589250 0.712461829185 0.165522 0.050478 -0.984913
-0.504248082638 0.125706985593 0.711921215057 0.165522 0.050478 -0.984913
-0.593669176102 0.133020341396 0.696694433689 0.600361 0.032187 -0.799081
-0.610458076000 0.203585296869 0.687161505222 0.589059 0.034980 -0.807333
-0.609485387802 0.490963965654 0.696671485901 0.586900 -0.012370 -0.809565
-0.610817849636 0.947722017765 0.669877588749 0.555821 -0.081444 -0.827302
-0.642112553120 0.979583382607 0.642425060272 0.614396 -0.079510 -0.784981
-0.623306751251 1.043770670891 0.649717867374 0.650794 -0.110679 -0.751144
-0.641989350319 1.098233222961 0.621626973152 0.585814 -0.225313 -0.778496
-0.597453951836 1.052343010902 0.662180423737 0.259208 -0.282122 -0.923698
-0.552453815937 0.985516309738 0.679436266422 0.209558 -0.101642 -0.972499
-0.527954936028 0.948021054268 0.688654065132 0.209558 -0.101642 -0.972499
-0.578270912170 0.759876012802 0.701776623726 0.172661 -0.120490 -0.977584
-0.607443094254 1.004617691040 0.666244745255 0.172661 -0.120490 -0.977584
-0.548983871937 0.517301023006 0.717339336872 0.164518 -0.028762 -0.985955
-0.525439918041 0.670021951199 0.716980814934 0.164518 -0.028762 -0.985955
-0.490721523762 0.438663631678 0.728814125061 0.158962 -0.026303 -0.986934
-0.474489808083 0.468884766102 0.730658948421 0.158962 -0.026303 -0.986934
-0.452817320824 0.658407807350 0.729001045227 0.092464 -0.027195 -0.995345
-0.419982373714 0.496863812208 0.736402869225 0.092464 -0.027195 -0.995345
-0.300465553999 0.597581267357 0.745067298412 0.096990 -0.025065 -0.994970
-0.319302022457 0.727051377296 0.740049660206 0.096990 -0.025065 -0.994970
-0.342875987291 0.613221108913 0.740585923195 0.096990 -0.025065 -0.994970
-0.912994742393 1.000416994095 -0.206120669842 0.998613 0.052559 0.003092
-0.924110949039 1.074607372284 -0.180285975337 0.928660 0.320759 -0.186292
-0.877853095531 0.793682336807 -0.426345884800 0.966385 0.045666 0.253013
-0.896388411522 0.913370609283 -0.377264142036 0.966385 0.045666 0.253013
-0.880812525749 0.782280802727 -0.412923157215 0.973672 0.062462 0.219229
-0.875187516212 0.482113897800 -0.422979176044 0.975822 -0.003506 0.218537
-0.883641958237 0.479676157236 -0.385766386986 0.975207 -0.003512 0.221266
-0.871586680412 0.250038474798 -0.439746439457 0.975327 -0.001168 0.220763
-0.884637475014 0.268859088421 -0.382677763700 0.974588 -0.001173 0.224003
-0.904880225658 -0.023852922022 -0.121289551258 0.999131 -0.001016 0.041673
-0.904425859451 -0.090101584792 -0.133365362883 0.999131 -0.001016 0.041673
-0.921241223812 -1.087004661560 -0.202475398779 0.991496 -0.115237 0.060471
-0.902526736259 -0.807208955288 -0.274210482836 0.990067 -0.014543 0.139840
-0.904884159565 -0.979428887367 -0.275874972343 0.990067 -0.014543 0.139840
-0.911387681961 -0.999432206154 -0.227031335235 0.992154 -0.012113 0.124432
-0.907936930656 -0.877233386040 -0.242710798979 0.992154 -0.012113 0.124432
-0.359063208103 -1.495867490768 0.184957072139 0.044434 0.133302 -0.990079
-0.401792466640 -1.428714394569 0.192287638783 0.039872 0.135565 -0.989966
-0.409167796373 -1.386186599731 0.197165727615 0.039253 0.115515 -0.992530
-0.670900404453 -1.032121896744 -0.158237427473 -0.001030 -0.998393 -0.056668
-0.807403802872 -1.030137658119 -0.193711578846 0.001030 -0.998393 -0.056668
-0.117505468428 -1.034918785095 -0.107908703387 0.001030 -0.998393 -0.056668
-0.326468884945 -1.032138705254 -0.157381534576 0.001030 -0.998393 -0.056668
-0.654841721058 -1.028283715248 -0.225991800427 0.001030 -0.998393 -0.056668
-0.114881664515 -1.030473470688 -0.186969503760 0.001030 -0.998393 -0.056668
-0.352342069149 -1.028767585754 -0.217344433069 0.001030 -0.998393 -0.056668
-0.391023516655 -1.029690980911 -0.200925529003 0.001030 -0.998393 -0.056668
-0.216639518738 -1.032174706459 -0.156724914908 0.001030 -0.998393 -0.056668
-0.067319571972 -1.031998157501 -0.159843951464 0.001030 -0.998393 -0.056668
-0.456706911325 -1.027302145958 -0.243423238397 0.001030 -0.998393 -0.056668
-0.063555598259 -1.027593135834 -0.238194406033 0.001030 -0.998393 -0.056668
-0.834489226341 -1.025763511658 -0.271715998650 0.001030 -0.998393 -0.056668
-0.688182234764 -1.012651443481 -0.327575325966 0.001176 -0.972780 -0.231726
-0.146929770708 -1.021610379219 -0.289741188288 0.001176 -0.972780 -0.231726
-0.329520940781 -1.015894412994 -0.313832521439 0.001176 -0.972780 -0.231726
-0.867001652718 -1.016100525856 -0.313122540712 0.001176 -0.972780 -0.231726
-0.537426829338 -1.020511031151 -0.294478178024 0.001176 -0.972780 -0.231726
-0.700648248196 -0.994293749332 -0.404782474041 0.001176 -0.972780 -0.231726
-0.573991119862 -1.015914678574 -0.313818752766 0.001176 -0.972780 -0.231726
-0.812202513218 -0.996181964874 -0.396874099970 0.001176 -0.972780 -0.231726
-0.821337461472 -0.997646212578 -0.390718907118 0.001176 -0.972780 -0.231726
-0.766326189041 -0.984503328800 -0.446003317833 -0.001176 -0.972780 -0.231726
-0.064341835678 -1.013736367226 -0.322885215282 -0.001176 -0.972780 -0.231726
-0.402387738228 -1.000951170921 -0.376731753349 -0.001176 -0.972780 -0.231726
-0.522159159184 -0.987396419048 -0.433818757534 -0.001176 -0.972780 -0.231726
-0.203008800745 -1.011227130890 -0.333453238010 -0.001176 -0.972780 -0.231726
-0.360112547874 -1.002272605896 -0.371166259050 -0.001176 -0.972780 -0.231726
-0.739471673965 -0.987959682941 -0.431446492672 -0.001176 -0.972780 -0.231726
-0.495180815458 -0.994496166706 -0.403917431831 -0.001176 -0.972780 -0.231726
-0.889015674591 -1.034825205803 -0.109738856554 -0.001030 -0.998393 -0.056668
-0.713534235954 -1.034716963768 -0.111687928438 -0.001030 -0.998393 -0.056668
-0.231015965343 -1.035323977470 -0.100802592933 -0.001030 -0.998393 -0.056668
-0.837007284164 -1.034027814865 -0.124061301351 -0.001030 -0.998393 -0.056668
-0.851634681225 -1.034700036049 -0.066172383726 0.001036 -0.997999 0.063217
-0.894533574581 -1.031522989273 -0.015559777617 0.001036 -0.997999 0.063217
-0.664464116096 1.374393701553 0.503297150135 -0.943433 -0.013855 0.331272
-0.585284531116 1.772405505180 0.334865331650 0.022971 -0.000999 -0.999736
-0.657731175423 1.444537520409 0.333176314831 0.022971 -0.000999 -0.999736
-0.672307789326 1.535859584808 0.332834005356 0.022971 -0.000999 -0.999736
-0.641063630581 1.612840056419 0.333564698696 0.022971 -0.000999 -0.999736
-0.680666565895 1.732268691063 0.332639098167 0.022971 0.000999 -0.999736
-0.689752638340 1.600023984909 0.332426995039 0.022971 0.000999 -0.999736
-0.093317791820 1.360004186630 0.241491675377 -0.001106 0.989771 0.142660
-0.425206214190 1.354123353958 0.282197624445 -0.001106 0.989771 0.142660
-0.600139200687 1.356856107712 0.263027697802 -0.001106 0.989771 0.142660
-0.742619395256 1.355295300484 0.273740649223 -0.001106 0.989771 0.142660
-0.472849696875 1.360388517380 0.222539275885 -0.001081 0.993536 -0.113516
-0.613549351692 1.360000491142 0.219181135297 -0.001081 0.993536 -0.113516
-0.425887018442 1.359756827354 0.217065289617 -0.001081 0.993536 -0.113516
-0.742145121098 1.359343290329 0.200768634677 0.005123 0.999016 -0.044059
-0.306127995253 1.354878425598 0.172762319446 -0.001125 0.986241 -0.165311
-0.560479462147 1.351074099541 0.150265544653 0.001125 0.986241 -0.165311
-0.803452253342 1.344749450684 0.112850680947 0.001125 0.986241 -0.165311
-0.579439878464 1.350443840027 0.146535158157 0.001125 0.986241 -0.165311
-0.468554198742 1.346570730209 0.123507834971 -0.001125 0.986241 -0.165311
-0.039195120335 1.350981354713 0.149485722184 -0.001125 0.986241 -0.165311
-0.163057565689 1.346719384193 0.124211639166 -0.001125 0.986241 -0.165311
-0.154286637902 1.338111996651 0.089297108352 -0.001311 0.893111 -0.449834
-0.664422690868 1.328947305679 0.071235150099 -0.001311 0.893111 -0.449834
-0.801425516605 1.308146238327 0.030032871291 -0.001311 0.893111 -0.449834
-0.502495825291 1.331130743027 0.075529985130 -0.001311 0.893111 -0.449834
-0.541196882725 1.316053032875 0.045656975359 0.001311 0.893111 -0.449834
-0.031697034836 1.314886093140 0.043317642063 0.001311 0.893111 -0.449834
-0.044097661972 1.328610539436 0.070478625596 0.001311 0.893111 -0.449834
-0.515149831772 1.305139660835 0.024058394134 0.001311 0.893111 -0.449834
-0.666821002960 1.284134507179 0.002917711856 0.001366 0.597153 -0.802126
-0.638203144073 1.277050375938 -0.002345714485 0.001366 0.597153 -0.802126
-0.763961255550 1.240944027901 -0.029165100306 0.001366 0.597153 -0.802126
-0.852527856827 1.253802895546 -0.019610028714 0.001366 0.597153 -0.802126
-0.859998762608 1.277487039566 -0.002015243750 0.001366 0.597153 -0.802126
-0.032539367676 1.247465848923 -0.024325238541 0.001366 0.597153 -0.802126
-0.609924316406 1.229990243912 -0.037302285433 0.001366 0.597153 -0.802126
-0.057728827000 1.267993688583 -0.009081576020 0.001366 0.597153 -0.802126
-0.099317401648 1.268379926682 -0.008794806898 0.001366 0.597153 -0.802126
-0.741949975491 1.231660127640 -0.036062233150 0.001366 0.597153 -0.802126
-0.856515645981 1.165526509285 -0.072264611721 0.001308 0.443546 -0.896251
-0.749827086926 1.148919105530 -0.080480545759 0.001308 0.443546 -0.896251
-0.469955265522 1.210173487663 -0.050177048892 0.001308 0.443546 -0.896251
-0.206203371286 1.206243753433 -0.052121154964 0.001308 0.443546 -0.896251
-0.747694194317 1.141880869865 -0.083962477744 0.001308 0.443546 -0.896251
-0.014607310295 1.168376803398 -0.070854537189 0.001308 0.443546 -0.896251
-0.048707991838 1.194967031479 -0.057699903846 0.001308 0.443546 -0.896251
-0.068638175726 1.185806512833 -0.062231775373 0.001308 0.443546 -0.896251
-0.349686026573 1.112952470779 -0.108938343823 0.001381 0.702951 -0.711237
-0.324190199375 1.105008602142 -0.116802595556 0.001381 0.702951 -0.711237
-0.364423096180 1.110794186592 -0.111075013876 0.001381 0.702951 -0.711237
-0.343682348728 1.133575439453 -0.088521890342 0.001381 0.702951 -0.711237
-0.582947373390 1.081008672714 -0.140562191606 0.001381 0.702951 -0.711237
-0.344721853733 1.094751358032 -0.126957118511 0.001381 0.702951 -0.711237
-0.884072124958 1.127973079681 -0.094068184495 0.001381 0.702951 -0.711237
-0.874318599701 1.074877142906 -0.146632239223 0.001381 0.702951 -0.711237
-0.018970204517 1.065623998642 -0.156911611557 0.001378 0.753685 -0.657235
-0.185208126903 1.063207149506 -0.159678131342 0.001378 0.753685 -0.657235
-0.704009056091 1.064352154732 -0.158367469907 0.001378 0.753685 -0.657235
-0.316131889820 1.053940773010 -0.170285984874 0.001378 0.753685 -0.657235
-0.554192304611 1.779099345207 0.335669815540 0.027071 -0.001003 -0.999633
-0.520955801010 1.447224855423 0.336544275284 0.027071 -0.001003 -0.999633
-0.538507342339 1.716161966324 0.336080640554 0.027071 -0.001003 -0.999633
-0.464948177338 1.463354825974 0.338006287813 0.027071 -0.001003 -0.999633
-0.526843428612 1.501603603363 0.336389422417 0.027071 -0.001003 -0.999633
-0.504834175110 1.528475165367 0.336963564157 0.027071 -0.001003 -0.999633
-0.495265066624 1.791606903076 0.337210267782 0.027071 -0.001003 -0.999633
-0.442106544971 1.582257747650 0.338600873947 0.027071 -0.001003 -0.999633
-0.489113956690 1.811826229095 0.337370395660 0.027071 -0.001003 -0.999633
-0.381792038679 1.540528297424 0.340176284313 0.027071 -0.001003 -0.999633
-0.348766773939 1.737431049347 0.341032564640 0.027071 -0.001003 -0.999633
-0.374005824327 1.794040679932 0.340373009443 0.027071 -0.001003 -0.999633
-0.336865931749 1.564419984818 0.341195523739 0.006883 -0.000983 -0.999976
-0.269295096397 1.756602525711 0.341601967812 0.006883 -0.000983 -0.999976
-0.152446344495 1.530010938644 0.342308014631 0.006883 -0.000983 -0.999976
-0.159305006266 1.477226376534 0.342266947031 0.006883 -0.000983 -0.999976
-0.091566443443 1.409442663193 0.342675894499 0.006883 -0.000983 -0.999976
-0.033028118312 1.378056764603 0.343029141426 0.006883 -0.000983 -0.999976
-0.285925358534 1.726529717445 0.341501832008 0.006883 -0.000983 -0.999976
-0.224617779255 1.443325281143 0.341873228550 0.006883 -0.000983 -0.999976
-0.327507972717 1.770932674408 0.341250777245 0.006883 -0.000983 -0.999976
-0.107907369733 1.594604969025 0.342576742172 0.006883 0.000983 -0.999976
-0.159697964787 1.703877091408 0.342263936996 0.006883 0.000983 -0.999976
-0.025161892176 1.572422266006 0.343076556921 0.006883 0.000983 -0.999976
-0.068661168218 1.673208594322 0.342813819647 0.006883 0.000983 -0.999976
-0.105960257351 1.510581493378 0.342588514090 0.006883 0.000983 -0.999976
-0.303393304348 1.862259387970 0.341395974159 0.006883 -0.000983 -0.999976
-0.084513165057 1.736601233482 0.342718064785 0.006883 -0.000983 -0.999976
-0.266208261251 1.821349740028 0.341620594263 0.006883 -0.000983 -0.999976
-0.173522114754 1.757908582687 0.342180430889 0.006883 -0.000983 -0.999976
-0.020742962137 1.686528801918 0.343103259802 0.006883 -0.000983 -0.999976
-0.367752015591 1.348906517029 0.318392783403 -0.001106 0.989771 0.142660
-0.090203747153 1.346660494804 0.333995521069 -0.001106 0.989771 0.142660
-0.174039825797 1.350666284561 0.306220442057 -0.001106 0.989771 0.142660
-0.210550069809 1.356686234474 0.264512449503 0.001106 0.989771 0.142660
-0.710752427578 1.634537935257 0.344102382660 -0.978290 0.001158 -0.207235
-0.686854302883 1.445086002350 0.433306843042 -0.958853 -0.003655 0.283879
-0.685704827309 1.422076225281 0.436795651913 -0.958853 -0.003655 0.283879
-0.706605732441 1.667686104774 0.366370797157 -0.964929 -0.001199 0.262509
-0.710306882858 1.388829350471 0.352674394846 -0.964929 -0.001199 0.262509
-0.699189960957 1.148288965225 0.556147754192 -0.001360 0.564391 0.825507
-0.668254733086 1.113855600357 0.579713225365 0.001360 0.564391 0.825507
-0.614329278469 1.041766643524 0.636859476566 -0.934187 0.001261 0.356781
-0.681210994720 -0.692435801029 0.380587875843 -0.001335 -0.503455 0.864020
-0.658693432808 -0.709612727165 0.370589196682 0.001335 -0.503455 0.864020
-0.654268085957 -0.737766027451 0.358252137899 -0.966452 0.001195 0.256844
-0.719826459885 -0.872071921825 0.272326469421 -0.001345 -0.528668 0.848828
-0.736328244209 -0.961757779121 0.216386824846 -0.001345 -0.528668 0.848828
-0.727694988251 -0.827320218086 0.300371259451 0.001345 -0.528668 0.848828
-0.091008350253 -0.987652122974 0.240359812975 0.015619 0.051022 -0.998575
-0.014122840017 -1.084418058395 0.236588910222 0.015619 0.051022 -0.998575
-0.331688106060 -0.971492826939 0.237717658281 0.005014 0.023063 -0.999721
-0.308035910130 -1.026071310043 0.236507356167 0.005014 0.023063 -0.999721
-0.571185469627 -1.006564736366 0.222416013479 0.059822 0.015743 -0.998085
-0.440188914537 -1.074105024338 0.229215204716 0.059822 0.015743 -0.998085
-0.768723785877 -0.983550429344 0.158569797873 0.947021 -0.284241 0.149530
-0.709611833096 -0.768964588642 0.092729277909 0.974192 -0.224814 0.020221
-0.713263750076 -0.779036939144 0.158757507801 0.974192 -0.224814 0.020221
-0.095529735088 -0.770162463188 0.196724981070 0.001087 -0.992690 -0.120688
-0.337999045849 -0.766277909279 0.164671570063 0.001087 -0.992690 -0.120688
-0.417258948088 -0.767301499844 0.173117801547 0.001087 -0.992690 -0.120688
-0.629880189896 -0.758542358875 0.100841984153 0.001087 -0.992690 -0.120688
-0.577036619186 -0.765832960606 0.161000311375 0.001087 -0.992690 -0.120688
-0.350924879313 -0.760947585106 0.134842246771 0.042739 -0.936375 -0.348389
-0.090061672032 -0.742111027241 0.116356261075 0.042739 -0.936375 -0.348389
-0.382337123156 -0.756583511829 0.119261279702 0.042739 -0.936375 -0.348389
-0.053013645113 -0.736763238907 0.104957357049 0.009050 -0.916683 0.399513
-0.235698267817 -0.751974761486 0.074323683977 0.009050 -0.916683 0.399513
-0.160398811102 -0.748001635075 0.081681959331 0.009050 -0.916683 0.399513
-0.173615813255 -0.771526455879 0.026632620022 -0.001225 -0.953933 0.300017
-0.432435601950 -0.763216435909 0.052921775728 -0.001225 -0.953933 0.300017
-0.476428210735 -0.785476446152 -0.017624672502 -0.001225 -0.953933 0.300017
-0.516236662865 -0.783946156502 -0.012782167643 -0.001225 -0.953933 0.300017
-0.250459074974 -0.801018595695 -0.066897004843 0.001225 -0.953933 0.300017
-0.352384030819 -0.804535150528 -0.078050099313 0.001225 -0.953933 0.300017
-0.186067089438 -0.795364320278 -0.048963915557 0.001225 -0.953933 0.300017
-0.518620371819 -0.807273149490 -0.086733900011 0.001225 -0.953933 0.300017
-0.400109410286 -0.903106868267 -0.087621226907 0.000978 0.000978 0.999999
-0.300114303827 -0.847749292850 -0.087621226907 0.000978 0.000978 0.999999
-0.296462178230 -0.901124358177 -0.087621226907 0.000978 0.000978 0.999999
-0.217200651765 -0.918294727802 -0.087621226907 0.000978 0.000978 0.999999
-0.236281245947 -0.981798827648 -0.087621226907 0.000978 0.000978 0.999999
-0.449969887733 -0.809408545494 -0.087621226907 0.000978 0.000978 0.999999
-0.127867609262 -0.994112968445 -0.087621226907 0.000978 0.000978 0.999999
-0.500843167305 -1.014466166496 -0.087621226907 0.000978 0.000978 0.999999
-0.665448188782 -0.960579216480 -0.087621226907 0.000978 0.000978 0.999999
-0.529797613621 -0.893243193626 -0.087621226907 0.000978 0.000978 0.999999
-0.362938612700 -0.984676182270 -0.087621226907 0.000978 0.000978 0.999999
-0.262286782265 -0.990871310234 -0.087621226907 0.000978 0.000978 0.999999
-0.556831359863 -0.965828299522 -0.087621226907 0.000978 0.000978 0.999999
-0.602759003639 -0.924010634422 -0.087621226907 0.000978 0.000978 0.999999
-0.750624239445 -0.965109705925 -0.047483392060 0.964557 -0.251569 0.079642
-0.735810697079 -0.912008047104 -0.059154782444 0.964557 -0.251569 0.079642
-0.674560368061 -0.768014371395 0.037676606327 -0.001225 -0.953933 0.300017
-0.739166557789 -0.906569957733 0.012202531099 0.974182 -0.224074 0.027560
-0.735386312008 -0.889611482620 0.016790702939 0.974182 -0.224074 0.027560
-0.019153868780 -0.775547146797 -0.106190793216 0.173072 -0.970485 0.167944
-0.012331366539 -0.754943430424 0.005332216620 0.173072 -0.970485 0.167944
-0.072148330510 -0.786316931248 -0.108481831849 0.204346 -0.961087 0.185889
-0.030141180381 -0.758020997047 -0.271801590919 0.191180 -0.907026 -0.375172
-0.037364676595 -0.746818661690 -0.302167773247 0.176303 -0.904451 -0.388441
-0.044263925403 -0.404044538736 -0.333230197430 0.000978 0.000978 -0.999999
-0.009886045009 -0.266730815172 -0.333230197430 0.000978 0.000978 -0.999999
-0.037183340639 -0.470697283745 -0.333230197430 0.000978 0.000978 -0.999999
-0.111812025309 -0.675351798534 -0.333230197430 0.000978 0.000978 -0.999999
-0.007720438763 -0.196077451110 -0.333230197430 0.000978 0.000978 -0.999999
-0.112874165177 -0.349839180708 -0.333230197430 0.000978 0.000978 -0.999999
-0.059421107173 -0.058199897408 -0.333230197430 0.000978 0.000978 -0.999999
-0.070310994983 -0.075393773615 -0.333230197430 0.000978 0.000978 -0.999999
-0.121796801686 -0.716000497341 -0.333230197430 0.000978 0.000978 -0.999999
-0.101486586034 -0.167907640338 -0.333230197430 0.000978 0.000978 -0.999999
-0.124642997980 -0.422299057245 -0.382056087255 0.999999 0.000978 0.000978
-0.124642997980 -0.283062994480 -0.356042325497 0.999999 0.000978 0.000978
-0.124642997980 -0.576569497585 -0.344533205032 0.999999 0.000978 0.000978
-0.124642997980 -0.118455983698 -0.424502909184 0.999999 0.000978 0.000978
-0.124642997980 -0.745713174343 -0.436130344868 0.999999 0.000978 0.000978
-0.124642997980 -0.692815721035 -0.428098350763 0.999999 0.000978 0.000978
-0.124642997980 -0.171824112535 -0.445684403181 0.999999 0.000978 0.000978
-0.124642997980 -0.351118505001 -0.423990488052 0.999999 0.000978 0.000978
-0.124642997980 -0.461458593607 -0.444602817297 0.999999 0.000978 0.000978
-0.054336171597 -0.450610518456 -0.457862645388 0.000978 0.000978 0.999999
-0.109018355608 -0.442915648222 -0.457862645388 0.000978 0.000978 0.999999
-0.115027613938 -0.188490629196 -0.457862645388 0.000978 0.000978 0.999999
-0.100830838084 -0.572195649147 -0.457862645388 0.000978 0.000978 0.999999
