0.577996790409 -0.679597318172 0.175221383572 0.230575 -0.549357 0.803145
0.486108422279 -0.732274949551 0.166930839419 0.239340 -0.529637 0.813757
0.134307369590 -0.823513746262 0.180169582367 0.081761 -0.563719 0.821910
0.112513221800 -0.865809023380 0.151516661048 0.070047 -0.593253 0.801963
-0.057778961957 -0.842090427876 0.174060508609 -0.055233 -0.593404 0.803007
-0.713965296745 1.195089936256 0.231062337756 -0.906321 0.011770 0.422427
-0.724622905254 1.188889265060 0.208405986428 -0.904368 -0.003915 0.426736
-0.708969295025 1.223681211472 0.241038560867 -0.901822 0.017165 0.431766
-0.761278033257 1.253807187080 0.130738511682 -0.901822 0.017165 0.431766
-0.692597091198 1.262288928032 0.270023763180 -0.870868 0.014806 0.491293
-0.592999398708 1.169764161110 0.446044683456 -0.807053 0.032059 0.589608
-0.629388511181 1.253796219826 0.380792081356 -0.858167 0.009430 0.513284
-0.741452038288 1.053507685661 0.172587215900 -0.912538 0.009086 0.408890
-0.750835955143 1.031278133392 0.151995226741 -0.913437 -0.001292 0.406977
-0.758171439171 0.903274416924 0.135891839862 -0.919393 0.006447 0.393289
-0.730771303177 0.837407112122 0.201589331031 -0.922984 0.016829 0.384469
-0.763625204563 0.657127499580 0.128567233682 -0.923305 0.008989 0.383961
-0.741355001926 0.621820688248 0.183115646243 -0.924214 0.008998 0.381769
-0.709000110626 0.707171261311 0.255658984184 -0.900850 0.009179 0.434034
-0.674309730530 0.728796362877 0.325577348471 -0.896178 0.014561 0.443456
-0.634358823299 0.692045450211 0.403637886047 -0.881404 0.014712 0.472133
-0.622474074364 0.666250288486 0.427039593458 -0.885233 0.020088 0.464714
-0.600457906723 0.669745504856 0.466998070478 -0.860179 0.020383 0.509585
-0.592968404293 0.719437479973 0.477678805590 -0.860883 0.020336 0.508396
-0.624769389629 0.809950768948 0.414953649044 -0.880226 0.033907 0.473342
-0.624757766724 0.861884653568 0.411864817142 -0.875269 0.025703 0.482953
-0.678334712982 0.771783113480 0.315433770418 -0.895470 0.025356 0.444399
-0.710473716259 0.778030514717 0.250150263309 -0.891390 0.014613 0.453001
-0.654702067375 1.003520488739 0.349591493607 -0.885976 0.011955 0.463577
-0.648079156876 1.076375007629 0.358200371265 -0.865072 0.023087 0.501117
-0.632647514343 1.029793143272 0.387055218220 -0.868743 0.036939 0.493884
-0.616468667984 0.985106050968 0.418646961451 -0.870527 0.025723 0.491448
-0.599615275860 0.931684732437 0.452188730240 -0.848261 0.037241 0.528267
-0.632389605045 -0.355418831110 0.314637273550 -0.854943 -0.148112 0.497128
-0.674771368504 -0.364772826433 0.234801799059 -0.882480 -0.109071 0.457530
-0.686958134174 -0.391541838646 0.206734091043 -0.868467 -0.109806 0.483433
-0.711835861206 -0.288151144981 0.169273242354 -0.906797 -0.044201 0.419243
-0.713851273060 -0.195595532656 0.174480602145 -0.928075 -0.032541 0.370970
-0.748878121376 -0.059836093336 0.099460124969 -0.927983 -0.040575 0.370408
-0.731853008270 -0.042886279523 0.144046962261 -0.927983 -0.040575 0.370408
-0.726272821426 -0.038274012506 0.158552482724 -0.927983 -0.040575 0.370408
-0.744648337364 0.091602936387 0.126330211759 -0.927993 -0.035141 0.370937
-0.734573602676 0.180935800076 0.160355120897 -0.928799 -0.037777 0.368654
-0.714192926884 0.159025102854 0.209524124861 -0.928799 -0.037777 0.368654
-0.758794426918 0.338399022818 0.110676512122 -0.929758 -0.021922 0.367519
-0.760821282864 0.376680880785 0.107859626412 -0.928875 -0.021901 0.369746
-0.769956052303 0.415011376143 0.086504295468 -0.929942 -0.006361 0.367651
-0.720212757587 0.417068421841 0.212084159255 -0.929435 0.001268 0.368984
-0.665845453739 0.298200607300 0.322815775871 -0.902207 -0.025172 0.430569
-0.672349333763 0.242598325014 0.306175589561 -0.902264 -0.022523 0.430596
-0.659677803516 0.129442155361 0.321713596582 -0.901306 -0.041640 0.431176
-0.655200064182 0.172980368137 0.335285305977 -0.901306 -0.041640 0.431176
-0.679954171181 0.140878930688 0.280508011580 -0.900261 -0.041592 0.433360
-0.659126222134 0.063655987382 0.316400289536 -0.900074 -0.047230 0.433169
-0.689485132694 -0.039036519825 0.242182999849 -0.900074 -0.047230 0.433169
-0.663758635521 -0.077405266464 0.291538476944 -0.900261 -0.041592 0.433360
-0.687345743179 -0.271027326584 0.223660647869 -0.903438 -0.038814 0.426958
-0.645187556744 -0.306630790234 0.303241670132 -0.884644 -0.050590 0.463515
-0.618913769722 -0.164402037859 0.368897408247 -0.883640 -0.047801 0.465721
-0.646209478378 -0.052727669477 0.329045534134 -0.882794 -0.053378 0.466718
-0.617483079433 0.078815564513 0.398347884417 -0.883921 -0.053446 0.464572
-0.643523156643 0.160314589739 0.356682956219 -0.884348 -0.044967 0.464657
-0.609277784824 0.186809808016 0.424621134996 -0.886054 -0.044915 0.461401
-0.643394768238 0.298902213573 0.368047207594 -0.886225 -0.025474 0.462553
-0.615651726723 0.400492936373 0.426932483912 -0.887323 -0.025506 0.460442
-0.590601980686 0.330440044403 0.469134658575 -0.867973 -0.028525 0.495791
-0.569422185421 0.363247364759 0.507939577103 -0.867301 -0.028592 0.496962
-0.597515583038 0.243813261390 0.452078431845 -0.866681 -0.051144 0.496234
-0.572817802429 0.012416300364 0.470331281424 -0.864193 -0.059839 0.499590
-0.753661692142 -0.316384077072 0.061901450157 -0.932572 -0.035020 0.359280
-0.725857138634 -0.367395401001 0.127600789070 -0.931916 -0.048360 0.359435
-0.719306051731 -0.381218314171 0.139987587929 -0.897922 -0.069915 0.434567
0.560406744480 0.848208546638 0.470824867487 0.852260 0.054400 0.520283
0.568490564823 0.783241212368 0.464598536491 0.857319 0.057155 0.511603
0.594551980495 0.674637436867 0.427761912346 0.883928 0.042092 0.465725
0.604555487633 0.709357380867 0.405911922455 0.881271 0.036663 0.471188
0.609210252762 0.787188351154 0.390056341887 0.878541 0.056370 0.474330
0.580781221390 0.929875373840 0.426340252161 0.872490 0.056691 0.485331
0.608702063560 1.093917131424 0.360435664654 0.864530 0.045502 0.500517
0.560530245304 1.103309869766 0.442320108414 0.861926 0.056907 0.503831
0.568081438541 1.191487669945 0.420128345490 0.858676 0.048396 0.510228
0.621789276600 1.079784870148 0.337538778782 0.884348 0.044967 0.464657
0.676557779312 0.968136727810 0.242528110743 0.885379 0.033793 0.463641
0.647687613964 0.933905661106 0.301435768604 0.889306 0.047520 0.454836
0.637848794460 0.894858002663 0.324425518513 0.891393 0.036411 0.451765
0.646422266960 0.793958365917 0.317691564560 0.895310 0.047407 0.442914
0.662151932716 0.711309909821 0.293516278267 0.896153 0.038963 0.442031
0.677941799164 0.685636878014 0.262851655483 0.900577 0.030686 0.433611
0.717008292675 0.640889883041 0.177103608847 0.923317 0.032649 0.382648
0.701545536518 0.717180013657 0.207950711250 0.923317 0.032649 0.382648
0.727678716183 0.671596646309 0.148809790611 0.923317 0.032649 0.382648
0.709338426590 0.780113101006 0.183867916465 0.922813 0.040809 0.383079
0.730084180832 0.830356478691 0.129677504301 0.918456 0.030135 0.394373
0.696569502354 0.989604473114 0.194458633661 0.918338 0.038209 0.393950
0.689188420773 1.150644183159 0.201179057360 0.906089 0.033263 0.421777
0.618054151535 1.282271742821 0.326489925385 0.870896 0.031249 0.490473
0.669697403908 1.347321867943 0.226469770074 0.896488 0.044487 0.440829
0.674245953560 1.320001363754 0.219446554780 0.901457 0.036058 0.431364
0.716188311577 1.247849822044 0.138360336423 0.903336 0.017144 0.428590
0.638876616955 -0.318256437778 0.304299324751 0.858729 -0.125986 0.496702
0.628019571304 -0.273580282927 0.328677117825 0.860852 -0.054063 0.505976
0.592500984669 -0.070274755359 0.408333718777 0.864139 -0.042589 0.501448
0.593863308430 -0.017077602446 0.410222172737 0.864930 -0.039751 0.500316
0.554624795914 0.274512499571 0.496854752302 0.867480 -0.006704 0.497427
0.566007256508 0.368672966957 0.478202879429 0.868141 -0.006688 0.496272
0.612662553787 0.482426762581 0.389153897762 0.886225 0.025474 0.462553
0.606521844864 0.436988860369 0.403359711170 0.886856 0.022740 0.461486
0.625565886497 0.412158310413 0.366831064224 0.887167 -0.003966 0.461432
0.626721084118 0.298578083515 0.363838613033 0.886083 -0.003962 0.463510
0.630654990673 0.252866297960 0.355636239052 0.886283 -0.022794 0.462583
0.613992929459 0.159878432751 0.382795274258 0.885182 -0.022766 0.464687
0.646044194698 -0.101302221417 0.306102186441 0.885584 -0.028220 0.463621
0.655721127987 -0.309440851212 0.274229049683 0.886616 -0.030944 0.461471
0.695124149323 -0.436997801065 0.177494615316 0.871244 -0.088673 0.482774
0.697023332119 -0.383054971695 0.180489912629 0.906509 -0.052532 0.418907
0.701792180538 -0.419811964035 0.165568232536 0.898384 -0.049985 0.436358
0.728838205338 -0.337550818920 0.114447958767 0.932136 -0.024428 0.361283
0.749930799007 -0.344645589590 0.059462375939 0.928924 -0.019326 0.369766
0.718559980392 -0.293430656195 0.143172502518 0.930810 -0.006367 0.365448
0.702559888363 -0.235822454095 0.181770250201 0.908232 -0.022409 0.417866
0.693545937538 -0.197247907519 0.202652364969 0.903820 -0.017103 0.427571
0.691820323467 -0.124941758811 0.210076987743 0.903778 -0.022495 0.427409
0.694803655148 0.078386977315 0.215096786618 0.900677 -0.025203 0.433758
0.651448130608 0.044185344130 0.303269922733 0.900677 -0.025203 0.433758
0.650025904179 0.119507089257 0.310125589371 0.901822 -0.017165 0.431766
0.693913578987 0.195728808641 0.221999421716 0.901822 -0.017165 0.431766
0.658243298531 0.222182840109 0.297580301762 0.901778 -0.019805 0.431745
0.687139689922 0.412911027670 0.238918364048 0.902354 -0.001302 0.430994
0.645038902760 0.425675660372 0.327443361282 0.903365 -0.001304 0.428870
0.681344032288 0.432563632727 0.250982284546 0.902755 0.022470 0.429568
0.736627757549 0.439583510160 0.115558274090 0.929702 0.024500 0.367497
0.716675519943 0.385007679462 0.166807994246 0.929435 0.001268 0.368984
0.726170003414 0.379972130060 0.142911627889 0.929435 0.001268 0.368984
0.744045853615 0.263192415237 0.097960941494 0.929435 0.001268 0.368984
0.719014525414 0.298124492168 0.161226585507 0.929435 0.001268 0.368984
0.708175837994 0.220516100526 0.187556400895 0.929705 -0.014106 0.368035
0.747224271297 0.145061686635 0.086563162506 0.928856 -0.011531 0.370261
0.699796855450 0.033261977136 0.201125562191 0.929319 -0.016710 0.368900
0.749006688595 -0.027925197035 0.074687115848 0.929276 -0.019280 0.368883
0.727836251259 -0.072064481676 0.125702619553 0.929206 -0.011503 0.369382
0.606096506119 1.853760004044 0.150829613209 0.382214 0.720138 0.579063
0.530273735523 1.697279095650 0.362648278475 0.326808 0.661745 0.674752
0.481820642948 1.629439234734 0.451516300440 0.315145 0.648068 0.693319
0.327969998121 1.627235889435 0.502559363842 0.111188 0.698261 0.707156
0.208252146840 1.645577907562 0.495932549238 0.041219 0.717785 0.695044
-0.497018635273 1.586109876633 0.496285587549 -0.347400 0.627930 0.696432
-0.579519689083 1.698971748352 0.349561333656 -0.341272 0.654786 0.674380
-0.611273884773 1.726678729057 0.302800297737 -0.370285 0.673095 0.640181
-0.638395488262 1.843173861504 0.162301838398 -0.449843 0.667240 0.593660
-0.302660822868 1.921768546104 0.153761699796 -0.067550 0.777540 0.625194
-0.618241190910 -0.799183189869 0.083888299763 -0.246227 -0.600668 0.760638
-0.544343173504 -0.787890911102 0.116658128798 -0.243397 -0.604567 0.758457
-0.441679209471 -0.801808059216 0.137342393398 -0.235897 -0.604585 0.760808
-0.275011241436 -0.849714279175 0.142566204071 -0.185203 -0.610710 0.769892
-0.352470219135 -0.898280978203 0.084676668048 -0.175680 -0.633977 0.753134
-0.200924918056 -0.906311154366 0.112346574664 -0.058729 -0.643156 0.763479
-0.005544227548 -0.929549872875 0.110902234912 -0.073426 -0.611885 0.787531
0.203067675233 -0.890369653702 0.122317589819 0.073713 -0.640289 0.764589
0.276971459389 -0.893809437752 0.103000156581 0.192415 -0.629583 0.752729
0.348137319088 -0.870856285095 0.103923141956 0.201512 -0.604536 0.770668
0.476621538401 -0.848406612873 0.083301216364 0.249639 -0.598191 0.761477
0.590823173523 -0.749895274639 0.122682474554 0.263596 -0.595064 0.759220
0.467883676291 -0.225372746587 0.468987524509 0.141641 -0.430646 0.891337
-0.379456311464 -0.276530653238 0.464204132557 -0.135334 -0.428796 0.893207
-0.311731874943 -0.280312627554 0.470931023359 -0.086061 -0.402983 0.911152
-0.184114977717 -0.314831733704 0.467862874269 -0.086155 -0.400691 0.912153
0.122222557664 -0.298296272755 0.476402521133 0.041107 -0.404441 0.913640
0.239434465766 -0.277672439814 0.475937783718 0.097591 -0.399987 0.911310
0.257474571466 -0.288520365953 0.469270557165 0.097591 -0.399987 0.911310
0.480033099651 -0.260295391083 0.450878530741 0.153596 -0.426336 0.891429
0.595357656479 -0.570663094521 0.245927661657 0.193947 -0.569624 0.798695
0.613725304604 -0.589151084423 0.227923452854 0.234943 -0.567909 0.788848
-0.572816550732 1.105688929558 0.480360656977 -0.819241 0.052172 0.571072
-0.726194560528 1.369061231613 0.199588716030 -0.897629 0.022607 0.440171
-0.748244047165 1.356723427773 0.155183866620 -0.909722 0.006507 0.415166
-0.766083955765 1.112199187279 0.119411729276 -0.913506 -0.009096 0.406724
-0.584596276283 0.641258418560 0.494984596968 -0.860883 0.020336 0.508396
-0.584517121315 0.702791094780 0.492649316788 -0.860883 0.020336 0.508396
0.607674062252 1.305232763290 0.343351870775 0.873858 0.031258 0.485175
0.675702989101 1.388793468475 0.210079371929 0.896488 0.044487 0.440829
0.741524755955 0.671590089798 0.115473382175 0.923317 0.032649 0.382648
0.561943113804 0.643808662891 0.488182157278 0.860334 0.042673 0.507941
0.561160624027 0.701316237450 0.484800845385 0.860334 0.042673 0.507941
-0.370508253574 1.324395537376 0.357522338629 -0.029354 0.940612 0.338212
-0.297725290060 1.313889861107 0.371354520321 0.031658 0.315309 0.948461
-0.298987060785 1.261234760284 0.381730318069 0.037678 -0.576329 0.816349
-0.456676810980 1.283552289009 0.233223780990 -0.416818 -0.268279 -0.868498
-0.391983985901 1.298788189888 0.226892918348 -0.028985 0.545196 -0.837807
-0.421327799559 1.267595887184 0.233111470938 -0.026107 -0.292151 -0.956016
-0.441998630762 1.217479228973 0.337879300117 0.012926 -0.976518 0.215046
-0.354538619518 1.250962615013 0.237021848559 0.026256 -0.298813 -0.953951
-0.252489238977 1.219370961189 0.289562433958 0.467796 -0.862824 0.191574
-0.263482272625 1.263904094696 0.375023543835 0.582227 -0.442092 0.682324
-0.253346502781 1.314355254173 0.315783768892 0.999917 0.012857 0.000989
-0.281726032495 1.229430913925 0.359504789114 0.026208 -0.558641 0.828995
-0.010737481527 1.326942205429 0.362976312637 0.006268 0.941411 0.337203
0.030373822898 1.226547598839 0.352981775999 0.012933 -0.977010 0.212802
-0.055990334600 1.216930627823 0.313596993685 0.010533 -0.977249 0.211835
-0.066091038287 1.266516923904 0.383839845657 -0.023497 -0.576361 0.816857
-0.017469728366 1.273286223412 0.388347953558 -0.039466 0.314453 0.948452
-0.039074569941 1.326090812683 0.363583862782 -0.029380 0.941422 0.335948
-0.092860803008 1.338685989380 0.272745013237 -0.011977 0.994101 -0.107794
-0.040840178728 1.341836333275 0.295558154583 -0.011974 0.993865 -0.109946
0.037737138569 1.340322852135 0.272922486067 -0.012000 0.993839 -0.110184
-0.029860265553 1.210475564003 0.276197731495 0.004054 -0.847307 -0.531087
-0.120870485902 1.330415248871 0.258844137192 -0.375419 0.921482 -0.099657
-0.117511577904 1.235793113708 0.350802630186 -0.552765 -0.472606 0.686364
-0.116122096777 1.264379858971 0.371242702007 -0.569846 -0.456211 0.683481
-0.097201898694 1.210924148560 0.288755238056 0.012926 -0.976518 0.215046
-0.058039978147 1.268075227737 0.233738809824 -0.026107 -0.292151 -0.956016
-0.040296550840 1.230677008629 0.245045140386 -0.021140 -0.299695 -0.953801
-0.001339286333 1.209978103638 0.277552723885 0.017738 -0.847328 -0.530774
0.033692024648 1.251746535301 0.372583866119 0.026208 -0.558641 0.828995
0.420399665833 1.256802916527 0.359336018562 0.582227 -0.442092 0.682324
0.348643958569 1.325374841690 0.371365517378 0.031658 0.315309 0.948461
0.413320630789 1.224704265594 0.303806394339 0.467796 -0.862824 0.191574
0.356195062399 1.215894579887 0.285781323910 0.010576 -0.976545 0.215052
0.325891286135 1.225197553635 0.330295056105 0.012933 -0.977010 0.212802
0.351159363985 1.343799948692 0.269517153502 -0.012000 0.993839 -0.110184
0.282346308231 1.221606969833 0.264853119850 -0.004036 -0.857011 -0.515283
0.209929674864 1.295513033867 0.355639457703 -0.999917 -0.012857 -0.000989
0.287589401007 1.214958310127 0.285338759422 0.012926 -0.976518 0.215046
0.238787159324 1.235244393349 0.246044203639 -0.021140 -0.299695 -0.953801
0.265644073486 1.309498786926 0.229102343321 -0.028985 0.545196 -0.837807
0.235967457294 1.325406670570 0.239929646254 -0.017697 0.529549 -0.848095
0.410294026136 1.303644537926 0.228814929724 0.422037 -0.255642 -0.869789
-0.441703796387 1.219426274300 0.000609489798 -0.020422 0.856352 -0.515989
-0.529349565506 1.284437894821 0.111742563546 -0.020422 0.856352 -0.515989
-0.325522273779 1.206509709358 -0.025487994775 -0.020422 0.856352 -0.515989
-0.222984910011 1.270550370216 0.076302766800 -0.020422 0.856352 -0.515989
-0.334459722042 1.212422013283 -0.015342091210 -0.020422 0.856352 -0.515989
-0.506631612778 1.224093914032 0.010973491706 -0.020422 0.856352 -0.515989
-0.415006905794 1.281016707420 0.101430900395 -0.020422 0.856352 -0.515989
-0.438684105873 1.292405843735 0.121238544583 -0.020422 0.856352 -0.515989
-0.507387876511 1.138883113861 -0.129985511303 -0.020422 0.856352 -0.515989
-0.424031764269 1.310707926750 0.150925084949 -0.020422 0.856352 -0.515989
-0.256587237120 1.147515416145 -0.127840608358 -0.025937 0.858646 -0.511912
-0.257433444262 1.117597818375 -0.178009301424 -0.025937 0.858646 -0.511912
-0.056682005525 1.209207057953 -0.034425884485 -0.025937 0.858646 -0.511912
-0.065348178148 1.213070869446 -0.027502212673 -0.025937 0.858646 -0.511912
-0.277764439583 1.197167992592 -0.043434545398 -0.025937 0.858646 -0.511912
-0.143110468984 1.236258864403 0.015353307128 -0.025937 0.858646 -0.511912
-0.261371016502 1.163494586945 -0.100779831409 -0.025937 0.858646 -0.511912
-0.516111016273 1.110337734222 -0.177092954516 -0.025937 0.858646 -0.511912
-0.115524426103 1.265450119972 0.062948778272 -0.025937 0.858646 -0.511912
-0.342517793179 1.189640641212 -0.052788361907 -0.025937 0.858646 -0.511912
0.083361446857 1.195885419846 -0.058875724673 -0.001341 0.859615 -0.510941
0.517692208290 1.318239569664 0.144578740001 -0.001341 0.859615 -0.510941
0.235893726349 1.249694943428 0.030774727464 -0.001341 0.859615 -0.510941
0.301214963198 1.254749298096 0.038964755833 -0.001341 0.859615 -0.510941
0.144734010100 1.257856845856 0.044890373945 -0.001341 0.859615 -0.510941
0.101932950318 1.316711425781 0.143895119429 -0.001341 0.859615 -0.510941
0.102195009589 1.196896553040 -0.057263195515 -0.001341 0.859615 -0.510941
0.119757391512 1.248838305473 0.029862225056 -0.001341 0.859615 -0.510941
0.552178442478 1.321138143539 0.149288833141 -0.001341 0.859615 -0.510941
0.052507329732 1.258778810501 0.046855866909 -0.001341 0.859615 -0.510941
0.308329790831 1.305844902992 0.124716959894 -0.001341 0.859615 -0.510941
0.080762676895 1.264905571938 0.057014048100 -0.001341 0.859615 -0.510941
0.374957501888 1.324549317360 0.179026454687 0.001015 0.999295 0.037537
0.352648198605 1.325178265572 0.163109734654 0.001015 0.999295 0.037537
0.092803664505 1.324817657471 0.180622339249 0.001013 0.999371 0.035439
0.037222176790 1.287497401237 0.214485734701 0.006283 0.338001 0.941125
0.425981611013 1.311681866646 0.203234925866 0.006283 0.338001 0.941125
-0.321744024754 1.312065243721 0.201848104596 -0.013898 0.337344 0.941279
-0.137457281351 1.280844211578 0.215697452426 -0.013898 0.337344 0.941279
-0.088579311967 1.322856903076 0.192080855370 -0.028008 0.998948 0.036307
-0.451244145632 1.313477039337 0.176840379834 -0.028064 0.998866 0.038458
-0.352069556713 1.272130012512 0.215677350760 -0.013877 0.334305 0.942363
-0.404184818268 1.263667583466 0.217915445566 -0.013877 0.334305 0.942363
-0.066123925149 1.238961219788 0.209075272083 0.015361 -0.682884 0.730365
-0.497043251991 1.225384831429 0.205248460174 0.015332 -0.684371 0.728973
-0.151447728276 1.215708851814 0.167342066765 0.024392 -0.933332 0.358184
-0.179093331099 1.222919702530 0.188003763556 0.024392 -0.933332 0.358184
-0.425956696272 1.217341542244 0.189830005169 0.024392 -0.933332 0.358184
-0.260147303343 1.189870834351 0.109028577805 0.027286 -0.926419 0.375505
-0.438764333725 1.210038542747 0.172020971775 0.027286 -0.926419 0.375505
-0.467878609896 1.191877722740 0.129384174943 0.027286 -0.926419 0.375505
-0.258837074041 1.157033681870 0.018354065716 0.026762 -0.941779 0.335166
-0.070933640003 1.170058965683 0.039460051805 0.026762 -0.941779 0.335166
-0.217407047749 1.166851878166 0.042529005557 0.026762 -0.941779 0.335166
-0.217242598534 1.175978064537 0.068162836134 0.026762 -0.941779 0.335166
-0.363051265478 1.182062983513 0.097290650010 0.026762 -0.941779 0.335166
-0.446692794561 1.126254200935 -0.069351181388 0.011115 -0.954619 0.297624
-0.251587450504 1.127080321312 -0.074534945190 0.011115 -0.954619 0.297624
-0.521911084652 1.131856083870 -0.048327099532 0.011115 -0.954619 0.297624
-0.530645251274 1.128240704536 -0.059595081955 0.011115 -0.954619 0.297624
-0.373259097338 1.125403165817 -0.075036533177 0.011115 -0.954619 0.297624
-0.453380346298 1.135709047318 -0.038698732853 0.011115 -0.954619 0.297624
-0.503353297710 1.094361066818 -0.144044637680 0.011828 -0.902870 0.429750
-0.201757907867 1.082225322723 -0.177325189114 0.011828 -0.902870 0.429750
-0.343447983265 1.081230163574 -0.175736531615 0.011828 -0.902870 0.429750
-0.174118667841 1.102226734161 -0.136088639498 0.011828 -0.902870 0.429750
-0.441404670477 1.048744559288 -0.241334736347 0.011828 -0.902870 0.429750
-0.214453667402 1.092310309410 -0.155842289329 0.011828 -0.902870 0.429750
-0.503208220005 1.086533665657 -0.160466909409 0.011828 -0.902870 0.429750
-0.464683711529 1.068595767021 -0.199091657996 0.011828 -0.902870 0.429750
-0.433075189590 1.005891680717 -0.331427663565 0.011828 -0.902870 0.429750
-0.418336957693 1.007962465286 -0.327465832233 0.011828 -0.902870 0.429750
-0.030425965786 1.051929712296 -0.245286941528 0.011828 -0.902870 0.429750
-0.053765397519 1.116118550301 -0.110072471201 0.011828 -0.902870 0.429750
-0.073348976672 1.044585585594 -0.259579181671 0.011828 -0.902870 0.429750
-0.109017193317 1.080611467361 -0.183107078075 0.011828 -0.902870 0.429750
-0.470242291689 1.011673212051 -0.318342745304 0.011828 -0.902870 0.429750
0.551729500294 1.015879511833 -0.335933268070 0.011828 -0.902870 0.429750
0.049655377865 1.072918891907 -0.203339740634 0.011828 -0.902870 0.429750
0.116799682379 1.020471096039 -0.315064072609 0.011828 -0.902870 0.429750
0.085347272456 1.086428761482 -0.175930634141 0.011828 -0.902870 0.429750
0.195314586163 1.019426226616 -0.319284319878 0.011828 -0.902870 0.429750
0.133733272552 1.037910580635 -0.278929293156 0.011828 -0.902870 0.429750
0.442017585039 1.028176903725 -0.307309031487 0.011828 -0.902870 0.429750
0.193698436022 1.050677776337 -0.253704428673 0.011828 -0.902870 0.429750
0.534963905811 1.078742027283 -0.203645601869 0.011828 -0.902870 0.429750
0.430691778660 1.106549620628 -0.142631247640 0.011828 -0.902870 0.429750
0.289326012135 1.100567936897 -0.151535764337 0.011828 -0.902870 0.429750
0.393408179283 1.122041940689 -0.109174579382 0.011828 -0.902870 0.429750
0.539189338684 1.075909733772 -0.209695160389 0.011828 -0.902870 0.429750
0.589454829693 1.122996330261 -0.112224094570 0.011828 -0.902870 0.429750
0.473503768444 1.033619165421 -0.296709656715 0.011828 -0.902870 0.429750
0.348812699318 1.079051256180 -0.198200926185 0.011828 -0.902870 0.429750
0.322171390057 1.125560283661 -0.099959470332 0.011828 -0.902870 0.429750
0.568939626217 1.136839032173 -0.075583055615 0.011115 -0.954619 0.297624
0.301471531391 1.158477783203 0.004110230133 0.011115 -0.954619 0.297624
0.266897231340 1.135185480118 -0.069109179080 0.011115 -0.954619 0.297624
0.569213628769 1.189398646355 0.092667609453 0.011115 -0.954619 0.297624
0.422590404749 1.172553777695 0.044453512877 0.011115 -0.954619 0.297624
0.220035374165 1.143892884254 -0.039408527315 0.011115 -0.954619 0.297624
0.207481279969 1.181377530098 0.068758629262 -0.001248 -0.941995 0.335625
0.324327498674 1.180933833122 0.068158283830 -0.001248 -0.941995 0.335625
0.244533747435 1.161163330078 0.012133464217 -0.001248 -0.941995 0.335625
0.132383167744 1.187738060951 0.086224444211 -0.001248 -0.941995 0.335625
0.279888510704 1.167341947556 0.029699616134 -0.001248 -0.941995 0.335625
0.123596817255 1.156865119934 -0.000620327890 -0.001248 -0.941995 0.335625
0.243991896510 1.198779344559 0.115204997361 -0.001275 -0.926619 0.376001
0.356618911028 1.203526973724 0.127601683140 -0.001275 -0.926619 0.376001
0.339906454086 1.208684921265 0.140219077468 -0.001275 -0.926619 0.376001
-0.024525478482 1.229225516319 0.194265216589 0.001264 -0.933865 0.357624
0.021692635491 1.222447752953 0.176380008459 0.001264 -0.933865 0.357624
-0.019798535854 1.193130612373 0.099981412292 0.001264 -0.933865 0.357624
0.189366906881 1.224044919014 0.179881110787 0.001264 -0.933865 0.357624
0.497813254595 1.251557230949 0.217064678669 0.004157 -0.683151 0.730265
0.083893150091 1.241689205170 0.210173115134 0.004157 -0.683151 0.730265
0.164897501469 1.266515970230 0.221133604646 0.006273 0.334978 0.942205
0.544666886330 1.263214468956 0.219639882445 0.006273 0.334978 0.942205
0.404196858406 1.137197732925 -0.154373928905 0.004034 0.853906 -0.520412
0.139114886522 1.173738718033 -0.096157222986 0.004034 0.853906 -0.520412
0.301662296057 1.220786690712 -0.017616212368 0.004034 0.853906 -0.520412
0.448061347008 1.254632234573 0.039094835520 0.004034 0.853906 -0.520412
0.173144489527 1.145022630692 -0.143147557974 0.004034 0.853906 -0.520412
0.363147467375 1.165358781815 -0.108346670866 0.004034 0.853906 -0.520412
0.399790763855 1.261741876602 0.050445288420 0.004034 0.853906 -0.520412
0.540726780891 1.159510731697 -0.116701863706 0.004034 0.853906 -0.520412
0.410510122776 1.259459733963 0.046767920256 0.004034 0.853906 -0.520412
0.268495589495 1.181067228317 -0.083182819188 0.004034 0.853906 -0.520412
0.417117655277 1.266002893448 0.057577297091 0.004034 0.853906 -0.520412
-0.508926212788 1.268443226814 0.158900544047 0.989272 0.134744 -0.056431
-0.508433640003 1.276443719864 0.187624290586 0.989398 0.134761 -0.054135
-0.536501109600 1.258675217628 0.079711072147 0.080798 0.851925 -0.517392
-0.527439832687 1.193129539490 0.003784552217 0.994200 -0.092613 -0.054675
-0.527592003345 1.181740880013 0.019934371114 0.994200 -0.092613 -0.054675
-0.518301606178 1.285646796227 0.214465469122 0.497483 0.768244 0.402880
-0.593517482281 1.268322229385 0.101071991026 -0.182457 0.861852 -0.473203
-0.607119023800 1.166643381119 -0.080217689276 -0.234710 0.858584 -0.455791
-0.579778194427 1.179898977280 -0.064577326179 0.252240 0.824810 -0.506028
-0.607276618481 1.274648904800 0.118089340627 -0.254781 0.855880 -0.450062
-0.629420638084 1.023629069328 -0.312195658684 0.020374 0.857075 -0.514788
-0.643996238708 1.035228729248 -0.290643602610 -0.973595 -0.224303 -0.042436
-0.627113938332 1.156296730042 0.028748631477 -0.965534 0.260274 -0.001199
-0.630936741829 1.147699475288 -0.039074826986 -0.994279 0.090389 0.056912
-0.617181658745 1.185185670853 0.088109642267 -0.833656 -0.420768 0.357731
-0.635286629200 1.116770029068 -0.004727178253 -0.993893 0.103276 0.038867
-0.647411644459 1.052812337875 -0.082801319659 -0.981506 0.188796 0.031661
-0.608344197273 0.974314451218 -0.211935326457 -0.583879 -0.753444 -0.302337
-0.622728228569 0.986697614193 -0.146288275719 -0.562254 -0.819284 0.112451
-0.595337510109 1.056558966637 0.003481436521 -0.328116 -0.444291 0.833634
-0.559531688690 1.023118972778 -0.071830600500 0.517218 -0.735342 0.437900
-0.565548181534 0.999033868313 -0.135239094496 0.561919 -0.820373 0.105995
-0.555810868740 1.024017333984 -0.170640841126 0.968894 -0.246164 0.025465
0.543156862259 1.101336240768 -0.215635120869 0.215049 0.855684 -0.470701
0.548315405846 1.177688360214 -0.080438822508 -0.101739 0.849738 -0.517294
0.557849228382 1.167258858681 -0.102075755596 -0.273378 0.817009 -0.507702
0.606477677822 1.151748657227 -0.132020831108 0.214583 0.862835 -0.457678
0.584769546986 1.250067591667 0.041895166039 0.159761 0.866227 -0.473420
0.531559109688 1.312575936317 0.219572365284 0.306507 0.795648 0.522492
0.527217626572 1.321523785591 0.197437137365 -0.518337 0.753796 0.403878
0.513149261475 1.207291126251 0.059959284961 -0.985386 -0.038301 -0.165972
0.524242818356 1.170427560806 -0.060456000268 -0.991572 -0.116990 -0.055655
0.527629375458 1.145391941071 -0.024922057986 -0.957099 -0.289697 0.006112
0.553768694401 1.069760203362 -0.262066960335 0.431757 0.777163 -0.457825
0.573405683041 1.243195056915 0.210309877992 0.288336 -0.827602 0.481599
0.531453132629 1.122795820236 -0.028153555468 -0.990823 -0.129925 -0.037283
0.543743968010 1.077600717545 -0.188499480486 -0.978856 -0.202399 -0.029591
0.627798140049 1.027359843254 -0.255533993244 0.601937 -0.739981 -0.300166
0.592717528343 1.008790731430 -0.262413591146 -0.552451 -0.770229 -0.318660
0.584373414516 0.998007535934 -0.124372415245 -0.541897 -0.833798 0.105489
0.543809175491 1.064997911453 -0.062716588378 -0.934252 -0.348522 0.075535
0.581765532494 1.157762050629 0.065041311085 0.385155 -0.729337 0.565441
0.597639262676 1.116506218910 0.021990966052 0.340655 -0.434845 0.833585
0.629472315311 1.046645879745 -0.058977711946 0.909394 -0.272964 0.313836
0.600890994072 1.078021883965 0.000496150926 0.340655 -0.434845 0.833585
0.630998134613 1.008016824722 -0.176439642906 0.582227 -0.805145 0.112926
0.614429414272 0.993255794048 -0.191924452782 0.597819 -0.792664 0.119564
0.639509916306 1.039257168770 -0.213022142649 0.984876 -0.161590 -0.062513
0.643095493317 1.055464386940 -0.117411628366 0.999807 0.018977 0.004994
0.636271357536 1.096011400223 -0.139966443181 0.990984 0.127979 0.039639
0.603329718113 1.236783385277 0.100514948368 0.985386 0.038301 0.165972
0.617811560631 1.192939639091 -0.042916655540 0.991706 0.114733 0.057935
-0.545145034790 0.879757702351 -0.368429005146 0.992954 -0.084916 0.082652
-0.548453152180 0.865592956543 -0.331093311310 0.998267 -0.058843 -0.001032
-0.565597772598 0.900016665459 -0.305285096169 0.246178 -0.015611 0.969099
-0.583830773830 0.998754501343 -0.300338387489 0.252280 0.069032 0.965189
-0.566523134708 0.719633579254 -0.409731179476 0.166785 -0.007942 -0.985961
-0.582860469818 0.652484297752 -0.411598742008 0.136443 -0.009984 -0.990598
-0.662201702595 0.627879381180 -0.347415566444 -0.480437 -0.850932 0.212356
-0.665735781193 0.673790574074 -0.407966136932 -0.468921 0.050583 -0.881790
-0.637360870838 0.958598792553 -0.409136891365 -0.168272 0.017171 -0.985591
-0.630452036858 0.728915572166 -0.413866370916 -0.133970 0.009965 -0.990935
-0.626013696194 0.982777833939 -0.303549319506 -0.284974 0.094991 0.953817
-0.670666098595 0.725556135178 -0.393805801868 -0.992954 0.084916 -0.082652
-0.661626040936 0.884081184864 -0.334067285061 -0.998267 0.058843 0.001032
-0.662986576557 0.861126363277 -0.320494979620 -0.998267 0.058843 -0.001032
-0.667094647884 0.791816949844 -0.305219084024 -0.998267 0.058843 -0.001032
-0.649501383305 0.743420422077 -0.234011530876 -0.457197 0.028156 0.888920
-0.637522995472 0.767409741879 -0.230595588684 -0.377751 0.359096 0.853437
-0.626166641712 0.826031625271 -0.250333547592 -0.377751 0.359096 0.853437
-0.612258315086 0.731254339218 -0.215771153569 0.457197 -0.028156 0.888920
-0.626208841801 0.617882311344 -0.305928468704 -0.480437 -0.850932 0.212356
-0.556653916836 0.727229833603 -0.379852414131 0.998267 -0.058843 0.001032
-0.556763827801 0.725375831127 -0.357365489006 0.998267 -0.058843 0.001032
0.578576683998 0.641244471073 -0.354913443327 -0.369342 -0.905251 -0.210018
0.582770109177 0.643378674984 -0.327649891376 -0.402679 -0.891752 0.206465
0.560185253620 0.704829573631 -0.335053265095 -0.996523 -0.083307 0.001055
0.550914704800 0.815135478973 -0.352696865797 -0.996523 -0.083307 -0.001055
0.536331295967 0.930632889271 -0.385271281004 -0.990560 -0.109805 0.082065
0.534963369370 0.960206389427 -0.360500395298 -0.989688 -0.117185 0.082377
0.561686635017 0.985514581203 -0.403739064932 -0.414808 0.792493 -0.447089
0.563368618488 1.025067448616 -0.331796407700 -0.314308 0.850025 -0.422690
0.617839455605 1.026476502419 -0.329586893320 0.218916 0.877154 -0.427408
0.612779259682 0.695556402206 -0.219910770655 -0.439299 -0.659784 0.609674
0.652769863605 0.750213682652 -0.235260039568 0.458187 0.039196 0.887991
0.621624469757 0.623493850231 -0.338052421808 -0.402679 -0.891752 0.206465
0.658978700638 0.650939345360 -0.392366349697 0.470701 -0.855684 -0.215049
0.592488944530 0.799605369568 -0.414445161819 -0.134553 -0.014456 -0.990801
0.555000364780 0.887015700340 -0.409637629986 -0.167151 -0.012508 -0.985852
0.622988045216 1.015946745872 -0.346927016973 0.325165 0.827836 -0.457116
0.616012573242 0.972868621349 -0.300982922316 0.247307 0.020508 0.968720
0.599917709827 0.907113552094 -0.295319050550 -0.383119 0.580433 0.718553
0.652625083923 0.881883502007 -0.301286637783 0.799533 0.426310 0.423093
0.671326398849 0.744448006153 -0.309724867344 0.996523 0.083307 -0.001055
0.664954900742 0.820258200169 -0.280828833580 0.996523 0.083307 -0.001055
0.657908499241 0.904098629951 -0.330694288015 0.996523 0.083307 0.001055
0.659750580788 0.872634410858 -0.356804847717 0.990560 0.109805 -0.082065
0.638118207455 0.959244310856 -0.407473653555 0.654496 0.070795 -0.752743
0.646638453007 0.974270522594 -0.364802062511 0.932414 0.277052 -0.232049
0.642539024353 0.979473590851 -0.312343478203 0.878120 0.231084 0.418933
0.597420930862 0.778099477291 -0.223844036460 -0.407400 0.309009 0.859383
0.570138871670 0.735479593277 -0.238112270832 -0.458187 -0.039196 0.887991
-0.132923975587 0.614235877991 -0.375758588314 -0.015073 -0.831745 -0.554953
-0.288594782352 0.604929029942 -0.357334017754 -0.015050 -0.830480 -0.556846
-0.355964422226 0.596164345741 -0.342298209667 -0.015050 -0.830480 -0.556846
-0.457993447781 0.602778136730 -0.299065381289 -0.018883 -0.991912 0.125516
-0.141831025481 0.594433605671 -0.316258132458 -0.018883 -0.991912 0.125516
-0.185617178679 0.598109483719 -0.294120013714 -0.018883 -0.991912 0.125516
0.087200514972 0.597081661224 -0.309624612331 0.039562 -0.991309 0.125468
0.081246189773 0.598380208015 -0.297575175762 0.039562 -0.991309 0.125468
0.551524281502 0.611791610718 -0.340730309486 0.039562 -0.991309 0.125468
0.057566806674 0.592200577259 -0.338521331549 0.039562 -0.991309 0.125468
0.532598733902 0.625179052353 -0.362378597260 0.034661 -0.830482 -0.555966
0.505042076111 0.632274270058 -0.374618232250 0.034661 -0.830482 -0.555966
0.028015177697 0.602753579617 -0.359212189913 0.034661 -0.830482 -0.555966
0.013528585434 0.614886999130 -0.261493563652 0.026599 -0.642570 0.765765
0.418478131294 0.633525133133 -0.259527176619 0.026599 -0.642570 0.765765
0.562854588032 0.632432818413 -0.265320241451 0.026599 -0.642570 0.765765
0.428442090750 0.666930019855 -0.253045171499 -0.013737 0.318445 0.947842
0.301074236631 0.671722948551 -0.256375610828 -0.013737 0.318445 0.947842
0.375410556793 0.692044556141 -0.262193024158 -0.013737 0.318445 0.947842
0.069813609123 0.712391555309 -0.273154884577 -0.013737 0.318445 0.947842
0.327565699816 0.715077221394 -0.270571291447 -0.013737 0.318445 0.947842
0.192201852798 0.764480590820 -0.282877445221 -0.008031 0.182412 0.983189
0.261064559221 0.754081606865 -0.280420929193 -0.008031 0.182412 0.983189
0.456159353256 0.825178146362 -0.292213737965 -0.008031 0.182412 0.983189
0.190044611692 0.773863077164 -0.284643322229 -0.008031 0.182412 0.983189
0.222517490387 0.801476180553 -0.289233326912 -0.001127 0.165678 0.986179
0.002259165049 0.794851601124 -0.288601309061 -0.001127 0.165678 0.986179
0.230402573943 0.848600625992 -0.297129839659 -0.001127 0.165678 0.986179
0.150927811861 0.775325059891 -0.284997850657 -0.001127 0.165678 0.986179
0.135856330395 0.814620554447 -0.291629731655 -0.001127 0.165678 0.986179
0.187811285257 0.903708457947 -0.305498003960 -0.001081 0.111381 0.993777
0.569769084454 0.920907437801 -0.306876331568 -0.001081 0.111381 0.993777
0.499267220497 0.939491391182 -0.309072643518 -0.001081 0.111381 0.993777
0.521878004074 0.932056903839 -0.308202177286 -0.001081 0.111381 0.993777
0.143479377031 0.926252722740 -0.308099508286 -0.001081 0.111381 0.993777
0.228274196386 0.962080597878 -0.312004536390 -0.001081 0.111381 0.993777
0.101649850607 0.924888968468 -0.308004289865 -0.001081 0.111381 0.993777
0.034305378795 0.973898589611 -0.313599675894 -0.001081 0.111381 0.993777
-0.071212209761 0.934400737286 -0.309311330318 -0.001081 0.111381 0.993777
-0.202476158738 0.990316212177 -0.315770477057 -0.001081 0.111381 0.993777
-0.166101291776 0.960772037506 -0.312403261662 -0.001081 0.111381 0.993777
-0.460030168295 0.943806290627 -0.310891538858 -0.001081 0.111381 0.993777
-0.274560630322 0.928009629250 -0.308870822191 -0.001081 0.111381 0.993777
-0.517563879490 0.878078401089 -0.303563326597 -0.001081 0.111381 0.993777
-0.387708753347 0.875499904156 -0.302907496691 -0.001127 0.165678 0.986179
-0.213173061609 0.795813202858 -0.289186418056 -0.001127 0.165678 0.986179
-0.075745157897 0.739215731621 -0.279414862394 -0.001127 0.165678 0.986179
-0.097797505558 0.810447514057 -0.291420042515 -0.001127 0.165678 0.986179
-0.076912038028 0.799544274807 -0.289548456669 -0.001127 0.165678 0.986179
-0.150248318911 0.740199863911 -0.279459685087 0.003425 0.183805 0.982957
-0.294670522213 0.735878348351 -0.278125703335 0.003425 0.183805 0.982957
-0.186094567180 0.728577554226 -0.277160525322 0.003425 0.183805 0.982957
-0.366367518902 0.780180275440 -0.286128193140 0.003425 0.183805 0.982957
-0.309476047754 0.721834123135 -0.275451660156 0.003425 0.183805 0.982957
-0.471648246050 0.675428986549 -0.258969187737 0.006210 0.319201 0.947667
-0.504031598568 0.719006597996 -0.273389041424 0.006210 0.319201 0.947667
-0.393571674824 0.711625993252 -0.271637350321 0.006210 0.319201 0.947667
-0.063736580312 0.708256781101 -0.272675544024 0.006210 0.319201 0.947667
-0.258656591177 0.637556731701 -0.247643500566 0.006210 0.319201 0.947667
-0.095648683608 0.665107905865 -0.257968485355 0.006210 0.319201 0.947667
-0.427567541599 0.630622565746 -0.253918200731 -0.012504 -0.643272 0.765536
-0.258613258600 0.614878118038 -0.264373421669 -0.012504 -0.643272 0.765536
-0.287421196699 0.513006448746 0.352160930634 0.006618 0.885501 0.464590
-0.411741852760 0.473980188370 0.363279342651 -0.043298 0.172020 0.984141
-0.467275232077 0.488155335188 0.339749097824 -0.999917 -0.012857 -0.000989
-0.416968256235 0.497981607914 0.211207717657 -0.026313 -0.156731 -0.987291
-0.444719493389 0.537621915340 0.285537362099 -0.013244 0.999413 0.031582
-0.253023743629 0.491611450911 0.269198387861 0.999917 0.012857 0.000989
-0.167247205973 0.422003149986 -0.312017410994 0.020485 0.970010 -0.242201
-0.269105017185 0.533435046673 0.124865934253 0.020485 0.970010 -0.242201
-0.170799583197 0.454791992903 -0.181239604950 0.020485 0.970010 -0.242201
-0.192007511854 0.463769644499 -0.147136464715 0.020485 0.970010 -0.242201
-0.285937905312 0.502443015575 -0.000445708632 0.020485 0.970010 -0.242201
-0.342421144247 0.477637171745 0.201991125941 0.022378 0.203762 0.978765
-0.462401390076 0.506617546082 0.192742690444 -0.034480 0.203311 0.978507
-0.549701333046 0.528238475323 0.165468484163 -0.053452 0.982330 0.179361
-0.392608314753 0.484897136688 -0.073867253959 -0.042795 0.969612 -0.240875
-0.459584146738 0.480576753616 -0.079417869449 -0.042795 0.969612 -0.240875
-0.424727350473 0.499269545078 -0.010038463399 -0.042795 0.969612 -0.240875
-0.466884881258 0.515644252300 0.063672691584 -0.042795 0.969612 -0.240875
-0.430259764194 0.488031923771 -0.054491978139 -0.042795 0.969612 -0.240875
-0.270792573690 0.440419822931 -0.249026328325 0.027791 0.970263 -0.240451
-0.314066439867 0.505378603935 0.008741096593 0.027791 0.970263 -0.240451
-0.284356325865 0.480926245451 -0.086701095104 0.027791 0.970263 -0.240451
-0.228862494230 0.438406825066 -0.252209186554 0.027791 0.970263 -0.240451
-0.310021817684 0.419526785612 -0.338225245476 0.027791 0.970263 -0.240451
-0.291568279266 0.461452126503 -0.166367277503 0.027791 0.970263 -0.240451
-0.490172594786 0.477890670300 -0.083840578794 -0.053182 0.968405 -0.243647
-0.471630662680 0.462811440229 -0.147853836417 -0.053182 0.968405 -0.243647
-0.536081671715 0.466940283775 -0.117168851197 -0.053182 0.968405 -0.243647
-0.403146356344 0.426792025566 -0.306122481823 -0.053182 0.968405 -0.243647
-0.405074685812 0.424757182598 -0.313778847456 -0.053182 0.968405 -0.243647
-0.502257645130 0.496535360813 0.193355500698 -0.036804 0.198266 0.979457
-0.519011914730 0.450882107019 0.193729579449 0.023755 -0.778326 0.627411
-0.426029831171 0.438509255648 0.171850576997 0.044856 -0.973492 0.224279
-0.481083303690 0.418507456779 0.098553940654 0.053086 -0.969137 0.240741
-0.507476389408 0.405679017305 0.049457166344 0.054139 -0.978111 0.200916
-0.361545801163 0.380648553371 -0.111234053969 0.054139 -0.978111 0.200916
-0.552835762501 0.387867778540 -0.048129457980 0.012489 -0.986652 0.162361
-0.434394091368 0.387528806925 -0.059369452298 0.012489 -0.986652 0.162361
-0.432733893394 0.379450351000 -0.108586326241 0.012489 -0.986652 0.162361
-0.496727198362 0.361387729645 -0.169760376215 0.011318 -0.941881 0.335757
-0.562568783760 0.356563806534 -0.181049585342 0.011318 -0.941881 0.335757
-0.475434780121 0.362073391676 -0.168570548296 0.011318 -0.941881 0.335757
-0.477063387632 0.287667423487 -0.377939999104 0.011318 -0.941881 0.335757
-0.398337543011 0.316843867302 -0.298552006483 0.011318 -0.941881 0.335757
-0.394344717264 0.328942596912 -0.264638006687 0.011318 -0.941881 0.335757
-0.325136244297 0.329327583313 -0.265955030918 0.011318 -0.941881 0.335757
-0.303667902946 0.339088529348 -0.239226922393 0.011318 -0.941881 0.335757
-0.333961695433 0.288008332253 -0.381944060326 0.011318 -0.941881 0.335757
-0.158602878451 0.357236951590 -0.193167939782 0.011318 -0.941881 0.335757
-0.246709808707 0.337880045176 -0.244602218270 0.011318 -0.941881 0.335757
-0.183778777719 0.396411508322 -0.023159280419 0.012461 -0.986712 0.161998
-0.174056738615 0.389258682728 -0.067627340555 0.012461 -0.986712 0.161998
-0.344310700893 0.391477733850 -0.056817010045 -0.029536 -0.979419 0.199664
-0.277425587177 0.403037577868 0.009754501283 -0.029536 -0.979419 0.199664
-0.258477956057 0.417050927877 0.078782662749 -0.030348 -0.969909 0.241567
-0.357122451067 0.437741100788 0.155822813511 -0.020268 -0.974070 0.225336
-0.244247749448 0.484459251165 0.198201403022 0.024688 0.201028 0.979274
-0.226113483310 0.526501178741 0.129336789250 -0.203530 0.946620 -0.249973
-0.187636077404 0.459990978241 -0.155130624771 -0.194644 0.948719 -0.249090
-0.149723351002 0.460668087006 -0.158321321011 0.141253 0.965445 -0.219007
-0.148483023047 0.478021025658 -0.078665524721 0.207376 0.956605 -0.204700
-0.156197249889 0.482340723276 0.185250312090 0.907075 -0.095264 0.410048
-0.214422285557 0.420633256435 -0.071359276772 -0.991883 -0.101585 -0.076474
-0.211890354753 0.407253116369 -0.083819076419 -0.970454 -0.229877 -0.073312
-0.108075283468 0.399626344442 -0.142915204167 0.970826 0.227479 0.075826
-0.142231300473 0.500934898853 0.042268805206 0.592178 0.795970 -0.125524
-0.118081726134 0.430939555168 -0.074027299881 0.991883 0.101585 0.076474
-0.109258353710 0.434214621782 -0.191715836525 0.991883 0.101585 0.076474
-0.129667520523 0.429076939821 0.057804733515 0.985757 0.014815 0.167522
-0.201581969857 0.438907414675 0.196927741170 0.286694 -0.887100 0.361745
-0.221279233694 0.412389039993 0.040822163224 -0.887734 -0.460355 -0.001319
-0.195113241673 0.332272738218 -0.150841236115 -0.985156 -0.153299 -0.077244
-0.190959960222 0.312887102365 -0.213860690594 -0.999864 -0.014953 -0.006978
-0.176316052675 0.267447203398 -0.238849163055 -0.558142 -0.829744 -0.001358
-0.119376875460 0.293103247881 -0.309148520231 0.601083 -0.690500 -0.402378
-0.105124861002 0.337401866913 -0.068923629820 0.984465 0.156321 0.079951
-0.176992252469 0.383423209190 0.049200199544 -0.449033 -0.840578 0.302981
-0.195143863559 0.345296412706 -0.032636951655 -0.513667 -0.584401 0.628189
-0.109853006899 0.327275067568 -0.055786065757 0.907783 -0.323060 0.267511
-0.093876168132 0.333970278502 -0.266280829906 0.984600 -0.151569 -0.087122
-0.497591465712 0.500007629395 0.038187310100 0.182121 0.951076 -0.249573
-0.482911735773 0.507491469383 0.137402981520 0.989064 0.142599 -0.037646
-0.479450315237 0.477170348167 0.135332077742 0.991746 0.023427 -0.126060
-0.563594877720 0.476145178080 -0.073283411562 -0.231834 0.950382 -0.207430
-0.561524868011 0.481641680002 -0.050221599638 -0.231834 0.950382 -0.207430
-0.558438181877 0.453386187553 -0.176969543099 -0.166993 0.961194 -0.219589
-0.536723613739 0.411026477814 -0.329385995865 0.173385 0.952948 -0.248653
-0.553275167942 0.377591431141 -0.377335160971 0.494944 -0.210389 -0.843070
-0.531452655792 0.384908825159 -0.340720325708 0.962965 -0.182609 -0.198373
-0.510861873627 0.438272982836 0.201091453433 0.356439 -0.897753 0.258825
-0.593636512756 0.468331038952 -0.056434817612 -0.610062 0.782244 -0.126168
-0.585205733776 0.473881423473 -0.057449460030 -0.496740 0.853449 -0.157719
-0.581527948380 0.394126981497 -0.390115946531 -0.525360 -0.195307 -0.828162
-0.591890096664 0.317634224892 -0.348783105612 -0.596050 -0.545394 -0.589296
-0.614748299122 0.301518082619 -0.306229382753 -0.980662 -0.175768 -0.086066
-0.617706358433 0.358286976814 -0.325226515532 -0.984600 -0.087122 -0.151569
-0.611582577229 0.380560696125 -0.130107313395 -0.986935 0.144344 0.071585
-0.609157681465 0.366501808167 -0.078276708722 -0.993931 0.084231 0.070754
-0.623210012913 0.332587450743 -0.271471500397 -0.999857 -0.000993 0.016879
-0.616191625595 0.280351340771 -0.246695250273 -0.980662 -0.175768 -0.086066
-0.603414118290 0.258705019951 -0.152841135859 -0.561268 -0.827633 -0.001359
-0.525525152683 0.320904314518 -0.226167142391 0.999916 0.010923 -0.006951
-0.519829988480 0.367067277431 -0.186589643359 0.993896 -0.086475 -0.068506
-0.531081736088 0.367237567902 0.003176964819 0.424468 -0.831579 0.358194
-0.580297708511 0.471425175667 0.113725915551 -0.985961 -0.007942 0.166785
-0.612610161304 0.425648033619 -0.223155841231 -0.994173 0.075095 0.077337
-0.585838496685 0.476090282202 0.072079695761 -0.994173 0.075095 0.077337
-0.598454236984 0.291599452496 -0.081586182117 -0.484950 -0.769063 0.416372
-0.572281718254 0.312296569347 -0.037408377975 -0.326800 -0.555399 0.764679
-0.582933723927 0.380250453949 0.021288789809 -0.307373 -0.811779 0.496525
-0.553262114525 0.301865786314 -0.043528672308 0.527547 -0.571369 0.628674
-0.544169485569 0.356113195419 -0.351429104805 0.745711 -0.299888 -0.594965
-0.496053040028 0.440714985132 0.015207976103 0.994003 -0.077324 -0.077324
-0.518428683281 0.418550610542 -0.254142284393 0.994003 -0.077324 -0.077324
-0.175097465515 -0.138220161200 -0.425461769104 -0.997400 -0.072063 -0.001044
-0.182236522436 -0.039832655340 -0.360939741135 -0.997400 -0.072063 -0.001044
-0.183184474707 -0.026768315583 -0.386303037405 -0.997400 -0.072063 0.001044
-0.194820567966 0.133595615625 -0.370549529791 -0.997400 -0.072063 0.001044
-0.194985061884 0.135862305760 -0.417879343033 -0.997400 -0.072063 -0.001044
-0.188667148352 0.048791583627 -0.413185060024 -0.997400 -0.072063 -0.001044
-0.197549596429 0.299024730921 -0.396290630102 -0.990040 0.136908 -0.032813
-0.111890770495 0.311440587044 -0.357672750950 0.263925 0.110511 0.958191
-0.185279503465 0.057221557945 -0.334800571203 -0.871914 0.251485 0.420145
-0.123505689204 -0.097170650959 -0.255643337965 -0.476577 -0.033944 0.878477
-0.096112295985 -0.102497786283 -0.267396450043 0.476577 0.033944 0.878477
-0.066767506301 -0.161693334579 -0.334542870522 0.980662 -0.086066 0.175768
