0.046571269631 0.187145024538 -0.468811601400 0.000987 0.010858 -0.999941
-0.079881988466 -0.115923509002 -0.472018152475 0.000987 0.010858 -0.999941
0.811161994934 0.121390849352 -0.469507306814 0.000987 0.010858 -0.999941
0.739965260029 0.413032084703 -0.466421633959 0.000987 0.010858 -0.999941
0.011259207502 -0.058122783899 -0.471406608820 0.000987 0.010858 -0.999941
0.742578744888 -0.163969844580 -0.472526520491 0.000987 0.010858 -0.999941
-0.287392854691 -0.173699080944 -0.472629457712 0.000987 0.010858 -0.999941
0.672587871552 0.499314814806 -0.465508729219 0.000987 0.010858 -0.999941
0.165856316686 -0.132563710213 -0.472194224596 0.000987 0.010858 -0.999941
0.700294435024 0.447408646345 -0.466057896614 0.000987 0.010858 -0.999941
0.303571194410 -0.208210945129 -0.472994595766 0.000987 0.010858 -0.999941
0.449840545654 0.344930857420 -0.467142164707 0.000987 0.010858 -0.999941
0.817981243134 0.336942464113 -0.467226684093 0.000987 0.010858 -0.999941
0.806539893150 0.295143157244 -0.467668920755 0.000987 0.010858 -0.999941
0.736276745796 0.256420493126 -0.468078643084 0.000987 0.010858 -0.999941
0.547111451626 0.381511360407 -0.466755121946 0.000987 0.010858 -0.999941
0.139130353928 0.175616264343 -0.468933582306 0.000987 0.010858 -0.999941
0.389593362808 -0.033914655447 -0.471150487661 0.000987 0.010858 -0.999941
0.027138879523 0.183405876160 -0.468851149082 0.000987 0.010858 -0.999941
0.104700699449 -0.052125066519 -0.471343159676 0.000987 0.010858 -0.999941
0.675840914249 0.364357024431 -0.466936618090 0.000987 0.010858 -0.999941
0.269574105740 0.232740610838 -0.468329161406 0.000987 0.010858 -0.999941
0.777775704861 0.366377562284 -0.466915249825 0.000987 0.010858 -0.999941
0.340142160654 0.252510339022 -0.468120008707 0.000987 0.010858 -0.999941
0.586666882038 0.024507761002 -0.470532357693 0.000987 0.010858 -0.999941
0.816614031792 -0.210998028517 -0.473024100065 0.000987 0.010858 -0.999941
0.003133065999 -0.169681400061 -0.472586929798 0.000987 0.010858 -0.999941
-0.328955918550 -0.012476101518 -0.470923662186 0.000987 0.010858 -0.999941
-0.452893108130 -0.179809749126 -0.472694098949 0.000987 0.010858 -0.999941
-0.151714593172 0.060071289539 -0.470156073570 0.000987 0.010858 -0.999941
0.827618658543 0.044427365065 -0.470321595669 0.000987 0.010858 -0.999941
0.663867473602 0.253633946180 -0.468108117580 0.000987 0.010858 -0.999941
-0.135123655200 -0.146822959185 -0.472345083952 0.000987 0.010858 -0.999941
0.008887091652 0.035576850176 -0.470415234566 0.000987 0.010858 -0.999941
-0.810670197010 -0.230832010508 -0.473233938217 0.000987 0.010858 -0.999941
-0.161563053727 0.004604265094 -0.470742940903 0.000987 0.010858 -0.999941
0.340864837170 -0.100116342306 -0.471850931644 0.000987 0.010858 -0.999941
0.722780048847 0.293990880251 -0.467681109905 0.000987 0.010858 -0.999941
0.561215519905 -0.120562031865 -0.472067236900 0.000987 0.010858 -0.999941
0.099624343216 0.009359419346 -0.470692634583 0.000987 0.010858 -0.999941
0.674064934254 0.170818716288 -0.468984335661 0.000987 0.010858 -0.999941
0.457406044006 0.062244504690 -0.470133095980 0.000987 0.010858 -0.999941
0.472374647856 0.389775902033 -0.466667681932 0.000987 0.010858 -0.999941
0.405396074057 0.333948224783 -0.467258363962 0.000987 0.010858 -0.999941
0.141823619604 0.114572554827 -0.469579428434 0.000987 0.010858 -0.999941
-0.101009882987 -0.076553165913 -0.471601605415 0.000987 0.010858 -0.999941
-0.263205289841 -0.064653173089 -0.471475720406 0.000987 0.010858 -0.999941
0.724147021770 -0.235698968172 -0.473285436630 0.000987 0.010858 -0.999941
0.155797541142 0.080960065126 -0.469935059547 0.000987 0.010858 -0.999941
0.637212336063 -0.156782388687 -0.472450464964 0.000987 0.010858 -0.999941
0.433098852634 0.032590329647 -0.470446825027 0.000987 0.010858 -0.999941
0.198262423277 0.009902596474 -0.470686882734 0.000987 0.010858 -0.999941
0.175170034170 -0.068900495768 -0.471520632505 0.000987 0.010858 -0.999941
0.624586403370 0.252122163773 -0.468124121428 0.000987 0.010858 -0.999941
-0.270352393389 -0.212956532836 -0.473044812679 0.000987 0.010858 -0.999941
0.033708084375 -0.010346591473 -0.470901131630 0.000987 0.010858 -0.999941
-0.538223922253 -0.197994112968 -0.472886502743 0.000987 0.010858 -0.999941
0.387239724398 -0.074994787574 -0.471585124731 0.000987 0.010858 -0.999941
0.757245123386 0.466432005167 -0.465856641531 0.000987 0.010858 -0.999941
-0.553013622761 -0.166570514441 -0.472554028034 0.000987 0.010858 -0.999941
0.693830907345 0.269744485617 -0.467937648296 0.000987 0.010858 -0.999941
0.828634083271 0.217293858528 -0.468492597342 0.000987 0.010858 -0.999941
0.439953416586 -0.192707911134 -0.472830563784 0.000987 0.010858 -0.999941
-0.032906197011 0.093190282583 -0.469805657864 0.000987 0.010858 -0.999941
0.584601938725 -0.042202055454 -0.471238166094 0.000987 0.010858 -0.999941
0.812944531441 0.244671702385 -0.468202948570 0.000987 0.010858 -0.999941
0.496208071709 0.272832423449 -0.467904984951 0.000987 0.010858 -0.999941
0.219081550837 -0.300357460976 -0.473894387484 0.000985 0.008867 -0.999960
-0.196413993835 -0.278599202633 -0.473692685366 0.000985 0.008867 -0.999960
0.625223278999 -0.262332886457 -0.473541885614 0.000985 0.008867 -0.999960
-0.500887095928 -0.256745427847 -0.473490089178 0.000985 0.008867 -0.999960
-0.466520756483 -0.359036833048 -0.474438369274 0.000985 0.008867 -0.999960
-0.674721121788 -0.585734367371 -0.476539999247 0.000985 0.008867 -0.999960
-0.471310436726 -0.382660746574 -0.474657386541 0.000985 0.008867 -0.999960
0.496777445078 -0.305898249149 -0.473945766687 0.000985 0.008867 -0.999960
0.452423185110 -0.291043758392 -0.473808050156 0.000985 0.008867 -0.999960
-0.256941020489 -0.473098218441 -0.475495815277 0.000985 0.008867 -0.999960
-0.104077965021 -0.387385904789 -0.474701195955 0.000985 0.008867 -0.999960
-0.009724590927 -0.436102688313 -0.475152820349 0.000985 0.008867 -0.999960
-0.492905765772 -0.329048246145 -0.474160373211 0.000985 0.008867 -0.999960
-0.411580353975 -0.536757349968 -0.476085960865 0.000985 0.008867 -0.999960
-0.650282382965 -0.312729656696 -0.474009096622 0.000985 0.008867 -0.999960
-0.549524664879 -0.443107157946 -0.475217759609 0.000985 0.008867 -0.999960
0.293854713440 -0.313827693462 -0.474019259214 0.000985 0.008867 -0.999960
-0.389191716909 -0.338966786861 -0.474252313375 0.000985 0.008867 -0.999960
-0.626027882099 -0.566842198372 -0.476364850998 0.000985 0.008867 -0.999960
-0.340180933475 -0.256971031427 -0.473492175341 0.000985 0.008867 -0.999960
-0.530581355095 -0.547789573669 -0.476188242435 0.000985 0.008867 -0.999960
-0.453244209290 -0.395877003670 -0.474779903889 0.000985 0.008867 -0.999960
-0.776073753834 -0.604126989841 -0.476710528135 0.000985 0.008867 -0.999960
0.397691726685 -0.283846527338 -0.473741322756 0.000985 0.008867 -0.999960
0.458188027143 -0.323670148849 -0.474110513926 0.000985 0.008867 -0.999960
-0.811762034893 -0.498240858316 -0.475728899240 0.000985 0.008867 -0.999960
-0.571077466011 -0.270843178034 -0.473620772362 0.000985 0.008867 -0.999960
-0.625533938408 -0.413659065962 -0.474944770336 0.000985 0.008867 -0.999960
-0.806187987328 -0.315205693245 -0.474032044411 0.000985 0.008867 -0.999960
-0.729711890221 -0.478027164936 -0.475541502237 0.000985 0.008867 -0.999960
-0.406381517649 -0.446144521236 -0.475245922804 0.000985 0.008867 -0.999960
-0.628874540329 -0.522572040558 -0.475954443216 0.000985 0.008867 -0.999960
-0.715170204639 -0.299714803696 -0.473888427019 0.000985 0.008867 -0.999960
0.205838948488 -0.286347329617 -0.473764508963 0.000985 0.008867 -0.999960
-0.319618135691 -0.591500818729 -0.476593464613 0.000985 0.008867 -0.999960
0.801945388317 -0.444585859776 -0.475231468678 0.000985 0.008867 -0.999960
-0.380004346371 -0.647947549820 -0.477116763592 0.000985 0.008867 -0.999960
0.692337870598 -0.328764051199 -0.474157750607 0.000985 0.008867 -0.999960
0.746961057186 -0.356873750687 -0.474418342113 0.000985 0.008867 -0.999960
0.552276730537 -0.448931276798 -0.475271761417 0.000985 0.008867 -0.999960
0.242778599262 -0.594066321850 -0.476617246866 0.000985 0.008867 -0.999960
0.522495269775 -0.332834273577 -0.474195480347 0.000985 0.008867 -0.999960
-0.345316767693 -0.531864285469 -0.476040601730 0.000985 0.008867 -0.999960
-0.302013993263 -0.561330139637 -0.476313769817 0.000985 0.008867 -0.999960
0.165526196361 -0.501380443573 -0.475757986307 0.000985 0.008867 -0.999960
-0.292639911175 -0.617438733578 -0.476833909750 0.000985 0.008867 -0.999960
0.833608806133 -0.258701115847 -0.473508208990 0.000985 0.008867 -0.999960
-0.509786844254 -0.649585843086 -0.477131932974 0.000985 0.008867 -0.999960
0.674137592316 -0.315607249737 -0.474035769701 0.000985 0.008867 -0.999960
-0.602357327938 -0.613097012043 -0.476793676615 0.000985 0.008867 -0.999960
-0.184929832816 -0.648768305779 -0.477124363184 0.000985 0.008867 -0.999960
0.614123523235 -0.584297478199 -0.476526677608 0.000985 0.008867 -0.999960
0.594667017460 -0.512628495693 -0.475862264633 0.000985 0.008867 -0.999960
0.179013207555 -0.548485159874 -0.476194679737 0.000985 0.008867 -0.999960
0.718250215054 -0.450880646706 -0.475289821625 0.000985 0.008867 -0.999960
0.452330380678 -0.366681963205 -0.474509268999 0.000985 0.008867 -0.999960
-0.197820901871 -0.562546670437 -0.476325035095 0.000985 0.008867 -0.999960
-0.177257001400 -0.600891888142 -0.476680517197 0.000985 0.008867 -0.999960
0.755375623703 -0.622401475906 -0.476879924536 0.000985 0.008867 -0.999960
0.738468706608 -0.280131965876 -0.473706901073 0.000985 0.008867 -0.999960
0.800606250763 -0.283699393272 -0.473739951849 0.000985 0.008867 -0.999960
-0.131121054292 -0.633567035198 -0.476983428001 0.000985 0.008867 -0.999960
0.553267478943 -0.542317569256 -0.476137518883 0.000985 0.008867 -0.999960
0.514128446579 -0.330061286688 -0.474169760942 0.000985 0.008867 -0.999960
0.426181435585 -0.574993133545 -0.476440429688 0.000985 0.008867 -0.999960
0.755547046661 -0.341004282236 -0.474271208048 0.000985 0.008867 -0.999960
0.405679136515 -0.396911412477 -0.474789500237 0.000985 0.008867 -0.999960
-0.027513105422 -0.581795394421 -0.476503491402 0.000985 0.008867 -0.999960
-0.520283222198 -0.620356976986 -0.476860970259 0.000985 0.008867 -0.999960
-0.594682693481 -0.809016585350 -0.478708982468 0.000987 0.010858 -0.999941
-0.447615802288 -0.688857138157 -0.477519422770 0.000987 0.010858 -0.999941
-0.716698884964 -0.732071697712 -0.477947235107 0.000987 0.010858 -0.999941
-0.010701596737 -0.697224974632 -0.477602273226 0.000987 0.010858 -0.999941
-0.614430606365 -0.659970760345 -0.477233439684 0.000987 0.010858 -0.999941
-0.351819097996 -0.762841105461 -0.478251844645 0.000987 0.010858 -0.999941
-0.330932021141 -0.724280536175 -0.477870106697 0.000987 0.010858 -0.999941
-0.106063276529 -0.696498215199 -0.477595061064 0.000987 0.010858 -0.999941
-0.425176352262 -0.753675639629 -0.478161096573 0.000987 0.010858 -0.999941
-0.228738367558 -0.679937362671 -0.477431118488 0.000987 0.010858 -0.999941
-0.301738381386 -0.729494452477 -0.477921724319 0.000987 0.010858 -0.999941
-0.282119572163 -0.661275744438 -0.477246373892 0.000987 0.010858 -0.999941
-0.857559323311 -0.787466764450 -0.478495627642 0.000987 0.010858 -0.999941
-0.799559235573 -0.685432255268 -0.477485507727 0.000987 0.010858 -0.999941
0.180605471134 -0.688241004944 -0.477513313293 0.000987 0.010858 -0.999941
0.356961995363 -0.677325546741 -0.477405250072 0.000987 0.010858 -0.999941
0.214762657881 -0.679397821426 -0.477425783873 0.000987 0.010858 -0.999941
0.288984477520 -0.844228744507 -0.479082435369 0.000987 0.010858 -0.999941
0.755729675293 -0.732236862183 -0.477962404490 0.000987 0.010858 -0.999941
-0.322489380836 -0.843008995056 -0.479056298733 0.000987 0.010858 -0.999941
0.732257723808 -0.795975804329 -0.478605329990 0.000987 0.010858 -0.999941
0.620977759361 -0.709193825722 -0.477726727724 0.000987 0.010858 -0.999941
0.751051306725 -0.812612831593 -0.478773713112 0.000987 0.010858 -0.999941
-0.328557789326 -0.813053488731 -0.478753745556 0.000987 0.010858 -0.999941
0.710307955742 -0.842409610748 -0.479073584080 0.000987 0.010858 -0.999941
-0.595853149891 -0.843121945858 -0.479051262140 0.000987 0.010858 -0.999941
0.205820143223 -0.753521263599 -0.478164851665 0.000987 0.010858 -0.999941
0.492880046368 -0.771775782108 -0.478355616331 0.000987 0.010858 -0.999941
0.546728670597 -0.695128619671 -0.477583080530 0.000987 0.010858 -0.999941
0.530443072319 -0.771762371063 -0.478356331587 0.000987 0.010858 -0.999941
-0.296036660671 -0.794005572796 -0.478562206030 0.000987 0.010858 -0.999941
-0.295920908451 -0.787239730358 -0.478493899107 0.000987 0.010858 -0.999941
0.830591917038 -0.832604408264 -0.478977322578 0.000987 0.010858 -0.999941
0.531654596329 -0.694060802460 -0.477571934462 0.000987 0.010858 -0.999941
-0.389033704996 -1.645083427429 -0.562132060528 0.002961 0.008884 -0.999956
-0.775314450264 -1.616582274437 -0.562994182110 0.002961 0.008884 -0.999956
-0.707256555557 -1.656176805496 -0.563126683235 0.002961 0.008884 -0.999956
-0.742181420326 -1.626862168312 -0.562984704971 0.002961 0.008884 -0.999956
-0.511795282364 -1.652132272720 -0.562538564205 0.002961 0.008884 -0.999956
-0.154650330544 -1.647513389587 -0.561595559120 0.000991 0.012883 -0.999917
-0.720952630043 -1.758629441261 -0.564238250256 0.000991 0.012883 -0.999917
-0.649603784084 -1.816523432732 -0.564888298512 0.000991 0.012883 -0.999917
-0.116256833076 -1.632598042488 -0.561315476894 0.000991 0.012883 -0.999917
-0.491444706917 -1.706194877625 -0.563066005707 0.000991 0.012883 -0.999917
-0.652791738510 -1.831376075745 -0.565074622631 0.002973 0.010901 -0.999936
-0.585053980350 -1.845229983330 -0.565063893795 0.002973 0.010901 -0.999936
-0.486677348614 -1.788535237312 -0.564137578011 0.002973 0.010901 -0.999936
-0.568289160728 -1.937240958214 -0.566177189350 0.002973 0.012883 -0.999913
-0.648772418499 -1.925079941750 -0.566182971001 0.002973 0.012883 -0.999913
-0.576870679855 -1.907822012901 -0.565812587738 0.002973 0.012883 -0.999913
-0.477955818176 -1.960374593735 -0.566349565983 0.000991 0.014865 -0.999889
-0.381901800632 -1.871157169342 -0.564964175224 0.000991 0.014865 -0.999889
-0.135556519032 -1.698159813881 -0.562200427055 0.000991 0.014865 -0.999889
-0.359749913216 -1.954261541367 -0.566159784794 0.000991 0.014865 -0.999889
-0.088520482183 -1.687390685081 -0.561997413635 0.000991 0.014865 -0.999889
-0.173195600510 -1.778237700462 -0.563410699368 0.000991 0.014865 -0.999889
-0.259294033051 -1.993551373482 -0.566740095615 -0.000991 0.014865 -0.999889
-0.285808831453 -2.006654500961 -0.566942512989 -0.000991 0.014865 -0.999889
-0.217276260257 -1.865993738174 -0.564758539200 -0.000991 0.014865 -0.999889
-0.143866628408 -1.999719738960 -0.566801249981 0.000991 0.014865 -0.999889
-0.049609519541 -1.737804770470 -0.562760353088 0.000991 0.014865 -0.999889
-0.007459897082 -1.995898485184 -0.566640079021 0.000993 0.014894 -0.999889
-0.001101887552 -1.637830018997 -0.561208546162 0.000993 0.014894 -0.999889
-0.016609860584 -1.752435445786 -0.562958002090 0.000993 0.014894 -0.999889
0.004377353936 -1.858613610268 -0.564557135105 -0.000993 0.014894 -0.999889
0.014316956513 -2.035878658295 -0.567251563072 -0.000993 0.014894 -0.999889
0.125104323030 -2.028255462646 -0.567223012447 -0.000991 0.014865 -0.999889
0.010333806276 -1.631056666374 -0.561112880707 -0.000991 0.014865 -0.999889
0.111738339067 -1.927608728409 -0.565684795380 -0.000991 0.014865 -0.999889
0.271533399820 -2.008142232895 -0.566966414452 0.000991 0.014865 -0.999889
0.129990175366 -1.804337978363 -0.563804209232 0.000991 0.014865 -0.999889
0.223380759358 -1.912534713745 -0.565482020378 0.000991 0.014865 -0.999889
0.283124446869 -1.927895188332 -0.565724730492 -0.000991 0.014865 -0.999889
0.311576128006 -1.900813817978 -0.565329134464 -0.000991 0.014865 -0.999889
0.344415545464 -1.918318510056 -0.565609335899 -0.000991 0.014865 -0.999889
0.380009889603 -1.913776516914 -0.565564334393 -0.000991 0.014865 -0.999889
0.230462938547 -1.782721519470 -0.563518524170 -0.000991 0.014865 -0.999889
0.392241656780 -1.915699839592 -0.565607309341 -0.000991 0.014865 -0.999889
0.262563377619 -1.734932065010 -0.562928020954 -0.002973 0.012883 -0.999913
0.385156154633 -1.843532323837 -0.564587771893 -0.002973 0.012883 -0.999913
0.508662462234 -1.862940907478 -0.565091073513 -0.002973 0.012883 -0.999913
0.459953159094 -1.749230980873 -0.563592076302 -0.000991 0.012883 -0.999917
0.729339480400 -1.725890755653 -0.563807249069 -0.000991 0.012883 -0.999917
0.739164352417 -1.810742020607 -0.564986944199 -0.000991 0.012883 -0.999917
0.534982562065 -1.765033841133 -0.563956975937 -0.000991 0.012883 -0.999917
0.533312082291 -1.765335917473 -0.563957810402 -0.000991 0.012883 -0.999917
0.627863287926 -1.841374635696 -0.565128862858 -0.002973 0.010901 -0.999936
0.320200651884 -1.720436334610 -0.562900304794 -0.002973 0.010901 -0.999936
0.395280867815 -1.774618148804 -0.563736617565 -0.002973 0.010901 -0.999936
0.282237946987 -1.696514606476 -0.562518656254 -0.002973 0.010901 -0.999936
0.681774616241 -1.692557573318 -0.563353657722 -0.002961 0.008884 -0.999956
0.745759785175 -1.606648921967 -0.562828660011 -0.002961 0.008884 -0.999956
0.379980176687 -1.652088761330 -0.562164247036 -0.002961 0.008884 -0.999956
0.431571662426 -1.604514360428 -0.561919271946 -0.002961 0.008884 -0.999956
0.479721128941 -1.619618058205 -0.562180221081 -0.002961 0.008884 -0.999956
-0.098186209798 -0.956588923931 0.170813858509 0.001089 -0.123096 0.992394
-0.027663137764 -1.040835261345 0.160384207964 0.001089 -0.123096 0.992394
-0.128057837486 -0.999918997288 0.165449619293 0.001089 -0.123096 0.992394
-0.037683896720 -1.175491571426 0.143713817000 0.001089 -0.123096 0.992394
-0.095508523285 -0.865487992764 0.181557863951 0.007633 -0.114497 0.993394
0.122216410935 -1.003736376762 0.163594663143 0.007633 -0.114497 0.993394
0.050917185843 -1.060106039047 0.157631725073 0.007633 -0.114497 0.993394
0.107216157019 -0.919770896435 0.173507586122 0.007633 -0.114497 0.993394
0.077281504869 -0.926961302757 0.172924220562 0.007633 -0.114497 0.993394
0.129719659686 -0.810926735401 0.186000943184 0.007633 -0.114497 0.993394
-0.038613844663 -0.898753285408 0.177197247744 0.007633 -0.114497 0.993394
-0.014206849039 -1.017028450966 0.163205847144 0.007633 -0.114497 0.993394
-0.118612058461 -0.761382520199 0.179458186030 -0.017516 0.199678 0.979705
-0.107668206096 -0.667307734489 0.160450562835 -0.017516 0.199678 0.979705
-0.095497719944 -0.753458023071 0.178235158324 -0.017516 0.199678 0.979705
0.015017315745 -0.714920282364 0.172255143523 -0.017516 0.199678 0.979705
0.193210691214 -0.671252429485 0.167717099190 -0.022082 0.187120 0.982089
0.095746815205 -0.733188569546 0.177436351776 -0.022082 0.187120 0.982089
0.190420046449 -0.666459977627 0.166739314795 -0.022082 0.187120 0.982089
-0.001355752349 -0.638013064861 0.157107532024 -0.022082 0.187120 0.982089
0.395536005497 -0.695659160614 0.177532196045 -0.024518 0.187968 0.981869
0.451887458563 -0.681172192097 0.176206469536 -0.024518 0.187968 0.981869
0.262471616268 -0.662020385265 0.167683318257 -0.024518 0.187968 0.981869
0.325340896845 -0.749340295792 0.186000734568 -0.024518 0.187968 0.981869
0.297453463078 -0.610442638397 0.158318549395 -0.005919 0.235562 0.971841
0.308406352997 -0.605497121811 0.157181829214 -0.005919 0.235562 0.971841
0.583850026131 -0.622081696987 0.162777215242 -0.005919 0.235562 0.971841
0.596018195152 -0.722874581814 0.185085922480 0.279273 0.225945 0.933250
0.668956995010 -0.649259686470 0.145342081785 0.279273 0.225945 0.933250
0.718967318535 -0.869776010513 0.166961759329 0.263479 0.093824 0.960092
0.763713598251 -0.798139452934 0.147679477930 0.263479 0.093824 0.960092
0.687565267086 -0.755154669285 0.164468839765 0.263479 0.093824 0.960092
0.698541462421 -0.901402413845 0.175002679229 -0.001057 -0.085581 0.996331
0.410925149918 -0.895629763603 0.177481234074 0.009572 -0.081897 0.996595
0.550485074520 -0.788914740086 0.184999302030 0.009572 -0.081897 0.996595
0.429003596306 -0.752311170101 0.189150691032 0.009572 -0.081897 0.996595
0.389358550310 -0.858989775181 0.180707767606 0.009572 -0.081897 0.996595
0.612194955349 -0.985587656498 0.168182089925 0.009572 -0.081897 0.996595
0.445613086224 -0.832802474499 0.182348296046 0.009572 -0.081897 0.996595
0.294350236654 -0.880736768246 0.178450122476 -0.005420 -0.109478 0.993974
0.427182853222 -0.965047419071 0.170011594892 -0.005420 -0.109478 0.993974
0.351938158274 -0.929402232170 0.173461109400 -0.005420 -0.109478 0.993974
0.393263906240 -0.975815117359 0.168618842959 -0.005420 -0.109478 0.993974
0.433106303215 -0.931026399136 0.173785269260 -0.005420 -0.109478 0.993974
0.196365892887 -1.106345057487 0.152180880308 -0.009795 -0.112098 0.993649
0.267501533031 -0.899461567402 0.176143392920 -0.009795 -0.112098 0.993649
0.282930344343 -1.063435077667 0.157855421305 -0.009795 -0.112098 0.993649
0.218576833606 -1.111502051353 0.151818871498 -0.009795 -0.112098 0.993649
0.123604297638 -1.155314445496 0.145960390568 -0.009795 -0.112098 0.993649
0.284342825413 -1.032814621925 0.161312639713 -0.009795 -0.112098 0.993649
0.180852055550 -1.081302523613 0.154844820499 -0.009795 -0.112098 0.993649
0.238198339939 -1.170116662979 0.145106166601 -0.001115 -0.150466 0.988615
-0.169493690133 -1.057274341583 0.158488452435 0.005460 -0.121210 0.992612
-0.203332886100 -1.157141923904 0.146451339126 0.005460 -0.121210 0.992612
-0.336812883615 0.905112922192 -0.446519732475 -0.001063 0.092452 -0.995717
-0.497860133648 0.904227912426 -0.446604400873 -0.001063 0.092452 -0.995717
0.288617074490 0.991382122040 -0.438560634851 -0.001063 0.092452 -0.995717
-0.631295979023 0.879904270172 -0.448847621679 -0.001063 0.092452 -0.995717
-0.390576869249 0.872510492802 -0.449524015188 -0.001063 0.092452 -0.995717
-0.299997031689 0.989202022552 -0.438772976398 -0.001063 0.092452 -0.995717
-0.344021201134 0.933428823948 -0.443911492825 -0.001063 0.092452 -0.995717
-0.271858692169 0.917324244976 -0.445393562317 -0.001063 0.092452 -0.995717
-0.522761583328 0.981265783310 -0.439508408308 -0.001063 0.092452 -0.995717
-0.080606922507 0.908589065075 -0.446194469929 -0.001063 0.092452 -0.995717
-0.559804916382 0.886202991009 -0.448265999556 -0.001063 0.092452 -0.995717
0.461986809969 0.989722847939 -0.438710063696 -0.001063 0.092452 -0.995717
-0.650163769722 0.879324853420 -0.448901355267 -0.001063 0.092452 -0.995717
-0.226932048798 0.931652963161 -0.444072782993 -0.001063 0.092452 -0.995717
-0.279569566250 0.993440091610 -0.438382178545 -0.001063 0.092452 -0.995717
-0.702139854431 0.850523054600 -0.451555520296 -0.001063 0.092452 -0.995717
-0.210454612970 0.907370328903 -0.446309268475 -0.001063 0.092452 -0.995717
0.758841097355 -0.650655567646 -0.009874777868 0.496583 0.819283 0.286671
0.722750961781 -0.650777995586 -0.146819919348 0.506793 0.840645 -0.190987
0.625636696815 -0.629224061966 -0.308994382620 0.506793 0.840645 -0.190987
0.688880383968 -0.638794898987 -0.183854445815 0.506793 0.840645 -0.190987
0.796359002590 -0.668326735497 -0.029198043048 0.506793 0.840645 -0.190987
0.739933907986 -0.647528290749 -0.087239846587 0.506793 0.840645 -0.190987
0.718879759312 -0.641005456448 -0.114309981465 0.506793 0.840645 -0.190987
0.798105776310 -0.705725193024 -0.466363996267 0.277999 0.958397 -0.064739
0.757589519024 -0.676127314568 -0.200982987881 0.277999 0.958397 -0.064739
0.847266554832 -0.720237016678 -0.468633621931 0.277999 0.958397 -0.064739
0.769336879253 -0.687791168690 -0.323975443840 0.277999 0.958397 -0.064739
0.776320278645 -0.695401906967 -0.407205939293 0.277999 0.958397 -0.064739
0.821504473686 -0.684228658676 -0.043092720211 0.277999 0.958397 -0.064739
0.855061650276 -0.726044833660 -0.318848252296 0.861319 0.507538 0.023132
0.845203101635 -0.724192798138 -0.118721708655 0.924731 0.374963 0.065385
0.838623046875 -0.717673540115 -0.061609372497 0.918582 0.392159 0.049186
0.367991179228 -0.626002907753 -0.386469185352 -0.005880 0.974966 -0.222278
0.434353709221 -0.625167250633 -0.384518504143 -0.005880 0.974966 -0.222278
0.410773545504 -0.621584296227 -0.368246406317 -0.005880 0.974966 -0.222278
0.449773937464 -0.601403534412 -0.281004607677 -0.005880 0.974966 -0.222278
0.407153487206 -0.620768308640 -0.364585280418 -0.005880 0.974966 -0.222278
0.385534107685 -0.624125838280 -0.378711789846 -0.005880 0.974966 -0.222278
0.537215054035 -0.633374512196 -0.423045575619 -0.005880 0.974966 -0.222278
0.490691632032 -0.607766687870 -0.309878408909 -0.005880 0.974966 -0.222278
0.295585900545 -0.569927453995 -0.139525875449 -0.005880 0.974966 -0.222278
0.290928870440 -0.593191921711 -0.241086319089 -0.005880 0.974966 -0.222278
0.288787722588 -0.552513778210 -0.063248582184 -0.005880 0.974966 -0.222278
0.215524643660 -0.550572931767 -0.052928287536 -0.005880 0.974966 -0.222278
0.391726762056 -0.579670250416 -0.184518486261 -0.005880 0.974966 -0.222278
0.449820667505 -0.562529861927 -0.111063592136 -0.005880 0.974966 -0.222278
0.349315494299 -0.547597348690 -0.043279822916 -0.005880 0.974966 -0.222278
0.414329200983 -0.576971173286 -0.173289060593 -0.005880 0.974966 -0.222278
0.171236246824 -0.613386034966 -0.311030030251 -0.105178 0.969412 -0.221761
0.166408747435 -0.613075792789 -0.307357460260 -0.105178 0.969412 -0.221761
-0.111027076840 -0.583943128586 -0.046903349459 -0.105178 0.969412 -0.221761
0.109764710069 -0.556543290615 -0.033100806177 -0.105178 0.969412 -0.221761
0.122317910194 -0.613325655460 -0.287292063236 -0.105178 0.969412 -0.221761
-0.046541914344 -0.610334157944 -0.193189069629 -0.105178 0.969412 -0.221761
0.156524360180 -0.632036268711 -0.385481208563 -0.105178 0.969412 -0.221761
-0.087659671903 -0.577690541744 -0.030789334327 -0.105178 0.969412 -0.221761
-0.091551706195 -0.580142915249 -0.039640035480 -0.105178 0.969412 -0.221761
-0.170013323426 -0.605371534824 -0.112270899117 -0.105178 0.969412 -0.221761
-0.104013830423 -0.605407774448 -0.144083738327 -0.105178 0.969412 -0.221761
0.060410574079 -0.644924819469 -0.395720481873 -0.105178 0.969412 -0.221761
-0.080611646175 -0.656352698803 -0.378048658371 -0.105178 0.969412 -0.221761
-0.064052402973 -0.621651053429 -0.234268501401 -0.105178 0.969412 -0.221761
0.142222419381 -0.649531364441 -0.455099225044 -0.105178 0.969412 -0.221761
-0.129540055990 -0.621210038662 -0.200931489468 -0.105178 0.969412 -0.221761
-0.003240704536 -0.625703752041 -0.281153827906 -0.105178 0.969412 -0.221761
0.036237627268 -0.660945713520 -0.454173088074 -0.105178 0.969412 -0.221761
-0.267287254333 -0.655441701412 -0.318726301193 0.010633 0.974693 -0.223293
-0.207341536880 -0.658854842186 -0.330503433943 0.010633 0.974693 -0.223293
-0.237460255623 -0.655060231686 -0.315493345261 0.010633 0.974693 -0.223293
-0.318678885698 -0.689245283604 -0.469218969345 0.010633 0.974693 -0.223293
-0.369551986456 -0.611857712269 -0.133534803987 0.010633 0.974693 -0.223293
-0.302864491940 -0.593133330345 -0.048168733716 0.010633 0.974693 -0.223293
-0.399983793497 -0.684485733509 -0.452675908804 0.010633 0.974693 -0.223293
-0.402304232121 -0.650947809219 -0.306163281202 0.010633 0.974693 -0.223293
-0.240114390850 -0.591897487640 -0.039472695440 0.010633 0.974693 -0.223293
-0.438311427832 -0.612487435341 -0.127844184637 -0.073082 0.972367 -0.221724
-0.446607083082 -0.619434893131 -0.155497491360 -0.073082 0.972367 -0.221724
-0.581052899361 -0.698039293289 -0.455052673817 -0.073082 0.972367 -0.221724
-0.608761429787 -0.656988263130 -0.266476601362 -0.073082 0.972367 -0.221724
-0.642874717712 -0.674507915974 -0.331881582737 -0.073082 0.972367 -0.221724
-0.450627714396 -0.645793020725 -0.269421219826 -0.073082 0.972367 -0.221724
-0.629024386406 -0.682583510876 -0.371734738350 -0.073082 0.972367 -0.221724
-0.411879718304 -0.678520262241 -0.425226241350 -0.073082 0.972367 -0.221724
-0.445450991392 -0.635100483894 -0.224370300770 -0.073082 0.972367 -0.221724
-0.569705963135 -0.682467460632 -0.390693187714 -0.073082 0.972367 -0.221724
-0.749916732311 -0.658223152161 -0.236883223057 -0.053086 0.969137 -0.240741
-0.759057879448 -0.687759459019 -0.353814691305 -0.053086 0.969137 -0.240741
-0.786782443523 -0.696228921413 -0.381734281778 -0.053086 0.969137 -0.240741
-0.614781320095 -0.605233490467 -0.053636539727 -0.053086 0.969137 -0.240741
-0.810172498226 -0.686056375504 -0.335531711578 -0.053086 0.969137 -0.240741
-0.723736763000 -0.670829236507 -0.293511599302 -0.053086 0.969137 -0.240741
-0.685752213001 -0.613119721413 -0.069542691112 -0.053086 0.969137 -0.240741
-0.695929765701 -0.633014559746 -0.147405862808 -0.053086 0.969137 -0.240741
-0.656829357147 -0.616633951664 -0.090161584318 -0.053086 0.969137 -0.240741
-0.821820020676 -0.673389017582 -0.244264125824 -0.861319 0.507538 0.023132
-0.846846640110 -0.721263706684 -0.204500585794 -0.895402 0.440159 0.067189
-0.791131258011 -0.632238864899 -0.049735866487 -0.895402 0.440159 0.067189
-0.825766980648 -0.702601492405 -0.034937176853 -0.891379 0.450453 0.050353
-0.814270853996 -0.702200829983 0.043388105929 -0.861382 0.472945 0.185323
-0.827471137047 -0.721795439720 0.032075349241 -0.861382 0.472945 0.185323
-0.799343585968 -0.717090189457 0.105668127537 -0.875347 0.263659 0.405281
-0.694048106670 -0.683655738831 0.131210535765 -0.101365 0.167314 0.980679
-0.731411933899 -0.691240668297 0.128614977002 -0.101365 0.167314 0.980679
-0.456869184971 -0.601426005363 0.015361016616 -0.127445 0.972875 0.193061
-0.420620113611 -0.608748495579 0.076544627547 -0.127445 0.972875 0.193061
-0.469504237175 -0.628202557564 0.142401918769 -0.127445 0.972875 0.193061
-0.462369382381 -0.623349666595 0.122604116797 -0.127445 0.972875 0.193061
-0.321695625782 -0.597703278065 0.024795353413 0.012741 0.981032 0.193427
-0.377162873745 -0.603194475174 0.055955864489 0.012741 0.981032 0.193427
-0.649234414101 -0.613239228725 0.007557887584 -0.051294 0.929862 0.364316
-0.692732155323 -0.604248285294 -0.021607130766 -0.051294 0.929862 0.364316
-0.752687811852 -0.622291386127 0.015926338732 -0.051294 0.929862 0.364316
-0.479013592005 -0.717400372028 0.162886351347 -0.118461 0.215268 0.969343
-0.631188333035 -0.715058624744 0.143606469035 -0.118461 0.215268 0.969343
-0.440516263247 -0.693278789520 0.162279561162 -0.118461 0.215268 0.969343
-0.440511554480 -0.666034281254 0.156234353781 -0.118461 0.215268 0.969343
-0.692112147808 -0.908541500568 0.166904285550 -0.127010 0.129429 0.983421
-0.635291218758 -0.880431592464 0.170564517379 -0.127010 0.129429 0.983421
-0.662962436676 -0.864907383919 0.164954230189 -0.127010 0.129429 0.983421
-0.521372795105 -0.818344056606 0.177151888609 -0.127010 0.129429 0.983421
-0.458044350147 -0.898760914803 0.177288994193 0.001077 -0.108776 0.994066
-0.567891180515 -0.976676344872 0.168749257922 0.001077 -0.108776 0.994066
-0.568794965744 -1.058502435684 0.159812524915 0.001077 -0.108776 0.994066
-0.726529777050 -0.972974002361 0.169109806418 0.001077 -0.108776 0.994066
-0.534718632698 -0.879496812820 0.179371714592 0.001077 -0.108776 0.994066
0.775367736816 -0.836813509464 0.190964385867 0.924238 -0.032682 0.380415
0.752871036530 -0.771070420742 0.254594713449 0.932123 -0.032320 0.360697
0.744357347488 -0.774280726910 0.261431992054 0.626077 -0.321936 0.710201
0.722193896770 -0.722479283810 0.304446667433 0.626077 -0.321936 0.710201
0.647755980492 -0.332601696253 0.519398212433 0.907304 -0.003905 0.420458
0.710331797600 -0.503135144711 0.375256538391 0.914393 -0.022238 0.404217
0.742642641068 -0.671492278576 0.288004279137 0.928875 -0.021901 0.369746
0.591053307056 0.447694152594 0.627144038677 0.888714 0.011956 0.458306
0.497675150633 0.804786741734 0.687758207321 0.421447 0.044152 0.905777
0.573310852051 0.903923571110 0.645336747169 0.417520 0.101259 0.903008
0.494912356138 1.088005661964 0.669205665588 0.511727 0.065894 0.856617
0.565210461617 1.154422760010 0.617472827435 0.509667 0.148347 0.847486
0.540646314621 1.180585145950 0.629126667976 0.560430 0.081700 0.824162
0.583771884441 1.237899303436 0.593089938164 0.558424 0.173096 0.811295
0.528432369232 1.348923683167 0.610186755657 0.587999 0.141417 0.796404
0.714016973972 1.808255195618 0.311706840992 0.687818 0.638804 0.344726
0.613992154598 1.090795278549 0.569055795670 0.884543 0.025503 0.465761
0.830753624439 0.595551967621 0.109859183431 0.966539 0.008426 0.256380
0.825434446335 0.700786590576 0.126612454653 0.974833 0.008251 0.222785
0.817741930485 0.935931980610 0.151031553745 0.974833 0.008251 0.222785
0.825948894024 1.110283493996 0.068810857832 0.997037 -0.003159 0.076857
0.824125230312 1.097956538200 0.091606497765 0.967003 0.108294 0.230603
0.814396202564 1.159697651863 0.144288495183 0.992313 0.005470 0.123629
0.810653269291 1.140161514282 0.164161249995 0.953236 0.026236 0.301087
0.794408917427 1.247247695923 0.202634438872 0.869274 -0.009376 0.494241
0.771154284477 1.413124799728 0.243918374181 0.870606 0.004000 0.491965
0.792347431183 1.322685480118 0.202321782708 0.940474 0.013886 0.339581
0.800052165985 1.412213444710 0.176969915628 0.942043 0.016438 0.335089
0.814045965672 1.325944304466 0.129294157028 0.989868 0.028282 0.139147
0.818769037724 1.295674562454 0.101747587323 0.989913 0.028219 0.138836
0.826098918915 1.286039352417 0.044812083244 0.992178 0.009911 0.124435
0.843632757664 1.135101675987 -0.095124013722 0.991706 -0.057935 0.114733
0.835092008114 1.154808521271 -0.030615836382 0.984252 -0.048098 0.170103
0.838338613510 1.035485625267 -0.119587086141 0.997237 -0.035348 0.065340
0.837902128696 0.858350694180 -0.116576433182 0.999913 0.012883 -0.002973
0.839878022671 0.705596685410 -0.085548378527 0.999913 0.012883 -0.002973
0.843112885952 0.448903232813 -0.073295861483 0.999913 0.012883 -0.002973
0.842273294926 0.324895292521 0.017025429755 0.999344 0.013270 0.033686
0.840518772602 0.507859945297 0.001177374623 0.999344 0.013270 0.033686
0.840136468410 0.490426838398 0.019229693338 0.999344 0.013270 0.033686
0.840782582760 0.604339957237 -0.042974647135 0.999344 0.013270 0.033686
0.838601112366 0.724703073502 -0.022474754602 0.999344 0.013270 0.033686
0.835768103600 0.642719030380 0.054959300905 0.997249 0.020222 0.071308
0.834394693375 0.721584677696 0.052654296160 0.997249 0.020222 0.071308
0.835424840450 0.620867729187 0.065607547760 0.997249 0.020222 0.071308
0.831651866436 0.771677911282 0.077059671283 0.997249 0.020222 0.071308
0.837648987770 0.611152946949 0.037472218275 0.997249 0.020222 0.071308
0.831933617592 0.835711300373 0.055868763477 0.997249 0.020222 0.071308
0.834488749504 0.559917449951 0.094135478139 0.991672 0.016657 0.127707
0.835846364498 0.843655586243 -0.209940403700 0.999714 0.011097 -0.021185
0.844426929951 0.308086931705 -0.078788682818 0.999714 0.011097 -0.021185
0.840395808220 0.405846327543 -0.215056583285 0.999714 0.011097 -0.021185
0.841304183006 0.516078650951 -0.120174556971 0.999714 0.011097 -0.021185
0.838966667652 0.507774949074 -0.230724513531 0.999714 0.011097 -0.021185
0.842334449291 0.343954533339 -0.156740605831 0.999714 0.011097 -0.021185
0.841941475868 0.522730588913 -0.094147413969 0.999584 0.009115 -0.027344
0.839124917984 0.670564532280 -0.146991506219 0.999584 0.009115 -0.027344
0.841093122959 0.580153167248 -0.105970226228 0.999584 0.009115 -0.027344
0.837465524673 0.952049016953 -0.151223599911 0.997828 -0.054311 0.037272
0.840911567211 1.001375436783 -0.298851788044 0.997891 -0.060190 -0.024287
0.838292181492 0.946280837059 -0.288391590118 0.999120 -0.041843 -0.003062
0.834839820862 0.775349557400 -0.251160502434 0.998726 0.013454 -0.048643
0.839994072914 0.351648241282 -0.258851438761 0.998726 0.013454 -0.048643
0.837336063385 0.502555310726 -0.272884577513 0.998261 0.013560 -0.057371
0.837073922157 0.446624279022 -0.289567172527 0.998261 0.013560 -0.057371
0.831753671169 0.713336288929 -0.323401510715 0.998261 0.013560 -0.057371
0.831582307816 0.635740697384 -0.343930453062 0.998893 0.015495 -0.044418
0.839298725128 0.343886494637 -0.274072885513 0.998893 0.015495 -0.044418
0.829450845718 0.461921155453 -0.432279586792 0.998600 0.019826 -0.049043
0.829832077026 0.376121282578 -0.459115028381 0.998600 0.019826 -0.049043
0.834956049919 0.338214665651 -0.371851801872 0.997518 0.015834 -0.068612
0.828634619713 0.727384448051 -0.375174820423 0.997518 0.015834 -0.068612
0.829054415226 0.771041512489 -0.358460634947 0.999118 -0.017528 -0.038150
0.830987930298 0.866788864136 -0.379876434803 0.997331 -0.054751 -0.048310
0.835855364799 0.948540985584 -0.368458986282 0.997783 -0.050156 -0.043753
-0.869307339191 -0.806447267532 -0.361156553030 -0.994408 0.085936 -0.061383
-0.872257053852 -0.846096217632 -0.369490623474 -0.994408 0.085936 -0.061383
-0.865488171577 -0.768126785755 -0.378451794386 -0.996919 0.061565 -0.048604
-0.864644110203 -0.763590574265 -0.185110881925 -0.970860 0.232563 0.057833
-0.872649490833 -0.807810664177 -0.265279352665 -0.996437 0.084011 0.007444
0.872740328312 -0.843731403351 -0.190421193838 0.990661 0.107254 0.084189
0.862621605396 -0.835566341877 -0.103552915156 0.979176 0.076441 0.188070
0.857345104218 -0.764677643776 -0.039483234286 0.999264 -0.007130 0.037689
0.855180323124 -0.786969244480 0.011065665632 0.998073 -0.022133 0.057966
0.846314013004 -0.825233876705 0.030311796814 0.930877 -0.059418 0.360467
0.832808077335 -0.812300622463 0.064438439906 0.918266 -0.043727 0.393543
0.810254633427 -0.799301385880 0.113846130669 0.901906 -0.038864 0.430181
0.790839433670 -0.931201934814 0.142892271280 0.925325 -0.043313 0.376693
0.778889417648 -0.914045512676 0.174166962504 0.921697 -0.048928 0.384812
0.727686405182 -1.104926466942 0.169274330139 0.253160 -0.219959 0.942087
0.596964299679 -1.091925263405 0.200333729386 0.150475 -0.228983 0.961730
0.549909055233 -1.154588699341 0.191639274359 0.117430 -0.238732 0.963959
0.513655185699 -1.214177131653 0.181073635817 0.114953 -0.246698 0.962250
0.516095757484 -1.377562403679 0.137781366706 0.096501 -0.258622 0.961146
0.389351487160 -1.369776129723 0.151155054569 0.083151 -0.264803 0.960711
0.476461976767 -1.380328416824 0.140625551343 0.083151 -0.264803 0.960711
0.392239958048 -1.175272583961 0.204391509295 0.083151 -0.264803 0.960711
0.363254994154 -1.394666671753 0.146591812372 0.082947 -0.264154 0.960907
0.339301317930 -1.242736339569 0.190435960889 0.082947 -0.264154 0.960907
0.378404736519 -1.211402773857 0.195662766695 0.082947 -0.264154 0.960907
0.199873238802 -1.386046528816 0.158216506243 0.049037 -0.277876 0.959364
0.356889009476 -1.437327980995 0.135265290737 0.049037 -0.277876 0.959364
0.078772127628 -1.477373600006 0.138011679053 0.049037 -0.277876 0.959364
0.245952427387 -1.211415290833 0.206418186426 0.049037 -0.277876 0.959364
0.078965775669 -1.220680117607 0.211811617017 0.046304 -0.276575 0.959876
0.151197716594 -1.219081163406 0.208838760853 0.046304 -0.276575 0.959876
0.123693123460 -1.328112363815 0.178801849484 0.046304 -0.276575 0.959876
0.063157737255 -1.471028327942 0.140264719725 -0.001210 -0.274561 0.961569
0.017542595044 -1.207044363022 0.215823128819 -0.001210 -0.274561 0.961569
0.029319690540 -1.222215771675 0.211492240429 -0.001210 -0.274561 0.961569
0.010999736376 -1.395638823509 0.161797448993 -0.001210 -0.274561 0.961569
-0.063941352069 -1.346128225327 0.175898686051 -0.001210 -0.274561 0.961569
-0.084633365273 -1.447422385216 0.146411523223 -0.046304 -0.276575 0.959876
-0.092285424471 -1.329228639603 0.180010527372 -0.046304 -0.276575 0.959876
-0.219349697232 -1.192636132240 0.213209360838 -0.046304 -0.276575 0.959876
-0.080777131021 -1.479721426964 0.137300297618 -0.049037 -0.277876 0.959364
-0.211140781641 -1.435655593872 0.143303185701 -0.049037 -0.277876 0.959364
-0.222240954638 -1.380062937737 0.158823609352 -0.049037 -0.277876 0.959364
-0.338338494301 -1.433806657791 0.137247115374 -0.049037 -0.277876 0.959364
-0.175025746226 -1.423380017281 0.148728772998 -0.049037 -0.277876 0.959364
-0.363108724356 -1.175254344940 0.206925854087 -0.082947 -0.264154 0.960907
-0.259303241968 -1.186153292656 0.212922051549 -0.082947 -0.264154 0.960907
-0.477018505335 -1.358445882797 0.146594613791 -0.083151 -0.264803 0.960711
-0.487267971039 -1.384955406189 0.138406932354 -0.083151 -0.264803 0.960711
-0.466687411070 -1.244475603104 0.178557768464 -0.096501 -0.258622 0.961146
-0.476907789707 -1.206092119217 0.187495946884 -0.114953 -0.246698 0.962250
-0.507498919964 -1.086131691933 0.214490368962 -0.119177 -0.263236 0.957342
-0.690553247929 -1.045650959015 0.193142205477 -0.253160 -0.219959 0.942087
-0.791395425797 -0.902653217316 0.144889682531 -0.925325 -0.043313 0.376693
-0.801284253597 -0.862862408161 0.126946672797 -0.901906 -0.038864 0.430181
-0.841732561588 -0.843550682068 0.039047390223 -0.930877 -0.059418 0.360467
-0.857958793640 -0.814722836018 -0.063939310610 -0.999264 -0.007130 0.037689
-0.874582588673 -0.840007126331 -0.222682222724 -0.997601 0.060816 0.033076
0.871097505093 -1.095883607864 -0.112201020122 0.986949 -0.093376 0.131199
0.873225569725 -1.061279535294 -0.110633552074 0.981605 -0.051039 0.183977
0.869638442993 -1.037692427635 -0.087375298142 0.971948 -0.040043 0.231763
0.857594788074 -0.939378798008 -0.053489141166 0.959690 0.031038 0.279341
0.699725389481 -1.202137708664 0.153360322118 0.197644 -0.202949 0.959035
0.422245502472 -1.464373826981 0.121698744595 0.086449 -0.279992 0.956102
0.359041154385 -1.532233476639 0.106122337282 0.078855 -0.293443 0.952719
0.298747509718 -1.519312024117 0.113472610712 0.052023 -0.290565 0.955440
0.126680105925 -1.550233364105 0.112312324345 0.047201 -0.307443 0.950395
0.300055205822 -1.542114496231 0.106220766902 0.047201 -0.307443 0.950395
-0.001234519528 -1.533193469048 0.120697483420 -0.001230 -0.308835 0.951115
0.019323199987 -1.580497026443 0.105412781239 -0.001230 -0.308835 0.951115
-0.085327059031 -1.494735598564 0.132458552718 -0.047201 -0.307443 0.950395
-0.086949720979 -1.555343031883 0.112680420280 -0.047201 -0.307443 0.950395
-0.302141487598 -1.518622756004 0.113513782620 -0.052023 -0.290565 0.955440
-0.169069319963 -1.504108309746 0.125164508820 -0.052023 -0.290565 0.955440
-0.369815468788 -1.522771716118 0.108153678477 -0.078855 -0.293443 0.952719
-0.676691174507 -1.131463527679 0.173997238278 -0.214956 -0.242339 0.946079
-0.727679014206 -1.207026124001 0.146586552262 -0.197644 -0.202949 0.959035
-0.780730009079 -1.061284065247 0.148820370436 -0.605367 -0.125810 0.785941
-0.806293487549 -1.041916608810 0.094454117119 -0.911403 -0.052195 0.408191
-0.871937751770 -0.953510582447 -0.110870718956 -0.982879 0.015015 0.183640
-0.871683359146 -1.024231553078 -0.097271278501 -0.976642 0.044447 0.210224
-0.867545127869 -1.074128270149 -0.084868140519 -0.971948 -0.040043 0.231763
0.842080533504 -1.103665471077 0.001172085758 0.944407 -0.085616 0.317437
0.827603340149 -1.225938796997 0.011077012867 0.922257 -0.079435 0.378327
0.666855096817 -1.308736801147 0.134171366692 0.170970 -0.229285 0.958226
0.607061803341 -1.226195454597 0.165524572134 0.172728 -0.242354 0.954688
0.322339475155 -1.646048188210 0.070001833141 0.050070 -0.319680 0.946202
0.349340856075 -1.550346493721 0.100940801203 0.050070 -0.319680 0.946202
0.125701561570 -1.651667475700 0.077285900712 0.045155 -0.336729 0.940518
0.058064553887 -1.672424554825 0.072709031403 -0.001251 -0.336415 0.941713
0.009385801852 -1.679743170738 0.070043303072 -0.001248 -0.335625 0.941995
-0.142696961761 -1.624515414238 0.086222074926 -0.045155 -0.336729 0.940518
-0.315109938383 -1.586475014687 0.090521305799 -0.050070 -0.319680 0.946202
-0.334778606892 -1.645063877106 0.069684058428 -0.050070 -0.319680 0.946202
-0.498311698437 -1.520406961441 0.098306745291 -0.082860 -0.322234 0.943027
-0.452508926392 -1.597360372543 0.076531119645 -0.071332 -0.309970 0.948067
-0.610589921474 -1.450607299805 0.107122451067 -0.105599 -0.275079 0.955605
-0.602704346180 -1.408358812332 0.119605861604 -0.124048 -0.252013 0.959740
-0.628936588764 -1.328179836273 0.136037647724 -0.160963 -0.243440 0.956466
-0.708505392075 -1.263856291771 0.137489333749 -0.170970 -0.229285 0.958226
-0.632931530476 -1.258703708649 0.152521029115 -0.172728 -0.242354 0.954688
-0.759221971035 -1.241769313812 0.124883294106 -0.441711 -0.193526 0.876036
-0.834743320942 -1.138072729111 0.012191595510 -0.922257 -0.079435 0.378327
-0.858741283417 -1.058685064316 -0.045943863690 -0.959022 -0.031016 0.281628
-0.859526753426 -1.056236863136 -0.048409938812 -0.971123 -0.040210 0.235165
-0.841255068779 -1.289296030998 -0.062841139734 -0.971032 -0.112382 0.210874
-0.832102358341 -1.419858336449 -0.123041734099 -0.975787 -0.176619 0.129019
-0.805035829544 -1.545006394386 -0.115078955889 -0.968295 -0.222670 0.113243
-0.810732185841 -1.571990370750 -0.232375994325 -0.976456 -0.212065 0.039537
-0.810603737831 -1.579803943634 -0.272144585848 -0.976545 -0.212084 0.037145
0.809969604015 -1.578326821327 -0.247586756945 0.976456 -0.212065 0.039537
0.814155995846 -1.548627257347 -0.195524677634 0.977241 -0.207439 0.044366
0.796527743340 -1.587304711342 -0.132272601128 0.963404 -0.218302 0.155556
0.811033964157 -1.520331025124 -0.117799118161 0.968295 -0.222670 0.113243
0.816140055656 -1.198101282120 0.044540274888 0.858289 -0.156986 0.488565
0.803905189037 -1.263425230980 0.052479900420 0.924506 -0.116419 0.362954
0.773052752018 -1.329509615898 0.097174420953 0.423598 -0.232006 0.875636
0.733216524124 -1.376107573509 0.103362962604 0.381684 -0.267927 0.884609
0.625518262386 -1.425337433815 0.111880175769 0.160963 -0.243440 0.956466
0.611307024956 -1.533460736275 0.081350989640 0.118390 -0.293980 0.948451
0.520097851753 -1.525644421577 0.093429744244 0.028707 -0.295806 0.954817
0.494186401367 -1.605612874031 0.069162093103 0.008625 -0.296931 0.954860
0.465873539448 -1.645099401474 0.058353237808 0.084574 -0.363802 0.927629
0.226252332330 -1.670263767242 0.065723061562 0.048695 -0.369815 0.927828
0.152916312218 -1.684401988983 0.063946269453 0.048695 -0.369815 0.927828
0.078002274036 -1.739214777946 0.045218113810 0.046176 -0.383924 0.922209
0.053956557065 -1.769141674042 0.033545017242 -0.001278 -0.382163 0.924094
-0.083752088249 -1.739558935165 0.044834475964 -0.046176 -0.383924 0.922209
-0.335528820753 -1.667420148849 0.061100624502 -0.048695 -0.369815 0.927828
-0.413128465414 -1.648305296898 0.061860747635 -0.084574 -0.363802 0.927629
-0.538117170334 -1.530531167984 0.090990640223 -0.102203 -0.314572 0.943716
-0.567226111889 -1.498723268509 0.097731344402 -0.118390 -0.293980 0.948451
-0.624860465527 -1.526450872421 0.081160932779 -0.169160 -0.298437 0.939319
-0.782173097134 -1.410080075264 0.057738933712 -0.918138 -0.131956 0.373645
-0.807300746441 -1.341468930244 0.018823033199 -0.924506 -0.116419 0.362954
-0.825755715370 -1.375885605812 -0.047403838485 -0.955482 -0.147099 0.255767
-0.801561355591 -1.539334058762 -0.091573774815 -0.947740 -0.241367 0.208639
-0.784522652626 -1.681792140007 -0.262387275696 -0.962156 -0.269404 0.040969
-0.792178153992 -1.654805541039 -0.262980848551 -0.958705 -0.276280 0.067479
-0.805333018303 -1.606128215790 -0.283134102821 -0.976949 -0.209774 0.039557
-0.812812566757 -1.579693317413 -0.331741720438 -0.977387 -0.209694 0.027248
-0.810528934002 -1.603796124458 -0.439221084118 -0.966871 -0.255196 0.005991
-0.791421771049 -1.679010152817 -0.532765567303 -0.964591 -0.263727 -0.003613
-0.053902126849 -2.051235437393 -0.550209343433 -0.021641 -0.987513 -0.156043
-0.191318735480 -2.051752090454 -0.513933479786 -0.047547 -0.986889 -0.154238
-0.709800422192 -1.881280183792 -0.505118608475 -0.780894 -0.617417 -0.094875
-0.741355955601 -1.823869466782 -0.547679841518 -0.937672 -0.346670 -0.024305
-0.750655055046 -1.804404139519 -0.424728959799 -0.938282 -0.345683 -0.011396
-0.772216856480 -1.740335822105 -0.430603712797 -0.954234 -0.298120 0.023700
-0.711878657341 -1.901015758514 -0.342611044645 -0.864328 -0.502263 -0.025862
-0.681460797787 -1.938692927361 -0.380865722895 -0.648164 -0.761489 -0.004146
-0.661353886127 -1.955422282219 -0.344115763903 -0.579463 -0.813504 -0.049346
