-0.879018664360 0.093020506203 -0.470240205526 -0.008902 0.002967 -0.999956
-0.862651288509 0.177955061197 -0.468674540520 0.020063 0.997856 0.062300
-0.954806029797 0.163613498211 -0.181568101048 -0.015403 0.999159 0.037995
-0.835524141788 0.165143400431 -0.181766778231 -0.009259 0.998978 0.044239
-0.843704760075 -0.964562535286 0.176394179463 0.031818 -0.831416 0.554739
-0.924316823483 -0.941644906998 0.187812209129 -0.886637 0.044807 0.460291
-0.930941939354 -0.908080339432 0.177237570286 -0.851663 -0.023240 0.523574
-0.942412078381 -0.642213404179 0.170972928405 -0.851663 -0.023240 0.523574
-0.948232948780 -0.930024266243 0.147991314530 -0.851663 -0.023240 0.523574
-0.957307934761 -0.697166621685 0.130366832018 -0.999618 -0.005033 0.027180
-0.958657562733 -0.589719355106 0.097155854106 -0.999618 -0.005033 0.027180
-0.957377314568 -0.758575022221 0.118427127600 -0.999618 -0.005033 0.027180
-0.960002720356 -0.847620666027 0.031595688313 -0.999295 -0.001015 0.037537
-0.959667980671 -0.923904120922 0.037655219436 -0.999295 -0.001015 0.037537
-0.960663914680 -0.812051534653 0.015352426097 -0.999295 -0.001015 0.037537
-0.960724771023 -0.561000108719 -0.082218393683 -0.999995 -0.000981 -0.002944
-0.960660696030 -0.562086105347 -0.100510887802 -0.999995 -0.000981 -0.002944
-0.960745632648 -0.722657203674 -0.011261083186 -0.999995 -0.000981 -0.002944
-0.960424721241 -0.952137351036 -0.013315334916 -0.999995 -0.000981 -0.002944
-0.960398674011 -0.873232722282 -0.053128242493 -0.999995 -0.000981 -0.002944
-0.960489988327 -0.809031248093 -0.051402844489 -0.999995 -0.000981 -0.002944
-0.960518121719 -0.654364824295 -0.105439595878 -0.999995 -0.000981 -0.002944
-0.957509279251 -0.709096670151 -0.169544726610 -0.997224 -0.001049 -0.074451
-0.958989799023 -0.925065696239 -0.146544218063 -0.997224 -0.001049 -0.074451
-0.957123279572 -0.787907660007 -0.173422589898 -0.997224 -0.001049 -0.074451
-0.959542632103 -0.994239628315 -0.138135105371 -0.997066 -0.001048 -0.076536
-0.951749861240 -0.877225399017 -0.242484912276 -0.997066 -0.001048 -0.076536
-0.953647553921 -0.953205108643 -0.216229006648 -0.997066 -0.001048 -0.076536
-0.946992099285 -0.859372615814 -0.292828351259 -0.995480 -0.001067 -0.094960
-0.940144538879 -0.982584238052 -0.362163752317 -0.995480 -0.001067 -0.094960
-0.941224277020 -0.991885185242 -0.350827187300 -0.995480 -0.001067 -0.094960
-0.940590262413 -0.895198285580 -0.358348697424 -0.995047 -0.001069 -0.099398
-0.940414190292 -0.896176517010 -0.360102921724 -0.995047 -0.001069 -0.099398
-0.940193653107 -0.661648333073 -0.362812608480 -0.995047 -0.001069 -0.099398
-0.933736264706 -0.912300109863 -0.432610392570 -0.995927 -0.001061 -0.090153
-0.934686362743 -0.818734586239 -0.422271847725 -0.995927 -0.001061 -0.090153
-0.933019995689 -0.884373128414 -0.440657824278 -0.995927 -0.001061 -0.090153
-0.932811200619 -0.712157785892 -0.442346513271 -0.995698 0.001065 -0.092648
-0.934858977795 -0.595150232315 -0.419553160667 -0.995698 0.001065 -0.092648
-0.902761459351 -0.655365288258 -0.477430641651 -0.036235 0.023812 -0.999060
-0.854016721249 -0.894337117672 -0.484886020422 -0.036235 0.023812 -0.999060
-0.893490612507 -0.778193116188 -0.480679273605 -0.036235 0.023812 -0.999060
-0.874674260616 -0.977742433548 -0.472706437111 -0.032813 -0.990040 -0.136908
-0.844179809093 -1.008954763412 -0.256825566292 -0.005587 -0.988880 -0.148611
-0.866506934166 -1.013821959496 -0.199744060636 -0.001057 -0.996331 -0.085581
-0.952683866024 -1.016360163689 -0.153194025159 -0.013721 -0.997402 -0.070715
-0.849478960037 -1.014874935150 -0.042543776333 -0.015619 -0.998575 0.051022
-0.889077723026 -1.013593554497 -0.022248500958 -0.005103 -0.999195 0.039804
-0.902532160282 -0.998082399368 0.127823114395 0.014209 -0.993541 0.112579
-0.938521265984 -0.351801961660 -0.395790725946 -0.995616 -0.007502 -0.093238
-0.935055434704 -0.236420229077 -0.441403746605 -0.995414 -0.007500 -0.095363
-0.938418507576 -0.257583796978 -0.404563665390 -0.995414 -0.007500 -0.095363
-0.942181408405 -0.356394559145 -0.357931435108 -0.994717 -0.007544 -0.102381
-0.947937786579 -0.277823001146 -0.307537853718 -0.994717 -0.007544 -0.102381
-0.945732116699 -0.452246546745 -0.315343648195 -0.994934 -0.007546 -0.100248
-0.951221942902 -0.519921600819 -0.255030035973 -0.994934 -0.007546 -0.100248
-0.955704212189 -0.527978062630 -0.197885930538 -0.997162 -0.007386 -0.074919
-0.953223526478 -0.510500371456 -0.232620403171 -0.997162 -0.007386 -0.074919
-0.961719572544 -0.224244058132 -0.148114591837 -0.997340 -0.007357 -0.072515
-0.958764255047 -0.353431612253 -0.176003232598 -0.997340 -0.007357 -0.072515
-0.960587859154 -0.265218287706 -0.159651875496 -0.997340 -0.007357 -0.072515
-0.961625397205 -0.464896976948 -0.030971340835 -0.999956 -0.008902 -0.002967
-0.961456477642 -0.445653349161 -0.119885817170 -0.999956 -0.008902 -0.002967
-0.936689078808 -0.562809646130 0.183150589466 -0.845279 -0.020483 0.533932
-0.738207578659 -0.410738527775 0.611317813396 0.027745 -0.418813 0.907649
-0.762510359287 0.074113309383 0.672290742397 -0.793179 -0.004124 0.608975
-0.802484154701 -0.532188653946 0.521194815636 -0.759551 -0.253184 0.599149
-0.829028189182 -0.689862906933 0.427390396595 -0.873815 -0.127700 0.469191
-0.857891440392 -0.763273775578 0.345824092627 -0.893362 -0.129246 0.430348
-0.877225518227 -0.862227559090 0.286084681749 -0.961613 0.051403 0.269552
-0.800208508968 -0.712884724140 0.410158455372 0.032301 -0.622140 0.782239
-0.789288520813 -0.646056294441 0.456675946712 0.037517 -0.557192 0.829536
-0.764205574989 -0.493751049042 0.557895541191 0.031891 -0.556017 0.830559
-0.836727499962 -0.895730078220 0.266015172005 0.040894 -0.624688 0.779803
-0.932253003120 0.175445690751 0.149983420968 0.007401 0.996990 -0.077179
-0.950291097164 0.166778057814 0.048779569566 -0.003176 0.996311 -0.085761
-0.892672777176 0.164111122489 0.010448763147 -0.000989 0.999917 -0.012857
-0.958217382431 0.163198977709 -0.033239271492 -0.007020 0.999794 -0.019053
-0.963774025440 -0.027257323265 -0.004992885049 -0.999995 0.000981 -0.002944
-0.963741600513 -0.073828116059 -0.023431995884 -0.999995 0.000981 -0.002944
-0.963849127293 -0.042181976140 0.022020161152 -0.999999 0.000978 0.000978
-0.963759481907 -0.036961153150 0.098879627883 -0.999999 0.000978 0.000978
-0.963735640049 -0.081940785050 0.132230848074 -0.999999 0.000978 0.000978
-0.959984719753 -0.021020231768 0.124056398869 -0.411594 -0.137198 0.900981
-0.963706076145 0.155356571078 0.026422772557 -0.999876 0.008972 0.012960
-0.963729262352 0.034369088709 0.098916843534 -0.999999 0.000978 0.000978
-0.947176814079 -0.193848907948 0.184594303370 -0.851185 -0.031627 0.523912
-0.944469153881 -0.031290162355 0.130644708872 -0.414382 0.171817 0.893737
-0.771711051464 0.248189464211 0.444735765457 0.975213 0.001171 -0.221267
-0.775409340858 0.193801313639 0.427823752165 0.974582 0.003518 -0.224001
-0.756468892097 0.225210413337 0.505829691887 0.964579 0.006021 -0.263724
-0.712432563305 0.271476030350 0.662645936012 0.980349 -0.083822 -0.178577
-0.716880738735 0.219775199890 0.655795395374 0.929435 0.001268 -0.368984
-0.708719849586 -0.149418979883 0.673841714859 0.929088 0.001271 -0.369856
-0.789089560509 0.169875800610 0.510474324226 -0.026663 -0.984199 0.175046
-0.820444583893 0.157978370786 0.430615901947 -0.028381 -0.988811 0.146448
-0.843457400799 0.143583402038 0.333715915680 -0.007839 -0.988815 0.148938
-0.864063978195 0.077368691564 0.297107845545 -0.013481 -0.050812 0.998617
-0.861391842365 -0.136793911457 0.287803828716 0.026090 -0.042788 0.998743
-0.812002718449 -0.189266234636 0.263590961695 0.974705 0.001170 -0.223492
-0.813828766346 -0.287882030010 0.255173087120 0.974705 0.001170 -0.223492
-0.826088368893 -0.320408612490 0.280950009823 0.025677 -0.025677 0.999340
-0.851059198380 -0.495883792639 0.276110798120 -0.003032 -0.031329 0.999505
-0.811628699303 -0.680871188641 -0.469637513161 0.996794 -0.009534 0.079447
-0.813675940037 -0.853941321373 -0.463873803616 0.996794 -0.009534 0.079447
-0.816204488277 -0.755875229836 -0.423668950796 0.992979 -0.001085 0.118289
-0.815210282803 -0.626755714417 -0.430945008993 0.992979 -0.001085 0.118289
-0.813542068005 -0.146696597338 -0.435129642487 0.994785 -0.003219 0.101947
-0.819911301136 -0.553022980690 -0.384470701218 0.994785 -0.003219 0.101947
-0.820839166641 -0.839463353157 -0.383495599031 0.994785 -0.003219 0.101947
-0.819906294346 -0.367833495140 -0.379299938679 0.994785 -0.003219 0.101947
-0.814254760742 -0.450901150703 -0.436753660440 0.994785 -0.003219 0.101947
-0.820876419544 -0.164831310511 -0.347190529108 0.999032 -0.003061 0.043880
-0.822409689426 -0.424896478653 -0.327943980694 0.999032 -0.003061 0.043880
-0.819952666759 -0.152275741100 -0.367656111717 0.999032 -0.003061 0.043880
-0.821363508701 -0.159122109413 -0.335640996695 0.999032 -0.003061 0.043880
-0.822021484375 -0.507538557053 -0.341954141855 0.999032 -0.003061 0.043880
-0.820362627506 -0.185728475451 -0.360289812088 0.999032 -0.003061 0.043880
-0.821774959564 -0.224537894130 -0.330207556486 0.999032 -0.003061 0.043880
-0.824316740036 0.074287317693 -0.253378748894 0.999032 -0.003061 0.043880
-0.816043734550 0.079356491566 -0.404753923416 0.995717 -0.001063 0.092452
-0.811216115952 -0.104629516602 -0.457461506128 0.995717 -0.001063 0.092452
-0.823849141598 -0.144712284207 -0.207914680243 0.999995 0.002938 0.000979
-0.823358356953 -0.342190325260 -0.181112274528 0.999995 0.002938 0.000979
-0.824395120144 0.074849277735 -0.234611764550 0.999995 0.002938 0.000979
-0.824566960335 0.142994552851 -0.221320137382 0.999995 0.002938 0.000979
-0.822954654694 -0.501233279705 -0.235543489456 0.999995 0.002938 0.000979
-0.824506998062 0.114925689995 -0.130078181624 0.999995 0.002938 0.000979
-0.824321627617 0.044166848063 -0.205945163965 0.999995 0.002938 0.000979
-0.822558820248 -0.683105170727 -0.217934519053 0.999736 -0.000999 0.022971
-0.823023438454 -0.604129433632 -0.197039172053 0.999736 -0.000999 0.022971
-0.823856353760 -0.333549886942 -0.158622771502 0.999736 -0.000999 0.022971
-0.823784232140 -0.501250267029 -0.163019672036 0.999736 -0.000999 0.022971
-0.824347436428 -0.776684880257 -0.140447199345 0.999736 -0.000999 0.022971
-0.822843909264 -0.637822747231 -0.205135107040 0.999736 -0.000999 0.022971
-0.823956429958 -0.528848648071 -0.155698269606 0.999736 -0.000999 0.022971
-0.823809206486 -0.684355020523 -0.163286924362 0.999736 -0.000999 0.022971
-0.824966073036 0.022602347657 -0.074312567711 0.999976 -0.000983 0.006883
-0.824901759624 -0.395653724670 -0.086522981524 0.999976 -0.000983 0.006883
-0.824892163277 -0.406309872866 -0.087955057621 0.999976 -0.000983 0.006883
-0.825020670891 -0.051759410650 -0.067145511508 0.999976 -0.000983 0.006883
-0.824969649315 0.129326894879 -0.073017172515 0.999976 -0.000983 0.006883
-0.824739158154 -0.770986080170 -0.112313807011 0.999976 -0.000983 0.006883
-0.825289487839 -0.031053662300 -0.028953049332 0.999976 -0.000983 0.006883
-0.824638962746 -0.167487412691 -0.122015632689 0.999976 -0.000983 0.006883
-0.823793113232 -0.861561954021 -0.027031734586 0.999936 0.002967 -0.010880
-0.825195491314 -0.046602472663 0.009835032746 0.999936 0.002967 -0.010880
-0.824419021606 -0.596613287926 -0.029773727059 0.999936 0.002967 -0.010880
-0.823796987534 -0.985785365105 -0.051510538906 0.999936 0.002967 -0.010880
-0.824403047562 -0.678161740303 -0.044235225767 0.999936 0.002967 -0.010880
-0.824935078621 -0.174161657691 0.007606957108 0.999936 0.002967 -0.010880
-0.824652493000 -0.625409245491 -0.055602237582 0.999936 0.002967 -0.010880
-0.824267506599 -0.468559443951 0.008241847157 0.999936 0.002967 -0.010880
-0.821503460407 -0.168913036585 0.069937467575 0.998124 0.003109 -0.061152
-0.822254180908 -0.676647305489 0.037095341831 0.998124 0.003109 -0.061152
-0.824691116810 -0.198332846165 0.016295082867 0.998124 0.003109 -0.061152
-0.823025643826 -0.042602375150 0.049986287951 0.998124 0.003109 -0.061152
-0.818536162376 -0.137913465500 0.120017439127 0.998124 0.003109 -0.061152
-0.821058094501 -0.279298871756 0.072811149061 0.998124 0.003109 -0.061152
-0.820315599442 0.107320763171 0.100631676614 0.998124 0.003109 -0.061152
-0.822708249092 -0.314850986004 0.044221997261 0.998124 0.003109 -0.061152
-0.821880221367 -0.228555202484 0.061330605298 0.998124 0.003109 -0.061152
-0.822361707687 -0.517592370510 0.041744198650 0.998124 0.003109 -0.061152
-0.818593561649 -0.908748388290 0.126640066504 0.999298 -0.001012 -0.037461
-0.818477153778 -0.655380189419 0.124982491136 0.999298 -0.001012 -0.037461
-0.818639576435 -0.811321973801 0.123589143157 0.999298 -0.001012 -0.037461
-0.820124030113 -0.723628878593 0.082474045455 0.999298 -0.001012 -0.037461
-0.820872843266 -0.840334773064 0.064751632512 0.999298 -0.001012 -0.037461
-0.818974494934 -0.925349235535 0.116822592914 0.999298 -0.001012 -0.037461
-0.818999230862 -0.392609417439 0.106172032654 0.999298 -0.001012 -0.037461
-0.817982196808 -0.751716613770 0.144017308950 0.999821 -0.000995 -0.018902
-0.817719101906 -0.662877917290 0.151320397854 0.999821 -0.000995 -0.018902
-0.816882550716 -0.403290659189 0.176443547010 0.999821 -0.000995 -0.018902
-0.817559123039 -0.572352051735 0.152737542987 0.999821 -0.000995 -0.018902
-0.815612852573 -0.900536775589 0.213874429464 0.999374 0.001010 -0.035367
-0.815279006958 -0.419821262360 0.228059828281 0.999374 0.001010 -0.035367
-0.814873933792 0.081944122910 0.244471013546 0.999374 0.001010 -0.035367
-0.815469145775 -0.502681672573 0.221855774522 0.999374 0.001010 -0.035367
-0.815292000771 -0.897753536701 0.223000854254 0.999374 0.001010 -0.035367
-0.816160261631 -0.495500743389 0.202332422137 0.999374 0.001010 -0.035367
-0.814494013786 -0.377339899540 0.250734359026 0.999374 0.001010 -0.035367
-0.823974728584 -0.091583520174 -0.253817498684 0.999995 0.002938 0.000979
-0.822750627995 -0.581056714058 -0.259779155254 0.999995 0.002938 0.000979
-0.822280585766 -0.760495543480 -0.324787199497 0.999995 0.002938 0.000979
-0.822430610657 -0.704240202904 -0.296535044909 0.999995 0.002938 0.000979
-0.822138369083 -0.825296044350 -0.267011374235 0.999995 0.002938 0.000979
-0.822549641132 -0.654154002666 -0.314318060875 0.999995 0.002938 0.000979
-0.823503255844 -0.276129603386 -0.285447210073 0.999995 0.002938 0.000979
-0.762439548969 -0.409088432789 0.559431850910 -0.004092 0.568780 -0.822480
-0.780802428722 -0.549120724201 0.462938427925 0.006830 0.566921 -0.823744
-0.766161859035 -0.522304296494 0.481659561396 0.925495 0.104953 -0.363928
-0.735719263554 -0.332026898861 0.600014209747 0.931149 0.006352 -0.364584
-0.732148349285 -0.294494420290 0.609831094742 0.928436 0.016694 -0.371118
-0.747531235218 -0.233918547630 0.617716550827 -0.077549 0.158678 -0.984280
-0.763070940971 -0.117225766182 0.629184901714 -0.045240 0.032615 -0.998444
-0.769331276417 -0.013527251780 0.632964074612 -0.049647 0.032746 -0.998230
-0.767928004265 -0.565043866634 0.466403245926 0.959928 0.011006 -0.280030
-0.780320942402 -0.684891223907 0.417029917240 0.979310 0.003469 -0.202337
-0.802173197269 -0.574116766453 0.384068429470 -0.054076 0.927209 0.370620
-0.800372719765 -0.633301734924 0.320843636990 0.979310 0.003469 -0.202337
-0.792019307613 -0.676356017590 0.360657721758 0.979310 0.003469 -0.202337
-0.808505773544 -0.837739229202 0.279230117798 0.979310 0.003469 -0.202337
-0.892952859402 0.133709162474 0.288477450609 -0.881367 -0.017387 0.472113
-0.905590057373 -0.017907511443 0.259914606810 -0.871937 -0.020215 0.489201
-0.909714818001 -0.544221937656 0.227014020085 -0.867230 -0.031313 0.496922
-0.903567016125 -0.323544472456 0.250646740198 -0.881132 -0.025560 0.472179
-0.895503580570 -0.555539965630 0.251234591007 -0.867647 -0.020304 0.496765
-0.896547913551 -0.792582213879 0.239043146372 -0.857503 -0.023176 0.513957
-0.780741393566 -0.128537505865 0.643397331238 -0.899341 -0.006565 0.437198
-0.818698227406 -0.534582376480 0.488030791283 -0.924006 -0.070872 0.375753
-0.974606394768 -0.237426608801 -0.136427953839 -0.999680 -0.003014 -0.025118
-0.967291951180 -0.576849281788 -0.144844576716 0.000987 0.010858 -0.999941
-0.959375798702 -0.603850960732 -0.145124569535 0.000987 0.010858 -0.999941
-0.975022614002 -0.165768370032 -0.120918959379 -0.999852 -0.002985 -0.016913
-0.973505377769 -0.799669802189 -0.131598129869 -0.999852 -0.002985 -0.016913
-0.974154353142 -0.356680393219 -0.117104202509 0.000997 -0.020933 0.999780
-0.956098258495 -0.620764136314 -0.122456997633 0.000997 -0.020933 0.999780
-0.930011153221 -0.708433687687 0.295835286379 0.000979 -0.002938 0.999995
-0.896845877171 -0.607828497887 0.294426769018 -0.227696 0.897564 0.377535
-0.948654234409 -0.731726229191 0.290207505226 -0.231147 -0.834271 0.500563
-0.953016281128 -0.640429735184 0.405948340893 0.155689 -0.140743 0.977728
-0.987027108669 -0.734643042088 0.374725371599 -0.054467 -0.532096 0.844930
-1.081290721893 -0.631420910358 0.302479714155 -0.708750 -0.206267 -0.674631
-1.079550981522 -0.664055764675 0.311654537916 -0.703126 -0.251229 -0.665205
-1.000000476837 -0.672042131424 0.288506776094 -0.002967 -0.008902 -0.999956
-1.021521806717 -0.686253547668 0.288664072752 -0.000978 -0.000978 -0.999999
-0.916525185108 -0.605278313160 0.310972422361 -0.015042 0.999802 0.013037
-0.974255383015 -0.606203615665 0.354120314121 -0.012883 0.999913 -0.002973
-1.024465680122 -0.605751097202 0.310512095690 -0.000997 0.999780 0.020933
-1.037331104279 -0.606255233288 0.352134913206 0.008867 0.999960 -0.000985
-1.039387464523 -0.606576204300 0.393557161093 -0.012985 0.999855 -0.010987
-0.985971152782 -0.101180255413 0.147512778640 -0.416557 -0.057968 -0.907259
-0.967707812786 -0.139394491911 0.141735389829 -0.445159 -0.081821 -0.891705
-0.967849612236 -0.141838476062 0.149484843016 -0.376390 -0.924350 0.062510
-0.007296642754 -2.491165876389 -0.295991033316 -0.082515 -0.984200 0.156659
-0.137108355761 -2.456918954849 -0.280437827110 -0.002938 0.000979 0.999995
-0.094684764743 -2.453999042511 -0.280347228050 -0.002938 -0.000979 0.999995
0.211979031563 -2.442769050598 -0.280594468117 0.002938 0.000979 0.999995
0.083602063358 -2.469798564911 -0.297115981579 -0.002938 0.000979 -0.999995
-0.271161079407 -2.464009284973 -0.297430694103 0.000978 -0.000978 -0.999999
-0.100657813251 -2.476600885391 -0.224520474672 -0.112713 -0.977262 0.179598
-0.146113947034 -2.470183372498 -0.220171377063 -0.002938 0.000979 0.999995
-0.126945748925 -2.441446542740 -0.220130443573 -0.002938 0.000979 0.999995
0.115646980703 -2.447086811066 -0.220103070140 0.002938 0.000979 0.999995
0.206169486046 -2.432380437851 -0.220296368003 0.002938 0.000979 0.999995
0.175169199705 -2.426446676254 -0.237050220370 -0.002938 0.000979 -0.999995
0.062903046608 -2.459491729736 -0.236780345440 -0.002938 0.000979 -0.999995
-0.353094846010 -2.415118932724 -0.220313906670 0.000978 -0.000978 0.999999
-0.188401669264 -2.442175388336 -0.237085685134 0.002938 0.000979 -0.999995
0.059738934040 -2.478657007217 -0.172624796629 0.082515 -0.984200 0.156659
-0.136245921254 -2.463290214539 -0.157023817301 -0.002938 -0.000979 0.999995
0.088852800429 -2.442845106125 -0.156919360161 0.002938 0.000979 0.999995
0.311103343964 -2.414665222168 -0.174018427730 0.000978 0.000978 -0.999999
-0.254551678896 -2.418617963791 -0.157187417150 -0.000978 -0.000978 0.999999
-0.160047098994 -2.470183610916 -0.173891112208 0.002938 0.000979 -0.999995
0.030902029946 -2.471521377563 -0.106617055833 0.082515 -0.984200 0.156659
-0.001207824913 -2.473001956940 -0.101028256118 -0.082515 -0.984200 0.156659
0.297170102596 -2.447655916214 -0.104313090444 0.094357 -0.979106 0.180136
-0.076481938362 -2.425472259521 -0.090936087072 -0.002938 0.000979 0.999995
0.263997107744 -2.428308248520 -0.091227300465 0.000978 0.000978 0.999999
0.172426909208 -2.426481723785 -0.107957154512 -0.002938 -0.000979 -0.999995
0.102840855718 -2.449997901917 -0.107789836824 -0.002938 0.000979 -0.999995
0.326007187366 -2.422854900360 -0.108058452606 0.000978 -0.000978 -0.999999
-0.252186864614 -2.443243265152 -0.108058452606 -0.000978 -0.000978 -0.999999
-0.187685251236 -2.448919296265 -0.107997484505 0.002938 -0.000979 -0.999995
0.289129078388 -2.435967206955 -0.042869459838 0.091707 -0.979429 0.179745
-0.237058594823 -2.429623603821 -0.035916626453 0.000978 0.000978 0.999999
-0.255419224501 -2.433598995209 -0.035916619003 0.000978 0.000978 0.999999
0.216610997915 -2.425300598145 -0.052758056670 0.000978 -0.000978 -0.999999
0.026790529490 -2.417762756348 -0.052306614816 -0.002938 -0.000979 -0.999995
0.031115457416 -2.437802791595 -0.052317012101 -0.002938 0.000979 -0.999995
0.323197066784 -2.401872396469 -0.052758056670 0.000978 0.000978 -0.999999
0.389321029186 -2.389499664307 -0.035916570574 0.000978 -0.000978 0.999999
0.114178128541 -2.434278964996 -0.208647578955 0.999999 0.000978 0.000978
0.114121481776 -2.438744068146 -0.110333055258 0.999999 -0.000978 0.000978
0.114014536142 -2.407935380936 -0.044960752130 0.999999 0.000978 0.000978
0.096507973969 -2.422761440277 -0.000491352752 -0.999999 0.000978 0.000978
0.096673041582 -2.434599399567 -0.100875139236 -0.999995 0.000979 -0.002938
0.096820481122 -2.460588932037 -0.317209631205 -0.999999 0.000978 -0.000978
0.211334481835 -2.437229633331 -0.064604081213 0.140975 -0.976845 0.160936
0.205294087529 -2.455660581589 -0.337058126926 0.122787 -0.992255 -0.018805
0.312336891890 -2.424687862396 -0.035011969507 0.136191 -0.963714 0.229579
0.303671240807 -2.450692653656 -0.222812116146 0.115955 -0.990782 0.070032
0.301675409079 -2.426288366318 -0.337759524584 -0.999999 0.000978 0.000978
0.319032937288 -2.443538665771 -0.173610657454 0.999999 0.000978 0.000978
0.319032937288 -2.445714712143 -0.315037131310 0.999999 -0.000978 -0.000978
0.005077719688 -2.460041999817 -0.145548298955 0.151955 -0.985941 0.069499
0.013800634071 -2.407396078110 -0.050580721349 0.999999 -0.000978 -0.000978
0.013964246027 -2.449371576309 -0.276578873396 0.999999 0.000978 0.000978
-0.012280366383 -2.420840978622 -0.040229689330 -0.999999 0.000978 0.000978
-0.094987712801 -2.423000097275 0.014893428423 0.999999 0.000978 0.000978
-0.112657859921 -2.458752870560 -0.266172766685 -0.999999 -0.000978 -0.000978
-0.112497106194 -2.439296960831 -0.056729771197 -0.999999 0.000978 0.000978
-0.195395007730 -2.423604011536 -0.115134827793 0.999995 0.000979 -0.002938
-0.195177182555 -2.399834156036 -0.018134094775 0.999999 0.000978 0.000978
-0.212847292423 -2.416738033295 -0.258570492268 -0.999999 0.000978 0.000978
-0.212847292423 -2.448937416077 -0.302018404007 -0.999999 0.000978 0.000978
-0.212817341089 -2.410036325455 -0.124076426029 -0.999999 -0.000978 0.000978
-0.300155073404 -2.441351413727 -0.298187851906 0.999999 0.000978 -0.000978
-0.300155073404 -2.434185266495 -0.239106267691 0.999999 0.000978 -0.000978
-0.300008177757 -2.419427156448 -0.105148442090 0.999995 -0.000979 -0.002938
-0.317512780428 -2.444406509399 -0.169607758522 -0.999999 0.000978 0.000978
-0.807928383350 -2.138935327530 0.008430589922 0.015012 -0.999827 -0.011009
-0.762960910797 -2.149110555649 0.045875493437 0.083333 -0.094749 0.992007
-0.698813021183 -2.138828039169 -0.022804386914 -0.018940 -0.999820 -0.000997
-0.803952336311 -2.135152101517 -0.125135794282 -0.413877 -0.122059 -0.902113
-0.770696997643 -2.152835369110 -0.124821230769 -0.001061 -0.090153 0.995927
-0.745970249176 -2.157369375229 -0.124988913536 -0.016399 -0.110417 0.993750
-0.772182106972 -2.180457592010 -0.128017961979 0.001059 -0.087863 -0.996132
-0.725022256374 -2.158638477325 -0.067449003458 0.892751 -0.344283 -0.290628
-0.850683331490 -2.136989593506 -0.075798049569 -0.984515 -0.094734 -0.147497
-0.828328013420 -2.167418479919 0.009477114305 0.778613 -0.141973 -0.611233
-0.775680124760 -2.124763965607 -0.004133420996 -0.987531 -0.149345 -0.049782
-0.797091364861 -2.148767948151 -0.094059109688 0.694805 -0.098418 -0.712432
-0.642085909843 -2.157889127731 0.014214101247 -0.596645 -0.037904 0.801610
-0.614916324615 -2.134972810745 0.035274885595 -0.257705 -0.038224 0.965467
-0.544050872326 -2.216156005859 0.035825468600 0.169001 -0.038462 0.984865
-0.655933499336 -2.175975799561 -0.071080073714 -0.897552 -0.044540 -0.438653
-0.644021630287 -2.222237348557 -0.092105306685 -0.906006 -0.035921 -0.421738
-0.544873416424 -2.162493705750 -0.119468212128 0.001020 -0.045917 -0.998945
-0.511809527874 -2.206489562988 -0.101050682366 0.651318 -0.029541 -0.758230
-0.499142348766 -2.128867149353 -0.088814847171 0.782031 -0.029379 -0.622547
-0.498310685158 -2.222674369812 -0.062448743731 0.999095 -0.041927 -0.007158
-0.658171236515 -2.141590595245 -0.011813204736 -0.912653 -0.043967 0.406364
-0.546261787415 -2.232258319855 0.023562185466 0.000978 -0.999999 0.000978
0.794219374657 -2.171114444733 0.038900826126 0.413804 -0.089360 0.905970
0.686304688454 -2.139050245285 -0.038616672158 0.016913 -0.999852 -0.002985
0.683756947517 -2.155415058136 -0.086707033217 -0.939265 -0.077942 -0.334225
0.824502587318 -2.138946056366 -0.080499328673 -0.015012 -0.999827 0.011009
0.693646490574 -2.131956338882 -0.104202434421 -0.617417 -0.094875 -0.780894
0.806646466255 -2.153983354568 -0.122143834829 0.413877 -0.122059 -0.902113
0.730306148529 -2.153917551041 0.034309308976 0.496518 -0.128834 -0.858412
0.752516627312 -2.169611930847 -0.035550415516 -0.186609 -0.927432 0.324110
0.818137109280 -2.163325786591 -0.089336350560 0.664746 -0.111038 0.738771
0.693566203117 -2.159754276276 -0.095935054123 -0.633430 -0.079722 0.769682
0.633585453033 -2.137252569199 0.022973464802 0.604221 -0.040845 0.795769
0.560893654823 -2.141483306885 0.041355486959 -0.169001 -0.038462 0.984865
0.515400826931 -2.165702104568 0.019477259368 -0.556696 -0.029009 0.830209
0.507584929466 -2.163388252258 -0.095705486834 -0.782031 -0.029379 -0.622547
0.525069892406 -2.160723447800 -0.113208219409 -0.676192 -0.038275 -0.735731
0.623308718204 -2.203406810760 -0.114070571959 0.600477 -0.046625 -0.798281
0.664258301258 -2.166456937790 -0.037540391088 0.995231 -0.051800 -0.082660
0.664608299732 -2.133923768997 -0.021569132805 0.912653 -0.043967 0.406364
0.632030248642 -2.232258319855 -0.091093756258 0.000978 -0.999999 0.000978
0.599987745285 -2.232258558273 -0.098339624703 0.000978 -0.999999 0.000978
-0.341075450182 -1.581231594086 0.105837248266 -0.246739 0.003576 0.969075
-0.267305850983 -1.757909655571 0.125331267715 -0.256844 0.001195 0.966452
-0.295415610075 -1.623427748680 0.117835752666 -0.256844 0.001195 0.966452
-0.280838221312 -1.460553169250 0.122048586607 -0.248404 0.001189 0.968656
-0.353270441294 -1.704118251801 0.060620129108 -0.967673 -0.013256 0.251860
-0.348953038454 -1.787044882774 0.078310914338 -0.976917 -0.003501 0.213591
-0.345058172941 -1.790305614471 0.083225861192 -0.713468 -0.679857 0.169582
-0.337031245232 -1.809120893478 0.049910292029 -0.886731 -0.453838 0.087975
-0.339242458344 -1.843505024910 0.088917031884 -0.682665 0.726333 0.080057
-0.272926747799 -1.926728367805 0.105940438807 -0.373871 -0.843165 0.386385
-0.228412747383 -1.908617973328 0.119054675102 0.509765 0.001338 0.860313
-0.229592964053 -1.589722871780 0.118889451027 0.514100 0.001342 0.857729
-0.172226667404 -1.505431890488 0.141297638416 -0.553762 -0.001354 0.832674
-0.179607018828 -1.652191996574 0.135949254036 -0.553762 -0.001354 0.832674
-0.205750077963 -1.509186387062 0.119014114141 -0.553762 -0.001354 0.832674
-0.199968069792 -1.414584159851 0.118665724993 -0.312142 0.240220 0.919164
-0.119531966746 -1.474298834801 0.161921322346 -0.422143 0.244873 0.872830
-0.017772113904 -1.535447597504 0.171547189355 0.000978 0.000978 0.999999
-0.052611190826 -1.459627270699 0.171547189355 0.000978 0.000978 0.999999
-0.124231845140 -1.590065121651 0.171547189355 0.000978 0.000978 0.999999
-0.141004234552 -1.833791255951 0.159702256322 -0.537389 -0.006768 0.843308
-0.140193238854 -1.854843139648 0.160039320588 -0.537389 -0.006768 0.843308
-0.131448090076 -1.943327546120 0.140666306019 -0.301770 -0.261342 0.916862
0.047845244408 -1.892660856247 0.171547189355 0.000978 0.000978 0.999999
0.026992544532 -1.691766619682 0.171547189355 0.000978 0.000978 0.999999
0.034771524370 -1.481339454651 0.171547189355 0.000978 0.000978 0.999999
0.038250386715 -1.426348090172 0.161361083388 0.047794 0.471113 0.880777
0.125856906176 -1.412989854813 0.146018922329 0.310527 0.249866 0.917137
0.195785671473 -1.789014577866 0.131955966353 0.551880 -0.001356 0.833922
0.176695570350 -1.477838158607 0.145586684346 0.551880 -0.001356 0.833922
0.191732764244 -1.624214887619 0.135151073337 0.551880 -0.001356 0.833922
0.175155088305 -1.860531091690 0.144577831030 0.537389 -0.006768 0.843308
0.127864599228 -1.650307297707 0.171547189355 0.000978 0.000978 0.999999
0.124022968113 -1.805766701698 0.171547189355 0.000978 0.000978 0.999999
0.096552841365 -1.764399170876 0.171547189355 0.000978 0.000978 0.999999
0.075861923397 -1.655590295792 0.171547189355 0.000978 0.000978 0.999999
-0.090401172638 -1.958398342133 0.114916056395 -0.020722 -0.964162 0.264505
-0.261914759874 -1.948871970177 -0.002616137266 -0.280680 -0.959707 0.013482
-0.317250192165 -1.933649182320 -0.000806130469 -0.264128 -0.963511 0.043401
-0.123936355114 -1.963061094284 -0.018608018756 -0.000981 -0.999987 0.004907
0.042345132679 -1.962917566299 0.024213561788 0.000981 -0.999987 0.004907
0.153051733971 -1.962539911270 0.000333515927 0.001001 -0.999686 0.025017
0.256922692060 -1.954115509987 0.026037760079 0.286558 -0.957277 0.038792
0.103908687830 -1.952887415886 0.134785160422 0.020722 -0.964162 0.264505
0.124574102461 -1.920601010323 0.153170123696 0.391268 -0.259346 0.882977
0.312268197536 -1.932933568954 0.064885415137 0.373871 -0.843165 0.386385
0.360321015120 -1.861523270607 0.060638826340 0.953550 -0.242746 0.178372
0.319917559624 -1.817525029182 0.114648714662 0.256374 -0.010833 0.966517
0.361148327589 -1.794736742973 0.072429433465 0.976870 0.015319 0.213285
0.306514054537 -1.808810114861 0.118174143136 0.246739 0.003576 0.969075
0.322167187929 -1.768966555595 0.114046260715 0.246739 0.003576 0.969075
0.286590009928 -1.715131521225 0.123066924512 0.256844 0.001195 0.966452
0.299173295498 -1.535722494125 0.119711555541 0.256844 0.001195 0.966452
0.335829526186 -1.451171278954 0.065474390984 0.234547 0.916606 0.323762
0.327021211386 -1.471353292465 0.112960688770 0.248404 0.001189 0.968656
0.233605101705 -1.512262463570 0.114602446556 -0.514100 0.001342 0.857729
0.236778393388 -1.943834424019 0.112537868321 0.321845 -0.713235 0.622665
-0.020857073367 -1.716065049171 0.171547189355 0.000978 0.000978 0.999999
-0.244216203690 -1.793975591660 0.128225266933 0.538096 0.001349 0.842882
-0.237503811717 -1.452769994736 0.123930037022 0.538096 0.001349 0.842882
0.290867000818 -2.002626895905 0.041882082820 -0.017946 0.807590 0.589472
0.375061303377 -2.019085168839 0.062254019082 -0.004146 0.761489 0.648164
0.073632054031 -2.065603971481 0.046204239130 -0.029260 -0.801160 0.597735
0.299705028534 -2.073668479919 0.041009653360 -0.011983 -0.885403 0.464670
0.647350490093 -2.031505346298 0.001152884215 -0.997963 -0.058082 0.026401
0.717260718346 -1.966648459435 0.048259668052 0.000978 0.000978 0.999999
0.705239295959 -1.972531557083 0.048259668052 0.000978 0.000978 0.999999
0.717282950878 -1.923341512680 0.044919434935 0.001016 0.999213 0.039643
-0.522242367268 -1.634318113327 0.128683447838 0.264836 -0.069694 0.961772
-0.474663376808 -1.590103149414 0.114017300308 0.264836 0.069694 0.961772
-0.465855062008 -1.588806748390 0.053326897323 0.917722 0.379509 0.117303
-0.552484393120 -1.561282873154 0.127381488681 0.167600 0.170159 0.971059
-0.534230113029 -1.531272411346 0.093298316002 0.379457 0.914337 0.141421
-0.635225176811 -1.545139908791 0.051712356508 -0.376282 0.908513 0.181703
-0.636066079140 -1.562032938004 0.083691127598 -0.899458 0.378796 0.217918
-0.633367300034 -1.671782732010 0.114608615637 -0.900145 -0.380774 0.211541
-0.610641837120 -1.705904245377 0.072706513107 -0.362587 -0.914287 0.180582
-0.553133845329 -1.629361271858 0.137084081769 0.167600 -0.170159 0.971059
0.514026284218 -1.690110921860 0.115747988224 -0.167600 -0.170159 0.971059
0.506948828697 -1.597445845604 0.117197096348 -0.264836 0.069694 0.961772
0.620222747326 -1.531532764435 0.061789389700 0.376282 0.908513 0.181703
0.664298236370 -1.588242292404 0.106504470110 0.899458 0.378796 0.217918
0.639419496059 -1.599899888039 0.132244452834 0.074787 0.072555 0.994557
0.581442892551 -1.528796076775 0.122230127454 -0.026613 0.172403 0.984667
0.632273375988 -1.704036593437 0.084392115474 0.362587 -0.914287 0.180582
-0.429130226374 -1.787807941437 0.018470190465 0.999999 0.000978 0.000978
-0.429130226374 -1.851201415062 0.046074241400 0.999999 0.000978 0.000978
-0.459250509739 -1.785715341568 0.064628243446 0.000978 0.999999 0.000978
-0.664603769779 -1.785715341568 -0.025211796165 0.000978 0.999999 0.000978
-0.598269343376 -1.785715341568 -0.040505774319 0.000978 0.999999 0.000978
-0.539972484112 -1.785715341568 -0.026421714574 0.000978 0.999999 0.000978
-0.715495765209 -1.841006994247 0.011836662889 -0.999999 0.000978 0.000978
-0.715495765209 -1.967008829117 0.038097955287 -0.999999 0.000978 0.000978
-0.715495765209 -1.956383466721 0.053126983345 -0.999999 0.000978 0.000978
-0.559814155102 -1.984542250633 0.038722939789 0.000978 -0.999999 0.000978
-0.667892932892 -1.984542250633 0.000233799219 0.000978 -0.999999 0.000978
-0.430661559105 -1.984542250633 0.035478118807 0.000978 -0.999999 0.000978
-0.545450210571 -1.984542250633 -0.039822138846 0.000978 -0.999999 0.000978
-0.605189919472 -1.861978292465 0.077861264348 0.000978 0.000978 0.999999
-0.647441089153 -1.824938416481 0.077861264348 0.000978 0.000978 0.999999
-0.473671674728 -1.833938598633 0.077861264348 0.000978 0.000978 0.999999
-0.560177266598 -1.928154230118 0.077861264348 0.000978 0.000978 0.999999
-0.679874539375 -1.898030400276 0.077861264348 0.000978 0.000978 0.999999
-0.702489554882 -1.840550541878 0.077861264348 0.000978 0.000978 0.999999
0.647384464741 -1.918522477150 -0.054536130279 0.999999 0.000978 0.000978
0.647384464741 -1.949737429619 0.064757630229 0.999999 0.000978 0.000978
0.647384464741 -2.080338716507 0.080238342285 0.999999 0.000978 0.000978
0.608214199543 -1.966601610184 0.092077016830 0.000978 0.000978 0.999999
0.593816757202 -1.887414693832 0.092077016830 0.000978 0.000978 0.999999
0.481095016003 -1.925369977951 0.092077016830 0.000978 0.000978 0.999999
0.540819704533 -1.871260762215 0.004591777921 0.000978 0.999999 0.000978
0.469829082489 -1.871260762215 0.077423147857 0.000978 0.999999 0.000978
0.439957231283 -1.871260762215 0.077352307737 0.000978 0.999999 0.000978
0.608794629574 -1.871260762215 -0.053315106779 0.000978 0.999999 0.000978
0.602698028088 -1.871260762215 0.003665875643 0.000978 0.999999 0.000978
0.391760230064 -2.005666494370 0.024229116738 -0.999999 0.000978 0.000978
0.391760230064 -1.886967182159 -0.083091735840 -0.999999 0.000978 0.000978
0.391760230064 -1.976334571838 0.044855102897 -0.999999 0.000978 0.000978
0.391760230064 -2.000815153122 -0.065002650023 -0.999999 0.000978 0.000978
0.391760230064 -1.948115229607 -0.069067224860 -0.999999 0.000978 0.000978
0.524642348289 -2.088186025620 0.062331750989 0.000978 -0.999999 0.000978
0.391933202744 -2.088186025620 -0.035071521997 0.000978 -0.999999 0.000978
0.534612894058 -2.088186025620 -0.084912173450 0.000978 -0.999999 0.000978
0.598560750484 -2.088186025620 -0.115645736456 0.000978 -0.999999 0.000978
0.568139553070 -2.088186025620 -0.016765438020 0.000978 -0.999999 0.000978
0.507108569145 -2.081036567688 0.092077016830 0.000978 0.000978 0.999999
0.528554022312 -2.051565885544 0.092077016830 0.000978 0.000978 0.999999
0.442239850760 -1.957310914993 0.092077016830 0.000978 0.000978 0.999999
0.745436906815 -1.856967449188 0.039431724697 0.999999 0.000978 0.000978
0.529204130173 -1.751292228699 0.101911097765 0.000978 0.000978 0.999999
0.683133184910 -1.822468519211 0.101911097765 0.000978 0.000978 0.999999
0.493368417025 -1.729940414429 0.097457826138 0.000978 0.999999 0.000978
0.485828161240 -1.729940414429 0.081049978733 0.000978 0.999999 0.000978
0.627469718456 -1.729940414429 0.007830075920 0.000978 0.999999 0.000978
0.535881817341 -1.861294150352 0.017555557191 0.000978 -0.999999 0.000978
0.605167508125 -1.861294150352 0.060794882476 0.000978 -0.999999 0.000978
0.704227745533 -1.861294150352 0.004577450454 0.000978 -0.999999 0.000978
0.590602934361 -1.861294150352 -0.027566831559 0.000978 -0.999999 0.000978
0.569884777069 -1.861256003380 0.101911097765 0.000978 0.000978 0.999999
0.598807573318 -1.859771490097 0.101911097765 0.000978 0.000978 0.999999
-0.544550955296 -2.038758039474 -0.039134938270 0.924466 0.381263 0.001275
-0.557855725288 -2.020031452179 0.018729493022 0.381263 0.924466 0.001275
-0.620464622974 -2.016128063202 0.046870019287 -0.381263 0.924466 0.001275
-0.633324623108 -2.021454811096 0.070730656385 -0.381263 0.924466 0.001275
-0.650076389313 -2.055376529694 0.059447348118 -0.924466 0.381263 0.001275
-0.649385809898 -2.053709506989 -0.038735248148 -0.924466 0.381263 0.001275
-0.642363965511 -2.094280004501 0.018443353474 -0.924466 -0.381263 0.001275
-0.284982502460 -2.247897863388 -0.030462052673 0.000978 -0.999999 0.000978
-0.067447096109 -2.247897863388 -0.218556091189 0.000978 -0.999999 0.000978
-0.388318538666 -2.247897863388 -0.248011618853 0.000978 -0.999999 0.000978
-0.350187569857 -2.247897863388 -0.312236845493 0.000978 -0.999999 0.000978
-0.211056083441 -2.247897863388 -0.081176444888 0.000978 -0.999999 0.000978
-0.284123688936 -2.247897863388 -0.269044488668 0.000978 -0.999999 0.000978
-0.323522627354 -2.247897863388 0.025208588690 0.000978 -0.999999 0.000978
-0.151316314936 -2.247897863388 -0.181747555733 0.000978 -0.999999 0.000978
-0.395605653524 -2.247897863388 -0.203877642751 0.000978 -0.999999 0.000978
-0.377104550600 -2.247897863388 -0.028474692255 0.000978 -0.999999 0.000978
0.185930609703 -2.247897863388 -0.095128014684 0.000978 -0.999999 0.000978
0.037058502436 -2.247897863388 0.001776243444 0.000978 -0.999999 0.000978
-0.021494448185 -2.247897863388 -0.135846778750 0.000978 -0.999999 0.000978
0.301983118057 -2.247897863388 -0.039314266294 0.000978 -0.999999 0.000978
0.017709136009 -2.247897863388 0.007737736683 0.000978 -0.999999 0.000978
-0.445885032415 -2.247897863388 -0.289687633514 0.000978 -0.999999 0.000978
0.378494203091 -2.247897863388 0.034575119615 0.000978 -0.999999 0.000978
-0.444845736027 -2.247897863388 -0.065085932612 0.000978 -0.999999 0.000978
-0.424617290497 -2.247897863388 -0.020801685750 0.000978 -0.999999 0.000978
-0.308120071888 -2.247897863388 -0.003486409318 0.000978 -0.999999 0.000978
-0.182486236095 -2.247897863388 -0.052376974374 0.000978 -0.999999 0.000978
0.331129997969 -2.247897863388 -0.342909455299 0.000978 -0.999999 0.000978
-0.077455781400 -2.247897863388 -0.244082301855 0.000978 -0.999999 0.000978
0.478724300861 -2.247897863388 -0.359074383974 0.000978 -0.999999 0.000978
0.147474780679 -2.247897863388 -0.258401960135 0.000978 -0.999999 0.000978
0.323679357767 -2.247897863388 -0.409997373819 0.000978 -0.999999 0.000978
0.367037624121 -2.247897863388 -0.224692434072 0.000978 -0.999999 0.000978
0.445166498423 -2.247897863388 -0.387958794832 0.000978 -0.999999 0.000978
0.062847167253 -2.247897863388 -0.320010304451 0.000978 -0.999999 0.000978
0.171607777476 -2.247897863388 -0.175490483642 0.000978 -0.999999 0.000978
0.389724284410 -2.247897863388 -0.373937278986 0.000978 -0.999999 0.000978
0.473253846169 -2.247897863388 -0.079801112413 0.000978 -0.999999 0.000978
-0.307758033276 -2.247897863388 -0.358987152576 0.000978 -0.999999 0.000978
0.290611535311 -2.247897863388 -0.111697345972 0.000978 -0.999999 0.000978
0.436460554600 -2.247897863388 -0.364448785782 0.000978 -0.999999 0.000978
0.231657043099 -2.247897863388 -0.273178040981 0.000978 -0.999999 0.000978
0.257986187935 -2.247897863388 -0.350837469101 0.000978 -0.999999 0.000978
0.218767434359 -2.247897863388 -0.157098367810 0.000978 -0.999999 0.000978
-0.041792351753 -2.247897863388 -0.261261701584 0.000978 -0.999999 0.000978
-0.161841928959 -2.247897863388 -0.283723235130 0.000978 -0.999999 0.000978
0.423158288002 -2.247897863388 -0.216083079576 0.000978 -0.999999 0.000978
0.211962625384 -2.247897863388 -0.283456742764 0.000978 -0.999999 0.000978
0.467127859592 -2.025742053986 -0.016123995185 0.000987 -0.008884 0.999960
0.323232352734 -2.127001762390 -0.016786875203 0.000987 -0.008884 0.999960
0.575605750084 -1.822437763214 -0.014457748272 0.000987 -0.008884 0.999960
0.086863249540 -2.119201660156 -0.016275893897 0.000987 -0.008884 0.999960
0.318802535534 -1.962880015373 -0.015270769596 0.000987 -0.008884 0.999960
0.698317527771 -1.909735441208 -0.015487872064 0.000987 -0.008884 0.999960
0.132765144110 -2.167103290558 -0.016801305115 0.000987 -0.008884 0.999960
0.469962358475 -2.064698696136 -0.016487177461 0.000987 -0.008884 0.999960
0.675332844257 -2.066991806030 -0.016889952123 0.000987 -0.008884 0.999960
0.494014680386 -1.865743398666 -0.014703975059 0.000987 -0.008884 0.999960
0.456977546215 -1.969095230103 -0.015584684908 0.000987 -0.008884 0.999960
0.417213529348 -1.832008361816 -0.014251289889 0.000987 -0.008884 0.999960
0.684557616711 -1.797896385193 -0.014434773475 0.000987 -0.008884 0.999960
0.668339550495 -1.448008537292 -0.011190026067 0.000987 -0.008884 0.999960
0.597376585007 -1.524017810822 -0.011756470427 0.000987 -0.008884 0.999960
0.528154432774 -1.872791767120 -0.014832184650 0.000987 -0.008884 0.999960
0.065292418003 -2.126798391342 -0.016305595636 0.000987 -0.008884 0.999960
0.600725650787 -1.582551598549 -0.012300476432 0.000987 -0.008884 0.999960
0.423125803471 -1.913513422012 -0.015011108480 0.000987 -0.008884 0.999960
0.246579736471 -2.118467330933 -0.016565997154 0.000987 -0.008884 0.999960
0.371413141489 -2.103067874908 -0.016656529158 0.000987 -0.008884 0.999960
0.716270923615 -2.077493906021 -0.017062526196 0.000987 -0.008884 0.999960
0.058653600514 -2.185506820679 -0.016832645983 0.000987 -0.008884 0.999960
0.720153093338 -1.688858509064 -0.013499143533 0.000987 -0.008884 0.999960
0.623768031597 -2.056559085846 -0.016698259860 0.000987 -0.008884 0.999960
0.373189687729 -2.068612337112 -0.016343273222 0.000987 -0.008884 0.999960
0.326292157173 -2.010264873505 -0.015720037743 0.000987 -0.008884 0.999960
0.724714279175 -1.854349136353 -0.015028069727 0.000987 -0.008884 0.999960
0.178324282169 -1.974335193634 -0.015122485347 -0.002950 -0.004916 0.999984
0.313392877579 -1.643530011177 -0.013055568561 -0.002950 -0.004916 0.999984
-0.283596932888 -1.936964154243 -0.016180869192 -0.002950 -0.004916 0.999984
-0.633304178715 -2.084532499313 -0.017886547372 -0.002950 -0.004916 0.999984
0.060469269753 -2.029249429703 -0.015723966062 -0.002950 -0.004916 0.999984
0.354104697704 -1.553706049919 -0.012483406812 -0.002950 -0.004916 0.999984
0.156912684441 -1.993219614029 -0.015277570114 -0.002950 -0.004916 0.999984
0.374752193689 -1.527960062027 -0.012295102701 -0.002950 -0.004916 0.999984
-0.156135767698 -1.965831995010 -0.015984248370 -0.002950 -0.004916 0.999984
0.590655922890 -1.435112237930 -0.011233088560 -0.002950 -0.004916 0.999984
-0.449567168951 -2.123174428940 -0.017587834969 -0.002950 -0.004916 0.999984
-0.040037274361 -2.021953344345 -0.015958549455 -0.002950 -0.004916 0.999984
0.333232760429 -1.776189923286 -0.013684088364 -0.002950 -0.004916 0.999984
-0.221340477467 -2.072136878967 -0.016707478091 -0.002950 -0.004916 0.999984
-0.119108974934 -2.021041631699 -0.016167933121 -0.002950 -0.004916 0.999984
-0.238833233714 -1.988033175468 -0.016322314739 -0.002950 -0.004916 0.999984
-0.188255473971 -1.844709634781 -0.015448308550 -0.002950 -0.004916 0.999984
0.113888859749 -1.850601196289 -0.014660602435 -0.002950 -0.004916 0.999984
0.255981385708 -1.690726041794 -0.013453715481 -0.002950 -0.004916 0.999984
-0.484282910824 -2.065666198730 -0.017386073247 -0.002950 -0.004916 0.999984
-0.631195783615 -2.039577722549 -0.017649646848 -0.002950 -0.004916 0.999984
-0.009698748589 -2.059175968170 -0.016067838296 -0.002950 -0.004916 0.999984
0.323529660702 -1.571827888489 -0.012659379281 -0.002950 -0.004916 0.999984
0.047618277371 -1.753588557243 -0.014341108501 -0.002950 -0.004916 0.999984
-0.700561404228 -2.106552362442 -0.018181877211 -0.002950 -0.004916 0.999984
0.412742495537 -1.649992227554 -0.012819828466 -0.002950 -0.004916 0.999984
-0.014207631350 -2.039339780807 -0.015978034586 -0.002950 -0.004916 0.999984
0.610034883022 -1.436683654785 -0.011188704520 -0.002950 -0.004916 0.999984
-0.156563818455 -1.823375225067 -0.015252790414 -0.002950 -0.004916 0.999984
-0.490010499954 -1.994126200676 -0.017033668235 -0.002950 -0.004916 0.999984
0.299590170383 -1.749727249146 -0.013639080338 -0.002950 -0.004916 0.999984
-0.167435377836 -2.008202314377 -0.016232740134 -0.002950 -0.004916 0.999984
-0.294620424509 -2.083028078079 -0.016961881891 -0.002950 -0.004916 0.999984
0.258938193321 -1.635311603546 -0.013160729781 -0.002950 -0.004916 0.999984
-0.238074764609 -1.980044722557 -0.016279177740 -0.002950 -0.004916 0.999984
-0.094536632299 -1.967586159706 -0.015826500952 -0.002950 -0.004916 0.999984
-0.138104856014 -1.606647729874 -0.013164353557 -0.000987 -0.010858 0.999941
-0.730720937252 -1.798077821732 -0.015184622258 -0.000987 -0.010858 0.999941
0.307375818491 -1.344027876854 -0.010420641862 -0.000987 -0.010858 0.999941
-0.311855971813 -1.814295172691 -0.015320217237 -0.000987 -0.010858 0.999941
-0.215709894896 -1.397953033447 -0.011016739532 -0.000987 -0.010858 0.999941
-0.460278064013 -1.754895687103 -0.014718528837 -0.000987 -0.010858 0.999941
-0.586480855942 -1.804154634476 -0.015236392617 -0.000987 -0.010858 0.999941
-0.401287108660 -1.378314256668 -0.010828156024 -0.000987 -0.010858 0.999941
-0.144280284643 -1.472060680389 -0.011776033789 -0.000987 -0.010858 0.999941
0.154651403427 -1.619733929634 -0.013277199119 -0.000987 -0.010858 0.999941
-0.665360152721 -1.830361366272 -0.015512797982 -0.000987 -0.010858 0.999941
-0.267520308495 -1.376142024994 -0.010795600712 -0.000987 -0.010858 0.999941
-0.462113589048 -1.342082262039 -0.010458892211 -0.000987 -0.010858 0.999941
-0.012265458703 -1.412526845932 -0.011151704006 -0.000987 -0.010858 0.999941
0.087132930756 -1.475481271744 -0.011793789454 -0.000987 -0.010858 0.999941
-0.400830358267 -1.352266430855 -0.010559335351 -0.000987 -0.010858 0.999941
-0.450127601624 -1.422320604324 -0.011285954155 -0.000987 -0.010858 0.999941
-0.197715669870 -1.612386465073 -0.013228089549 -0.000987 -0.010858 0.999941
-0.699646472931 -1.363804817200 -0.010701050982 -0.000987 -0.010858 0.999941
-0.408226639032 -1.563806295395 -0.012742753141 -0.000987 -0.010858 0.999941
-0.029074080288 -1.351891040802 -0.010527283885 -0.000987 -0.010858 0.999941
-0.291004776955 -1.849939107895 -0.015686441213 -0.000987 -0.010858 0.999941
-0.219863951206 -1.681789994240 -0.013945936225 -0.000987 -0.010858 0.999941
-0.439752548933 -1.528002619743 -0.012375689112 -0.000987 -0.010858 0.999941
-0.321251809597 -1.606311082840 -0.013174762949 -0.000987 -0.010858 0.999941
-0.081004381180 -1.599263429642 -0.013083827682 -0.000987 -0.010858 0.999941
-0.030401125550 -1.441341996193 -0.011450419202 -0.000987 -0.010858 0.999941
0.177827239037 -1.388776063919 -0.010892212391 -0.000987 -0.010858 0.999941
-0.375649601221 -1.472893238068 -0.011802162044 -0.000987 -0.010858 0.999941
-0.235675811768 -1.821036458015 -0.015384005383 -0.000987 -0.010858 0.999941
0.210754454136 -1.565004348755 -0.012708198279 -0.000987 -0.010858 0.999941
-0.322676539421 -1.859465956688 -0.015787148848 -0.000987 -0.010858 0.999941
-0.598667025566 -1.856912612915 -0.015781721100 -0.000987 -0.010858 0.999941
-0.679139375687 -1.986989021301 -0.017130065709 -0.000987 -0.010858 0.999941
0.487004816532 -1.461373209953 -0.011617899872 -0.000987 -0.010858 0.999941
-0.638420999050 -1.911853551865 -0.016351664439 -0.000987 -0.010858 0.999941
-0.003066480160 -1.595586895943 -0.013039983809 -0.000987 -0.010858 0.999941
