-0.915082693100 2.088401317596 0.061550423503 -0.982791 0.005734 0.184632
-0.915278851986 1.654652953148 0.075103297830 -0.982791 0.005734 0.184632
-0.914045989513 1.614875555038 0.082982629538 -0.982791 0.005734 0.184632
-0.917093753815 2.024408578873 0.053033977747 -0.982791 0.005734 0.184632
-0.912633657455 2.231517791748 0.044113304466 -0.332733 0.011300 -0.942953
-0.920530796051 1.120441317558 0.066857077181 -0.983836 0.005700 0.178983
-0.899226009846 1.932565212250 0.159187868237 -0.983836 0.005700 0.178983
-0.919794857502 1.211261153221 0.068113304675 -0.983836 0.005700 0.178983
-0.900390267372 1.872303724289 0.154631555080 -0.983836 0.005700 0.178983
-0.900731503963 1.560481786728 0.162356108427 -0.983836 0.005700 0.178983
-0.911590635777 1.414922356606 0.107028461993 -0.983836 0.005700 0.178983
-0.911564886570 1.337127804756 0.109566271305 -0.983836 0.005700 0.178983
-0.897364735603 1.707367420197 0.176376149058 -0.983836 0.005700 0.178983
-0.921672224998 0.098172686994 0.032816648483 -0.980207 -0.005786 0.197893
-0.923827946186 0.706683635712 0.041462969035 -0.980207 -0.005786 0.197893
-0.904671788216 0.615316748619 0.133247315884 -0.980207 -0.005786 0.197893
-0.925732970238 0.813783943653 0.035444036126 -0.980207 -0.005786 0.197893
-0.917432963848 0.348230004311 0.061701543629 -0.980207 -0.005786 0.197893
-0.922878980637 0.849408566952 0.050680622458 -0.980207 -0.005786 0.197893
-0.915397047997 0.230146065354 0.068018749356 -0.980207 -0.005786 0.197893
-0.917057871819 0.103629827499 0.055797129869 -0.980207 -0.005786 0.197893
-0.901242196560 0.284778624773 0.142968207598 -0.982383 -0.003439 0.186848
-0.901338756084 0.477466732264 0.147159487009 -0.982383 -0.003439 0.186848
-0.910412490368 0.142546653748 0.091303281486 -0.982383 -0.003439 0.186848
-0.903391778469 0.323968470097 0.132626295090 -0.982383 -0.003439 0.186848
-0.908571660519 0.091288119555 0.099728100002 -0.982383 -0.003439 0.186848
-0.899621784687 0.491645753384 0.156529143453 -0.982383 -0.003439 0.186848
-0.902611374855 0.222833871841 0.134261772037 -0.982383 -0.003439 0.186848
-0.898291766644 -0.031754232943 0.150958433747 -0.982962 -0.001142 0.183806
-0.903393507004 -0.209776088595 0.112898409367 -0.981953 -0.015036 0.188526
-0.892127394676 -0.356503307819 0.160051584244 -0.981953 -0.015036 0.188526
-0.898580193520 -0.591523647308 0.108127705753 -0.981953 -0.015036 0.188526
-0.904798805714 -0.183013439178 0.107677444816 -0.981953 -0.015036 0.188526
-0.896955013275 -0.402921319008 0.131311208010 -0.981953 -0.015036 0.188526
-0.908115684986 -0.274644523859 0.083265528083 -0.981953 -0.015036 0.188526
-0.893767833710 -0.585983097553 0.133596584201 -0.981953 -0.015036 0.188526
-0.908970713615 -0.421829760075 0.065909162164 -0.986032 -0.017138 0.165672
-0.905061006546 -0.617274284363 0.067809477448 -0.986032 -0.017138 0.165672
-0.904705584049 -0.744083225727 0.056146197021 -0.986032 -0.017138 0.165672
-0.898145198822 -1.095365643501 0.056801725179 -0.986032 -0.017138 0.165672
-0.887218713760 -1.091682553291 0.121799662709 -0.986032 -0.017138 0.165672
-0.907618463039 -0.808410942554 0.031942836940 -0.986032 -0.017138 0.165672
-0.898926496506 -0.974105477333 0.065345160663 -0.986032 -0.017138 0.165672
-0.898426175117 -0.672185897827 0.101074710488 -0.986032 -0.017138 0.165672
-0.910868287086 -0.384482920170 0.020825617015 -0.914870 -0.011679 -0.403581
-0.901586771011 -0.962048411369 0.005332570057 -0.986131 -0.014820 0.165305
-0.866197109222 -2.038756370544 -0.027763504535 -0.772981 -0.101206 0.626305
-0.852056682110 -2.178840398788 -0.063869982958 -0.988258 -0.144482 0.049702
-0.838783800602 -2.216155052185 0.000321663916 -0.864609 -0.153611 0.478388
-0.846296787262 -2.042028427124 0.042622897774 -0.913699 -0.091781 0.395891
-0.838370561600 -2.075830698013 0.047657310963 -0.863920 -0.166308 0.475377
-0.817447245121 -2.060732364655 0.087934099138 -0.726648 -0.206064 0.655378
-0.791895508766 -1.899677872658 0.145107969642 -0.418819 -0.198388 0.886133
-0.766957402229 -1.606868505478 0.211012080312 -0.139883 -0.204050 0.968915
-0.798991084099 -1.440846562386 0.241480439901 -0.142956 -0.209927 0.967209
-0.726991772652 -1.414689898491 0.260877043009 -0.144069 -0.221945 0.964357
-0.654644608498 -1.486583471298 0.253938406706 -0.072907 -0.221192 0.972501
-0.574267983437 -1.476057052612 0.263644039631 -0.101358 -0.247621 0.963541
-0.537907004356 -0.738876760006 0.743615448475 -0.191348 -0.464278 0.864773
-0.578035712242 -0.708430290222 0.749580025673 -0.156464 -0.227464 0.961134
-0.534202218056 -0.197690993547 0.807965695858 -0.081464 -0.035844 0.996032
-0.439865499735 -0.123394593596 0.810192644596 -0.052396 -0.043842 0.997664
-0.453823268414 -0.139867693186 0.808734595776 -0.052396 -0.043842 0.997664
-0.502992510796 -0.282288730145 0.799850463867 -0.052396 -0.043842 0.997664
-0.460866272449 0.043719857931 0.811656296253 -0.052666 -0.007229 0.998586
-0.420073390007 0.129264920950 0.814370334148 -0.052666 -0.007229 0.998586
-0.345347702503 0.356228709221 0.819835960865 -0.052666 -0.007229 0.998586
-0.350193500519 0.881338477135 0.823277235031 -0.052666 -0.007229 0.998586
-0.441970139742 0.104792296886 0.813064277172 -0.052666 -0.007229 0.998586
-0.339897245169 0.647511899471 0.822166264057 -0.052666 -0.007229 0.998586
-0.411631971598 0.377656996250 0.816553950310 -0.052666 -0.007229 0.998586
-0.335081368685 0.217941477895 0.819395303726 -0.052666 -0.007229 0.998586
-0.413498342037 0.489344954491 0.817242562771 -0.052666 -0.007229 0.998586
-0.331342369318 -0.025948494673 0.821135878563 -0.889848 -0.009255 0.456163
-0.403489023447 1.990266323090 0.802164256573 -0.033959 0.019552 0.999232
-0.378572434187 1.263337135315 0.817127943039 -0.033959 0.019552 0.999232
-0.376386851072 1.896066069603 0.804917931557 -0.033959 0.019552 0.999232
-0.382329106331 1.862049698830 0.805375695229 -0.033959 0.019552 0.999232
-0.384350448847 1.877507925034 0.805006504059 -0.033959 0.019552 0.999232
-0.348673194647 1.475999593735 0.814019203186 -0.033959 0.019552 0.999232
-0.343866765499 1.419244170189 0.815285146236 -0.033959 0.019552 0.999232
-0.386461496353 1.944833278656 0.803627371788 -0.033959 0.019552 0.999232
-0.604263365269 2.138669252396 0.771700441837 -0.169785 0.122691 0.977814
-0.709092378616 2.268112421036 0.558978497982 -0.088694 0.874274 0.477261
-0.727188229561 2.322232007980 0.437312155962 -0.109864 0.905331 0.410250
-0.762487411499 2.261867046356 0.557327926159 -0.725356 0.546909 0.418030
-0.706629037857 2.142580986023 0.728168785572 -0.879698 0.167770 0.444955
-0.838258862495 2.277007341385 0.377518504858 -0.919558 0.197556 0.339682
-0.827168464661 2.232264280319 0.429513901472 -0.958812 0.015960 0.283592
-0.838721275330 2.196117877960 0.396392792463 -0.951341 0.041803 0.305291
-0.881483972073 1.010673761368 0.253261923790 -0.966511 -0.081908 0.243203
-0.864616453648 0.980518996716 0.311674386263 -0.968831 -0.027889 0.246149
-0.857686996460 -0.123760446906 0.316151976585 -0.969425 -0.063304 0.237081
-0.891425192356 -0.198309659958 0.175798267126 -0.968571 -0.020556 0.247886
-0.871733427048 -0.165174633265 0.245011806488 -0.380278 -0.913509 0.144534
-0.885781109333 -0.270671546459 0.174230456352 -0.114004 -0.005429 0.993465
-0.880003988743 -0.854900300503 0.171711131930 -0.126056 -0.005481 0.992008
-0.866810560226 -1.226162910461 0.199354603887 -0.962127 -0.067008 0.264237
-0.865607082844 -1.345384955406 0.182111114264 -0.952734 -0.036595 0.301594
-0.875223755836 -1.426305174828 0.129760891199 -0.982125 -0.036462 0.184663
-0.889781832695 -1.562074422836 0.025284752250 -0.983363 -0.033829 0.178475
-0.885606348515 -1.469598531723 0.065807566047 -0.983363 -0.033829 0.178475
-0.898065805435 -1.306175470352 0.028114963323 -0.983363 -0.033829 0.178475
-0.882359325886 -1.214465141296 0.131115660071 -0.983723 -0.026713 0.177697
-0.884146451950 -1.701312899590 0.021738205105 -0.973560 -0.057412 0.221097
-0.872471153736 -1.428651094437 0.143513247371 -0.973560 -0.057412 0.221097
-0.862283825874 -1.532435655594 0.141989722848 -0.914516 -0.106211 0.390359
-0.843375504017 -1.827395319939 0.105085507035 -0.914516 -0.106211 0.390359
-0.855891585350 -1.675229430199 0.117633759975 -0.914516 -0.106211 0.390359
-0.844097673893 -1.702912330627 0.138865411282 -0.934282 -0.103809 0.341087
-0.857938766479 -1.446780800819 0.179251968861 -0.934282 -0.103809 0.341087
-0.824625849724 -1.765248417854 0.157980993390 -0.723062 -0.162879 0.671306
-0.824469268322 -1.467529296875 0.226072862744 -0.448758 -0.194017 0.872338
-0.828617393970 -1.280120968819 0.276693284512 -0.654054 -0.344153 0.673626
-0.817426443100 -1.187533378601 0.329788237810 -0.829160 -0.218361 0.514599
-0.805444002151 -1.127698063850 0.374669671059 -0.788260 -0.279603 0.548149
-0.772675156593 -0.084480889142 0.592006385326 -0.938440 -0.026886 0.344393
-0.786732494831 -0.153739750385 0.534503459930 -0.533520 -0.817860 0.215548
-0.793475151062 -0.958670258522 0.461713641882 -0.917051 -0.114459 0.381990
-0.802210986614 -1.035945773125 0.422059178352 -0.932355 -0.072944 0.354109
-0.777399897575 -0.954980611801 0.499745547771 -0.742742 -0.314175 0.591294
-0.803690433502 -1.075817108154 0.402966409922 -0.785474 -0.266022 0.558804
-0.619068801403 -0.670761108398 0.748402118683 -0.229595 -0.213293 0.949627
-0.598448157310 -0.646747529507 0.757823526859 -0.205598 -0.194986 0.959015
-0.643764138222 -0.543179512024 0.759398281574 -0.182513 -0.076148 0.980250
-0.566925883293 -0.461241960526 0.783096671104 -0.223244 -0.097117 0.969913
-0.539097547531 -0.573340892792 0.780768156052 -0.878976 -0.067827 0.472017
-0.602293550968 -0.254231870174 0.783126652241 -0.213889 -0.034652 0.976243
-0.544631838799 -0.222857654095 0.796840310097 -0.213889 -0.034652 0.976243
-0.646597623825 0.603429079056 0.785268247128 -0.211839 -0.008193 0.977270
-0.625879704952 0.515053451061 0.789023339748 -0.211839 -0.008193 0.977270
-0.615588009357 -0.012736327946 0.786752879620 -0.211839 -0.008193 0.977270
-0.600919127464 0.301007866859 0.792627930641 -0.211839 -0.008193 0.977270
-0.593426823616 0.005035367794 0.791729390621 -0.211839 -0.008193 0.977270
-0.615238308907 0.269539952278 0.789241611958 -0.211839 -0.008193 0.977270
-0.549167633057 0.360292434692 0.804318189621 -0.211356 -0.008174 0.977375
-0.568975806236 0.812373518944 0.803812921047 -0.211356 -0.008174 0.977375
-0.598673164845 0.866989552975 0.797859728336 -0.211356 -0.008174 0.977375
-0.561867713928 0.730529546738 0.804664433002 -0.211356 -0.008174 0.977375
-0.586558222771 0.550693809986 0.797836959362 -0.211356 -0.008174 0.977375
-0.639751791954 0.888645231724 0.789175748825 -0.211356 -0.008174 0.977375
-0.632716357708 1.765671849251 0.779722630978 -0.210066 0.015256 0.977568
-0.647539734840 1.115041017532 0.785921752453 -0.210066 0.015256 0.977568
-0.610998570919 1.052098393440 0.794711530209 -0.210066 0.015256 0.977568
-0.615060865879 1.502851366997 0.787325918674 -0.210066 0.015256 0.977568
-0.631623566151 1.709019303322 0.780776500702 -0.210066 0.015256 0.977568
-0.635878443718 1.850329399109 0.777818143368 -0.210066 0.015256 0.977568
-0.598500967026 1.973697304726 0.782654106617 -0.181400 0.017331 0.983257
-0.559417665005 1.348761320114 0.800819694996 -0.181400 0.017331 0.983257
-0.598645925522 1.871630430222 0.784410178661 -0.181400 0.017331 0.983257
-0.637381672859 1.915512561798 0.776459217072 -0.181400 0.017331 0.983257
-0.601587057114 1.933926820755 0.782776415348 -0.181400 0.017331 0.983257
-0.630573511124 1.924826741219 0.777559161186 -0.181400 0.017331 0.983257
-0.711539566517 2.050322771072 0.732190787792 -0.915781 0.022209 0.401063
-0.724350988865 2.044112920761 0.703690528870 -0.886570 -0.009277 0.462501
-0.733231544495 2.101714611053 0.683435499668 -0.906089 0.033263 0.421777
-0.779699385166 -0.054474886507 0.575594961643 -0.939081 -0.039934 0.341367
-0.762080311775 -0.871343910694 0.558976471424 -0.903200 -0.092671 0.419096
-0.670629322529 -0.676871657372 0.732286691666 -0.411705 -0.187668 0.891785
-0.657673716545 -0.526829838753 0.757198393345 -0.387877 -0.065765 0.919362
-0.689271450043 -0.150949239731 0.760405659676 -0.402608 -0.033001 0.914778
-0.679104566574 -0.171507358551 0.764091730118 -0.399425 -0.032956 0.916173
-0.617547631264 -0.349680185318 0.776538193226 -0.211114 -0.034589 0.976849
-0.596895635128 -0.380306959152 0.779944717884 -0.211114 -0.034589 0.976849
-0.660200715065 0.626309394836 0.781975626945 -0.402635 -0.009063 0.915316
-0.675437450409 0.253252476454 0.771868646145 -0.402635 -0.009063 0.915316
-0.692390739918 0.908770442009 0.764687180519 -0.526725 -0.001347 0.850035
-0.693890392780 -0.012457311153 0.761268019676 -0.526725 -0.001347 0.850035
-0.679771304131 1.009246587753 0.771877348423 -0.525174 0.014927 0.850864
-0.663864970207 1.155878067017 0.779192209244 -0.525174 0.014927 0.850864
-0.668527364731 1.747401714325 0.767377674580 -0.390170 0.009014 0.920699
-0.686839342117 1.480361700058 0.762201070786 -0.390170 0.009014 0.920699
-0.706947207451 1.906430244446 0.740377187729 -0.735582 0.006926 0.677400
-0.695496439934 1.878370761871 0.753061354160 -0.735582 0.006926 0.677400
-0.697196424007 1.122992038727 0.758234918118 -0.727572 0.006929 0.685996
-0.715242445469 1.430370569229 0.730446338654 -0.905843 0.003910 0.423596
-0.718976974487 1.162809729576 0.724582314491 -0.905843 0.003910 0.423596
-0.717699170113 1.657387971878 0.723418831825 -0.905843 0.003910 0.423596
-0.721143901348 1.974575161934 0.712434768677 -0.914390 0.003880 0.404815
-0.719151079655 1.836824893951 0.718349993229 -0.914390 0.003880 0.404815
-0.730199635029 0.141697347164 0.704695999622 -0.916180 0.003866 0.400748
-0.720986187458 0.700211644173 0.721904337406 -0.916180 0.003866 0.400748
-0.726678729057 0.961773157120 0.708225488663 -0.912036 -0.003881 0.410093
-0.718905568123 0.990230202675 0.725889682770 -0.911587 -0.006484 0.411057
-0.711353302002 0.682875573635 0.742502391338 -0.885003 -0.001319 0.465583
-0.719118118286 0.316205948591 0.727130293846 -0.885003 -0.001319 0.465583
-0.700609982014 0.803725242615 0.755676984787 -0.726206 -0.001383 0.687475
-0.707915067673 0.023388460279 0.745714247227 -0.768784 -0.001375 0.639507
-0.703065454960 -0.079231530428 0.751486778259 -0.768784 -0.001375 0.639507
-0.699998259544 -0.175483286381 0.751340985298 -0.770986 -0.029491 0.636169
-0.708567261696 -0.202157720923 0.740343332291 -0.723564 -0.023885 0.689844
-0.716556072235 -0.245780169964 0.723048448563 -0.913949 -0.016949 0.405475
-0.718574762344 -0.309075117111 0.715940237045 -0.929758 -0.021922 0.367519
-0.717760145664 -0.590390741825 0.699477553368 -0.913804 -0.032965 0.404816
-0.544681787491 1.363053441048 0.805438756943 -0.892024 0.006588 0.451941
-0.543534517288 0.667383074760 0.809708237648 -0.887167 -0.003966 0.461432
-0.538542747498 0.745982408524 0.818560302258 -0.184629 -0.008027 0.982776
-0.529977858067 0.748497903347 0.820191562176 -0.184629 -0.008027 0.982776
-0.523533642292 1.199666142464 0.819082796574 -0.183633 0.017324 0.982842
-0.524102568626 1.761029005051 0.809425830841 -0.184051 0.017363 0.982763
-0.508289158344 0.367985248566 0.814712762833 0.848073 -0.001348 0.529877
-0.528847336769 0.270043998957 0.816494107246 -0.169369 -0.007957 0.985521
-0.524243831635 0.020271498710 0.815165460110 -0.169369 -0.007957 0.985521
-0.440831601620 0.780445694923 0.818481504917 -0.044148 -0.009240 0.998982
-0.447262704372 0.319394052029 0.814351022243 -0.044148 -0.009240 0.998982
-0.497114121914 0.070418238640 0.810106813908 -0.044148 -0.009240 0.998982
-0.460266202688 0.474823236465 0.815084755421 -0.044148 -0.009240 0.998982
-0.452930867672 0.830748796463 0.818376362324 -0.044148 -0.009240 0.998982
-0.478235721588 0.492189973593 0.814449608326 -0.044148 -0.009240 0.998982
-0.426153123379 0.553951501846 0.817226886749 -0.044148 -0.009240 0.998982
-0.384140223265 0.918319821358 0.822094678879 -0.044148 -0.009240 0.998982
-0.502171158791 0.510031700134 0.813559472561 -0.044148 -0.009240 0.998982
-0.382741302252 1.152259826660 0.819043934345 -0.042442 0.017598 0.998944
-0.468163788319 1.248789072037 0.813632369041 -0.042442 0.017598 0.998944
-0.403373092413 1.154740095139 0.818110704422 -0.042442 0.017598 0.998944
-0.484660059214 1.164588212967 0.814432740211 -0.042442 0.017598 0.998944
-0.425278574228 1.292879939079 0.814688324928 -0.042442 0.017598 0.998944
-0.462186992168 1.601963281631 0.807552218437 -0.042442 0.017598 0.998944
-0.375175684690 1.073994755745 0.820774197578 -0.042442 0.017598 0.998944
-0.423883557320 1.311053872108 0.814422309399 -0.042442 0.017598 0.998944
-0.433912187815 0.965629816055 0.820188820362 -0.042442 0.017598 0.998944
-0.544548273087 1.747068285942 0.800943851471 -0.918471 0.003865 0.395470
-0.866324365139 -1.183835625648 0.211201518774 -0.958905 -0.059536 0.277411
-0.853800237179 -1.223627567291 0.249852061272 -0.957723 -0.127085 0.258100
-0.341804027557 1.755303978920 0.815668702126 -0.884429 0.001322 0.466672
-0.327386021614 1.544824123383 0.822662711143 -0.044599 0.019707 0.998811
-0.327064245939 1.770343065262 0.818435430527 -0.044599 0.019707 0.998811
-0.736133873463 -1.515188455582 0.235250413418 -0.162095 -0.200998 0.966087
-0.774824559689 -1.866217970848 0.155311197042 -0.162095 -0.200998 0.966087
-0.733214259148 -1.526566505432 0.233355998993 -0.162095 -0.200998 0.966087
-0.528062343597 -2.096637487411 0.122559681535 0.267119 -0.247332 0.931383
-0.652885794640 -2.443016767502 -0.364836305380 -0.018096 -0.247319 0.968765
-0.734155178070 -2.449440240860 -0.372444629669 -0.075300 -0.342151 0.936623
-0.757170975208 -2.440923213959 -0.371075361967 -0.056422 -0.355592 0.932937
-0.893170237541 -1.658598303795 -0.035830821842 -0.998254 -0.013589 0.057491
-0.113512769341 2.486283540726 0.007230724208 -0.018589 0.993950 0.108252
-0.280842572451 2.486681938171 -0.147887706757 -0.035510 0.999365 0.003044
-0.300095647573 2.483851909637 -0.250995784998 0.026036 0.998749 -0.042699
-0.190942525864 2.454845190048 -0.135625690222 0.859319 0.510092 0.037123
-0.173124074936 2.437447309494 -0.109154015779 -0.011006 0.959928 0.280030
-0.126502573490 2.467027664185 -0.208456486464 -0.011006 0.959928 0.280030
-0.187225893140 2.480887651443 -0.266441613436 -0.011229 0.999369 -0.033687
-0.293389946222 2.478296041489 -0.317075312138 0.024820 0.996050 -0.085252
-0.534457921982 2.473726749420 -0.340594738722 -0.020458 0.995979 -0.087215
-0.352423399687 2.477216959000 -0.341479897499 -0.020458 0.995979 -0.087215
-0.478949904442 2.521676063538 -0.490036427975 -0.023331 0.961494 -0.273835
-0.363107383251 2.525521516800 -0.485931158066 -0.023331 0.961494 -0.273835
-0.641919672489 2.509143114090 -0.507898926735 -0.116221 0.957194 -0.265089
-0.759104311466 2.496207952499 -0.512738764286 -0.088682 0.980361 -0.176149
-0.796269714832 2.516598939896 -0.414444714785 0.952546 0.304371 0.003697
-0.920390069485 2.350194692612 -0.378196746111 -0.989052 0.094585 -0.113268
-0.915184259415 2.383504152298 -0.395073235035 -0.986447 0.100900 -0.129390
-0.730514407158 2.465438127518 -0.149741768837 -0.101531 0.994568 -0.022926
-0.678642332554 2.469759941101 -0.190090849996 -0.101531 0.994568 -0.022926
-0.638794243336 2.473381757736 -0.148652255535 -0.081383 0.996678 -0.003171
-0.710117042065 2.467596292496 -0.119672700763 -0.081383 0.996678 -0.003171
-0.539609789848 2.478409051895 -0.209296405315 -0.029133 0.999575 -0.001005
-0.539937138557 2.478531360626 -0.120313636959 -0.029133 0.999575 -0.001005
-0.549753844738 2.478260755539 -0.113344453275 -0.029133 0.999575 -0.001005
-0.402542650700 2.481391906738 -0.035616628826 -0.027729 0.999286 0.025675
-0.407064884901 2.480302572250 0.002536107320 -0.027786 0.999283 0.025728
-0.411784768105 2.474607467651 0.027658093721 -0.028976 0.996991 -0.071904
-0.685771107674 2.462691307068 0.016415650025 -0.058786 0.755611 0.652378
-0.912630259991 2.322172164917 -0.317020952702 -0.989296 0.026004 -0.143589
-0.924736976624 2.168203353882 -0.261545240879 -0.989296 0.026004 -0.143589
-0.925254046917 1.957149982452 -0.285077571869 -0.977568 0.015256 -0.210066
-0.929249346256 1.933343410492 -0.268091738224 -0.977568 0.015256 -0.210066
-0.922163844109 1.920423984528 -0.345228761435 -0.945084 0.008762 0.326711
-0.921897470951 2.208744525909 -0.357682555914 -0.966136 0.015719 0.257556
-0.932845294476 1.231739401817 -0.133745908737 -0.999688 -0.013140 -0.021227
-0.932105243206 1.234961271286 -0.169782638550 -0.999688 -0.013140 -0.021227
-0.933447599411 1.014030575752 -0.069427907467 -0.999388 0.027619 0.021481
-0.932754099369 1.073783159256 -0.115237742662 -0.999388 0.027619 0.021481
-0.932555139065 1.049226880074 -0.020097371191 -0.999976 0.000985 0.006896
-0.933039665222 1.253013134003 -0.082792043686 -0.999976 0.000985 0.006896
-0.933264851570 1.285722136497 -0.095716260374 -0.999844 -0.016947 0.004984
-0.933803796768 1.341066002846 -0.048961527646 -0.999847 -0.008990 0.014983
-0.934875309467 1.432245850563 -0.066011495888 -0.999371 -0.019435 0.029664
-0.932881057262 1.632941246033 -0.016689507291 -0.997249 0.020222 0.071308
-0.935778617859 1.622412919998 -0.053829625249 -0.997249 0.020222 0.071308
-0.938435256481 1.725482225418 -0.122179150581 -0.997204 0.022349 0.071305
-0.930069863796 1.949718952179 -0.055442210287 -0.997360 0.015865 0.070862
-0.929640710354 1.946622371674 -0.048726670444 -0.997360 0.015865 0.070862
-0.932005763054 1.937700986862 -0.079953894019 -0.997360 0.015865 0.070862
-0.926932513714 2.256309747696 -0.079542696476 -0.997360 0.015865 0.070862
-0.935481190681 1.895610094070 -0.121496304870 -0.999371 0.019435 0.029664
-0.931559741497 2.078605651855 -0.105886317790 -0.999371 0.019435 0.029664
-0.925127089024 2.352949380875 -0.203436926007 -0.997238 0.026664 -0.069327
-0.925483286381 2.256725549698 -0.234441086650 -0.997238 0.026664 -0.069327
-0.935992479324 1.865254998207 -0.216632977128 -0.998853 0.021827 -0.042615
-0.936310708523 1.873027086258 -0.205448448658 -0.998853 0.021827 -0.042615
-0.930466413498 2.221176385880 -0.163032114506 -0.999488 0.019358 0.025471
-0.938528656960 1.780060052872 -0.153951227665 -0.999488 0.019358 0.025471
-0.923798978329 2.236843109131 -0.029125053436 -0.997660 0.015836 0.066511
-0.924769043922 2.062890529633 -0.004029896110 -0.997660 0.015836 0.066511
-0.920211017132 2.320913314819 0.005054072943 -0.997660 0.015836 0.066511
-0.378686934710 2.483234643936 -0.128531426191 -0.031329 0.999505 0.003032
-0.352203607559 2.484333276749 -0.201836988330 -0.031329 0.999505 0.003032
-0.425826609135 2.481843709946 -0.262567013502 -0.030755 0.997945 -0.056207
-0.614699959755 2.469910860062 -0.343731552362 -0.097468 0.993724 -0.054896
-0.188217252493 -2.388385534286 -0.024725981057 -0.028979 -0.984136 0.175035
-0.900474965572 -1.538642406464 -0.129503116012 0.981518 -0.078281 -0.174626
-0.898654580116 -1.458780646324 -0.155016183853 0.981518 -0.078281 -0.174626
-0.925973117352 -1.590567708015 -0.157825812697 0.001067 -0.097074 -0.995277
-0.891487061977 -1.361303329468 -0.206567436457 0.975787 -0.176619 -0.129019
-0.820734977722 -1.197214722633 -0.602549493313 0.001010 -0.035367 -0.999374
-0.594845712185 -0.594742596149 -0.604401409626 -0.000978 0.000978 -0.999999
-0.126177415252 -1.024754047394 -0.604533135891 -0.000978 0.000978 -0.999999
-0.538910210133 -0.545095443726 -0.604386270046 -0.000978 0.000978 -0.999999
-0.553814768791 -0.987555146217 -0.604521393776 -0.000978 0.000978 -0.999999
-0.517908334732 -0.833241343498 -0.604474306107 -0.000978 0.000978 -0.999999
-0.751935720444 -0.787010788918 -0.604460000992 -0.000978 0.000978 -0.999999
-0.521672129631 -0.584686458111 -0.604398369789 -0.000978 0.000978 -0.999999
-0.813527107239 -0.554916262627 -0.604389011860 -0.000978 0.000978 -0.999999
-0.792980074883 -0.691533088684 -0.604430735111 -0.000978 0.000978 -0.999999
-0.757063806057 -0.677413582802 -0.604426503181 -0.000978 0.000978 -0.999999
-0.614244163036 -0.946152091026 -0.604508697987 -0.000978 0.000978 -0.999999
-0.747626662254 -0.558909714222 -0.604390263557 -0.000978 0.000978 -0.999999
-0.816047489643 -0.262140274048 -0.604299604893 -0.000978 0.000978 -0.999999
-0.762388229370 -0.241440713406 -0.604293286800 -0.000978 0.000978 -0.999999
-0.488539844751 -1.054442286491 -0.604541897774 -0.000978 0.000978 -0.999999
-0.801937878132 -0.297848582268 -0.604310512543 -0.000978 0.000978 -0.999999
-0.820205986500 -0.337804377079 -0.604322671890 -0.000978 0.000978 -0.999999
-0.635614633560 -0.490388333797 -0.604369461536 -0.000978 0.000978 -0.999999
-0.370223730803 -1.061423301697 -0.604544103146 -0.000978 0.000978 -0.999999
-0.810333132744 -0.761624217033 -0.604452192783 -0.000978 0.000978 -0.999999
-0.595125198364 -1.111339807510 -0.604559183121 -0.000978 0.000978 -0.999999
-0.731862664223 -0.926392793655 -0.604502558708 -0.000978 0.000978 -0.999999
-0.811568677425 -1.047459840775 -0.604539453983 -0.000978 0.000978 -0.999999
-0.319979310036 -0.809087514877 -0.604467093945 -0.000978 0.000978 -0.999999
-0.527458906174 -0.881215333939 -0.604488909245 -0.000978 0.000978 -0.999999
-0.602561593056 -0.775229275227 -0.604456484318 -0.000978 0.000978 -0.999999
-0.741901338100 -0.372745752335 -0.604333460331 -0.000978 0.000978 -0.999999
-0.670720040798 -0.567016303539 -0.604392826557 -0.000978 0.000978 -0.999999
-0.609539985657 -0.405463576317 -0.604343533516 -0.000978 0.000978 -0.999999
-0.636096954346 -0.643044352531 -0.604416072369 -0.000978 0.000978 -0.999999
-0.620080769062 -0.819165408611 -0.604469895363 -0.000978 0.000978 -0.999999
-0.213629275560 -0.894168853760 -0.604493200779 -0.000978 0.000978 -0.999999
-0.680131137371 -0.791667819023 -0.604461431503 -0.000978 0.000978 -0.999999
-0.577467143536 -0.764105260372 -0.604453086853 -0.000978 0.000978 -0.999999
-0.658797144890 -1.133515238762 -0.604565858841 -0.000978 0.000978 -0.999999
-0.716083288193 -0.560556173325 -0.604390799999 -0.000978 0.000978 -0.999999
-0.670065045357 -0.909353256226 -0.604497432709 -0.000978 0.000978 -0.999999
-0.721309125423 -0.685281157494 -0.604428887367 -0.000978 0.000978 -0.999999
-0.122806616127 -1.124786734581 -0.604563713074 -0.000978 0.000978 -0.999999
-0.779299616814 -0.655583083630 -0.604419767857 -0.000978 0.000978 -0.999999
-0.513545155525 -0.960998952389 -0.604513347149 -0.000978 0.000978 -0.999999
-0.461794197559 -0.834846377373 -0.604474782944 -0.000978 0.000978 -0.999999
-0.754683315754 -1.052613258362 -0.604541063309 -0.000978 0.000978 -0.999999
-0.056924000382 -0.272090315819 -0.604303240776 -0.000978 0.000978 -0.999999
-0.084125369787 -0.101181089878 -0.604250967503 -0.000978 0.000978 -0.999999
-0.638426423073 -0.114810541272 -0.604254662991 -0.000978 0.000978 -0.999999
-0.187657013535 -0.515384078026 -0.604377448559 -0.000978 0.000978 -0.999999
-0.202136591077 -0.312563478947 -0.604315459728 -0.000978 0.000978 -0.999999
-0.251880705357 -0.682578682899 -0.604428529739 -0.000978 0.000978 -0.999999
-0.471599757671 -0.203217267990 -0.604281842709 -0.000978 0.000978 -0.999999
-0.507149159908 -0.178569078445 -0.604274272919 -0.000978 0.000978 -0.999999
-0.346267372370 -0.123299777508 -0.604257524014 -0.000978 0.000978 -0.999999
-0.157763913274 -0.772069633007 -0.604455888271 -0.000978 0.000978 -0.999999
-0.200405120850 -0.642468810081 -0.604416251183 -0.000978 0.000978 -0.999999
-0.053724821657 -0.647982656956 -0.604418039322 -0.000978 0.000978 -0.999999
-0.005523215979 -0.527329981327 -0.604381263256 -0.000978 0.000978 -0.999999
-0.135396435857 -0.836045622826 -0.604475498199 -0.000978 0.000978 -0.999999
-0.135656520724 -0.562907397747 -0.604391992092 -0.000978 0.000978 -0.999999
-0.408041834831 -0.244605183601 -0.604294538498 -0.000978 0.000978 -0.999999
-0.018260693178 -0.482887804508 -0.604367613792 -0.000978 0.000978 -0.999999
-0.464950144291 -0.152796059847 -0.604266464710 -0.000978 0.000978 -0.999999
-0.421447157860 -0.210764795542 -0.604284167290 -0.000978 0.000978 -0.999999
-0.151669457555 -0.689541459084 -0.604430735111 -0.000978 0.000978 -0.999999
-0.318404942751 -0.196515500546 -0.604279875755 -0.000978 0.000978 -0.999999
-0.244955345988 -0.807469129562 -0.604466676712 -0.000978 0.000978 -0.999999
-0.432038635015 -0.161743193865 -0.604269146919 -0.000978 0.000978 -0.999999
-0.008593328297 -0.192466437817 -0.604278922081 -0.000978 0.000978 -0.999999
-0.515034079552 -0.479684591293 -0.604366242886 -0.000978 0.000978 -0.999999
-0.341810882092 -0.502000451088 -0.604373216629 -0.000978 0.000978 -0.999999
-0.268404006958 -0.263039708138 -0.604300260544 -0.000978 0.000978 -0.999999
-0.236868426204 -0.454380780458 -0.604358792305 -0.000978 0.000978 -0.999999
-0.109184034169 -0.401797533035 -0.604342818260 -0.000978 0.000978 -0.999999
-0.528461992741 -0.147446900606 -0.604264795780 -0.000978 0.000978 -0.999999
-0.333869189024 -0.380727022886 -0.604336202145 -0.000978 0.000978 -0.999999
-0.234517171979 -0.354792445898 -0.604328334332 -0.000978 0.000978 -0.999999
-0.518378674984 -0.403943836689 -0.604343116283 -0.000978 0.000978 -0.999999
-0.133395820856 -0.692296981812 -0.604431569576 -0.000978 0.000978 -0.999999
-0.051226541400 -0.537049531937 -0.604384183884 -0.000978 0.000978 -0.999999
-0.688743174076 -0.188073948026 -0.604277074337 -0.000978 0.000978 -0.999999
-0.579710960388 -0.395428359509 -0.604340493679 -0.000978 0.000978 -0.999999
-0.194707646966 -0.247220098972 -0.604295492172 -0.000978 0.000978 -0.999999
-0.094933487475 -0.237230777740 -0.604292511940 -0.000978 0.000978 -0.999999
-0.431004315615 -0.441546916962 -0.604354739189 -0.000978 0.000978 -0.999999
-0.524444282055 -0.416484862566 -0.604346990585 -0.000978 0.000978 -0.999999
-0.516320168972 -0.412002146244 -0.604345619678 -0.000978 0.000978 -0.999999
-0.409460276365 -0.411979258060 -0.604345679283 -0.000978 0.000978 -0.999999
-0.538611352444 -0.375588655472 -0.604334473610 -0.000978 0.000978 -0.999999
-0.402233153582 -0.006596021354 -0.604048550129 -0.000979 0.002938 -0.999995
-0.250781148672 0.335242092609 -0.603242874146 -0.000979 0.002938 -0.999995
-0.738748669624 0.032629735768 -0.603954076767 -0.000979 0.002938 -0.999995
-0.539693593979 0.168150663376 -0.603635489941 -0.000979 0.002938 -0.999995
-0.564606547356 0.702902138233 -0.602373600006 -0.000979 0.002938 -0.999995
-0.550736308098 0.040471844375 -0.603936672211 -0.000979 0.002938 -0.999995
-0.252181351185 0.295513093472 -0.603336632252 -0.000979 0.002938 -0.999995
-0.623505711555 0.499160647392 -0.602853953838 -0.000979 0.002938 -0.999995
-0.142516419291 -0.074514292181 -0.604210317135 -0.000979 0.002938 -0.999995
-0.687676012516 0.225172430277 -0.603500068188 -0.000979 0.002938 -0.999995
-0.513979315758 0.895816922188 -0.601918697357 -0.000979 0.002938 -0.999995
-0.024442013353 -0.076799362898 -0.604216396809 -0.000979 0.002938 -0.999995
-0.250531077385 -0.057262837887 -0.604169011116 -0.000979 0.002938 -0.999995
-0.763485372066 0.180566370487 -0.603604853153 -0.000979 0.002938 -0.999995
-0.585186481476 -0.000738590956 -0.604033708572 -0.000979 0.002938 -0.999995
-0.341828793287 0.308202326298 -0.603306174278 -0.000979 0.002938 -0.999995
-0.567780971527 0.345927357674 -0.603215813637 -0.000979 0.002938 -0.999995
-0.782074749470 -0.002707645297 -0.604037165642 -0.000979 0.002938 -0.999995
-0.480601370335 0.046131901443 -0.603923738003 -0.000979 0.002938 -0.999995
-0.587006509304 0.701772868633 -0.602376103401 -0.000979 0.002938 -0.999995
-0.461703956127 0.498485982418 -0.602856516838 -0.000979 0.002938 -0.999995
-0.426255941391 0.776832044125 -0.602199971676 -0.000979 0.002938 -0.999995
-0.408109128475 0.147094845772 -0.603685915470 -0.000979 0.002938 -0.999995
-0.092989712954 -0.078738994896 -0.604220569134 -0.000979 0.002938 -0.999995
-0.469171315432 0.811699867249 -0.602117419243 -0.000979 0.002938 -0.999995
-0.288757443428 0.435053437948 -0.603007197380 -0.000979 0.002938 -0.999995
-0.424172222614 0.356777250767 -0.603191077709 -0.000979 0.002938 -0.999995
-0.523724853992 -0.027987971902 -0.604098320007 -0.000979 0.002938 -0.999995
-0.232558563352 0.058393277228 -0.603896200657 -0.000979 0.002938 -0.999995
-0.532601416111 0.138764351606 -0.603704869747 -0.000979 0.002938 -0.999995
-0.253086209297 -0.053604673594 -0.604160368443 -0.000979 0.002938 -0.999995
-0.809766054153 -0.029230915010 -0.604099631310 -0.000979 0.002938 -0.999995
-0.716282010078 0.327709317207 -0.603257954121 -0.000979 0.002938 -0.999995
-0.341569006443 -0.074439585209 -0.604209005833 -0.000979 0.002938 -0.999995
-0.400794178247 0.138292372227 -0.603706717491 -0.000979 0.002938 -0.999995
-0.540428459644 -0.050691619515 -0.604151785374 -0.000979 0.002938 -0.999995
-0.264719724655 0.128413766623 -0.603730797768 -0.000979 0.002938 -0.999995
-0.369585812092 0.304126679897 -0.603315651417 -0.000979 0.002938 -0.999995
-0.438705891371 -0.009840942919 -0.604056000710 -0.000979 0.002938 -0.999995
-0.503736615181 0.079195059836 -0.603845536709 -0.000979 0.002938 -0.999995
-0.519589126110 0.263257414103 -0.603411197662 -0.000979 0.002938 -0.999995
-0.699469327927 0.383656799793 -0.603126049042 -0.000979 0.002938 -0.999995
-0.527295649052 -0.007479220629 -0.604049921036 -0.000979 0.002938 -0.999995
-0.283508718014 0.506122708321 -0.602839529514 -0.000979 0.002938 -0.999995
-0.492454946041 0.784722030163 -0.602180957794 -0.000979 0.002938 -0.999995
-0.434483796358 0.794826984406 -0.602157473564 -0.000979 0.002938 -0.999995
-0.346830606461 0.241533726454 -0.603463470936 -0.000979 0.002938 -0.999995
-0.189278274775 0.177377954125 -0.603615760803 -0.000979 0.002938 -0.999995
-0.755936026573 0.442828416824 -0.602986037731 -0.000979 0.002938 -0.999995
-0.828723967075 0.312938243151 -0.603292107582 -0.000979 0.002938 -0.999995
-0.727663934231 0.374834954739 -0.603146731853 -0.000979 0.002938 -0.999995
-0.628687560558 0.850054979324 -0.602025985718 -0.000979 0.002938 -0.999995
-0.681648075581 0.537678360939 -0.602762758732 -0.000979 0.002938 -0.999995
-0.604758858681 0.945766270161 -0.601800322533 -0.000979 0.002938 -0.999995
-0.806854963303 0.995797038078 -0.601680934429 -0.000979 0.002938 -0.999995
-0.834954202175 -0.064081266522 -0.604181706905 -0.000979 0.002938 -0.999995
-0.766475677490 1.015198111534 -0.601635456085 -0.000979 0.002938 -0.999995
-0.669560790062 0.884331166744 -0.601944863796 -0.000979 0.002938 -0.999995
-0.771893501282 0.687978148460 -0.602407515049 -0.000979 0.002938 -0.999995
-0.659017324448 0.863611757755 -0.601993799210 -0.000979 0.002938 -0.999995
-0.762586236000 0.529458105564 -0.602781593800 -0.000979 0.002938 -0.999995
-0.734340727329 0.920738637447 -0.601858496666 -0.000979 0.002938 -0.999995
-0.627283275127 0.961247205734 -0.601763606071 -0.000979 0.002938 -0.999995
-0.780869364738 0.967202901840 -0.601748585701 -0.000979 0.002938 -0.999995
-0.800474643707 0.980001568794 -0.601718246937 -0.000979 0.002938 -0.999995
-0.841424524784 0.812057077885 -0.600481867790 -0.104516 0.003232 -0.994518
-0.860881090164 1.106145739555 -0.494545876980 0.944284 -0.061047 0.323421
-0.861350178719 1.089871406555 -0.409318357706 0.891633 0.450552 0.044649
-0.897366583347 1.150393843651 -0.309271097183 0.923321 0.374466 -0.085167
-0.753248751163 1.148852944374 -0.268290400505 -0.001347 0.850035 -0.526725
-0.674410998821 1.112488389015 -0.327128440142 -0.001347 0.850035 -0.526725
-0.708671689034 1.117596268654 -0.318771868944 -0.001347 0.850035 -0.526725
-0.539187610149 1.574720740318 -0.306720435619 -0.999995 -0.002938 0.000979
-0.538114726543 1.140105843544 -0.302140504122 -0.999995 -0.002938 0.000979
-0.539327681065 1.631401062012 -0.331751197577 -0.999995 -0.002938 0.000979
-0.538629412651 1.348525643349 -0.356766194105 -0.999995 -0.002938 -0.000979
-0.538963198662 1.483771800995 -0.393251091242 -0.999995 -0.002938 0.000979
-0.539511501789 1.705875873566 -0.359432786703 -0.999995 -0.002938 0.000979
-0.538245797157 1.193162679672 -0.526806235313 -0.999995 -0.002938 0.000979
-0.538773179054 1.406784057617 -0.446631819010 -0.999995 -0.002938 0.000979
-0.538654029369 1.358523368835 -0.462045490742 -0.999995 -0.002938 0.000979
-0.538009881973 1.097583889961 -0.451948702335 -0.999995 -0.002938 0.000979
-0.539114475250 1.545045614243 -0.358696371317 -0.999995 -0.002938 0.000979
-0.538898587227 1.457608461380 -0.397966742516 -0.999995 -0.002938 0.000979
-0.539648771286 1.761521935463 -0.551546871662 -0.999995 -0.002938 -0.000979
-0.539611995220 1.746594786644 -0.429084926844 -0.999995 -0.002938 -0.000979
-0.539072751999 1.528148293495 -0.503322064877 -0.999995 -0.002938 -0.000979
-0.538410663605 1.259940981865 -0.532231152058 -0.999995 -0.002938 -0.000979
-0.539233028889 1.593084692955 -0.482366651297 -0.999995 -0.002938 -0.000979
-0.538372695446 1.244568467140 -0.549866378307 -0.999995 -0.002938 -0.000979
-0.539895772934 1.861578941345 -0.561480700970 -0.999995 -0.002938 -0.000979
-0.538512527943 1.301200032234 -0.540192425251 -0.999995 -0.002938 -0.000979
-0.538814365864 1.423489689827 -0.512798309326 -0.999995 -0.002938 -0.000979
-0.539569377899 1.729315519333 -0.474348008633 -0.999995 -0.002938 -0.000979
-0.540232717991 1.998063683510 -0.518037736416 -0.999995 -0.002938 -0.000979
-0.537984848022 1.087598800659 -0.581117033958 -0.999995 -0.002938 -0.000979
-0.537916481495 1.059985995293 -0.599578440189 -0.999995 -0.002938 -0.000979
-0.347715526819 1.240369081497 -0.593903899193 -0.001016 0.041673 -0.999131
-0.160431087017 1.189874410629 -0.595979273319 -0.001016 0.041673 -0.999131
-0.400425642729 1.199510097504 -0.595562577248 -0.001016 0.041673 -0.999131
-0.380372434855 1.095315337181 -0.599807977676 -0.001016 0.041673 -0.999131
-0.512711644173 1.636204004288 -0.577766776085 -0.001016 0.041673 -0.999131
-0.513829290867 1.841758489609 -0.569395422935 -0.001016 0.041673 -0.999131
-0.341760247946 1.116441607475 -0.598951458931 -0.001016 0.041673 -0.999131
-0.290484040976 1.358179807663 -0.589111864567 -0.001016 0.041673 -0.999131
-0.511801719666 1.713459014893 -0.574620664120 -0.001016 0.041673 -0.999131
-0.522266447544 1.250980973244 -0.593454062939 -0.001016 0.041673 -0.999131
-0.227824479342 1.132158517838 -0.598322927952 -0.001016 0.041673 -0.999131
-0.256322771311 1.434397220612 -0.586011350155 -0.001016 0.041673 -0.999131
-0.080413684249 1.155577778816 -0.597384095192 -0.001016 0.041673 -0.999131
-0.423605740070 1.665059089661 -0.576600670815 -0.001016 0.041673 -0.999131
-0.216493219137 1.199642777443 -0.595575749874 -0.001016 0.041673 -0.999131
-0.492459058762 1.092815041542 -0.599898457527 -0.001016 0.041673 -0.999131
-0.532354772091 1.134924888611 -0.598179459572 -0.001016 0.041673 -0.999131
-0.488747268915 1.298291563988 -0.591530740261 -0.001016 0.041673 -0.999131
-0.156852334738 1.350021600723 -0.589457631111 -0.001016 0.041673 -0.999131
-0.354862779379 1.429124355316 -0.586216092110 -0.001016 0.041673 -0.999131
-0.071222148836 1.155449748039 -0.597390234470 -0.001016 0.041673 -0.999131
-0.438980937004 1.161476850510 -0.597107589245 -0.001016 0.041673 -0.999131
-0.526992619038 1.331248283386 -0.590184748173 -0.001016 0.041673 -0.999131
-0.415567100048 1.722400665283 -0.574266254902 -0.001016 0.041673 -0.999131
-0.353766530752 1.397500872612 -0.587504088879 -0.001016 0.041673 -0.999131
-0.419231653214 1.645053386688 -0.577415823936 -0.001016 0.041673 -0.999131
-0.200020447373 0.524580240250 -0.602432370186 0.004926 0.004926 -0.999976
-0.017506238073 0.858638525009 -0.600287377834 0.004926 0.004926 -0.999976
-0.361186355352 0.909481763840 -0.601446986198 0.004926 0.004926 -0.999976
-0.059583120048 0.828174650669 -0.600584745407 0.004926 0.004926 -0.999976
-0.201787069440 0.525620281696 -0.602435052395 0.004926 0.004926 -0.999976
-0.053947798908 0.536218702793 -0.601798713207 0.004926 0.004926 -0.999976
-0.453094184399 0.985435307026 -0.601492941380 0.004926 0.004926 -0.999976
-0.311827600002 0.726778566837 -0.602023303509 0.004926 0.004926 -0.999976
-0.195507794619 0.475307583809 -0.602622985840 0.004926 0.004926 -0.999976
-0.103873170912 0.432900846004 -0.602436006069 0.004926 0.004926 -0.999976
-0.189353182912 0.309123128653 -0.603302240372 0.004926 0.004926 -0.999976
-0.380450457335 1.014989018440 -0.601077198982 0.004926 0.004926 -0.999976
-0.145922675729 0.349465131760 -0.602957606316 0.004926 0.004926 -0.999976
-0.089900150895 0.500172555447 -0.602095186710 0.004926 0.004926 -0.999976
-0.190975353122 0.571301937103 -0.602198302746 0.004926 0.004926 -0.999976
-0.035589154810 1.087195396423 -0.599391698837 0.004926 0.004926 -0.999976
-0.100414179265 0.666538774967 -0.601432621479 0.004926 0.004926 -0.999976
-0.420690119267 0.889308333397 -0.601770520210 0.004926 0.004926 -0.999976
-0.372922658920 0.863874912262 -0.601687073708 0.004926 0.004926 -0.999976
-0.026861466467 0.990156531334 -0.599767744541 0.004926 0.004926 -0.999976
-0.191332697868 1.014571428299 -0.600322365761 0.004926 0.004926 -0.999976
-0.103131435812 0.357372939587 -0.602752923965 0.004926 0.004926 -0.999976
-0.159316316247 0.975051283836 -0.600361645222 0.004926 0.004926 -0.999976
-0.212603241205 0.499435514212 -0.602589190006 0.004926 0.004926 -0.999976
-0.118604429066 0.907392263412 -0.600485324860 0.004926 0.004926 -0.999976
-0.299072533846 0.806750535965 -0.601633608341 0.004926 0.004926 -0.999976
-0.524866580963 1.040689945221 -0.601546108723 0.004926 0.004926 -0.999976
-0.015233203769 0.136876136065 -0.603335142136 0.004926 0.004926 -0.999976
-0.238775432110 0.574467957020 -0.602376163006 0.004926 0.004926 -0.999976
-0.333062350750 0.645612180233 -0.602452039719 0.004926 0.004926 -0.999976
-0.110215932131 0.389478445053 -0.602645277977 0.004926 0.004926 -0.999976
-0.291632324457 0.807394683361 -0.601601123810 0.004926 0.004926 -0.999976
-0.156184256077 1.397460699081 -0.587525725365 -0.001016 0.041673 -0.999131
-0.195012912154 1.955847144127 -0.564780890942 -0.001016 0.041673 -0.999131
-0.155161365867 1.637025713921 -0.577769219875 -0.001016 0.041673 -0.999131
-0.271333396435 1.695992946625 -0.575356125832 -0.001016 0.041673 -0.999131
-0.042252380401 1.431449770927 -0.586152791977 -0.001016 0.041673 -0.999131
-0.064625173807 1.322185993195 -0.590600430965 -0.001016 0.041673 -0.999131
-0.460674762726 1.980604887009 -0.563746154308 -0.001016 0.041673 -0.999131
-0.291482418776 1.881436467171 -0.567801773548 -0.001016 0.041673 -0.999131
-0.135135963559 1.764127016068 -0.572594881058 -0.001016 0.041673 -0.999131
-0.015178127214 1.675046682358 -0.576234698296 -0.001016 0.041673 -0.999131
-0.218040406704 1.885790109634 -0.567631721497 -0.001016 0.041673 -0.999131
-0.206604033709 1.971844434738 -0.564128220081 -0.001016 0.041673 -0.999131
-0.372660726309 1.976063966751 -0.563939869404 -0.001016 0.041673 -0.999131
-0.087040632963 1.270204067230 -0.592715203762 -0.001016 0.041673 -0.999131
-0.515475153923 2.011632442474 -0.562477052212 -0.001016 0.041673 -0.999131
-0.225501656532 1.749916672707 -0.573164582253 -0.001016 0.041673 -0.999131
-0.082384809852 1.473237037659 -0.584446907043 -0.001016 0.041673 -0.999131
-0.171307697892 1.706537365913 -0.574936687946 -0.001016 0.041673 -0.999131
-0.054754391313 1.818830609322 -0.570375025272 -0.001016 0.041673 -0.999131
-0.329652696848 1.787356972694 -0.571629464626 -0.001016 0.041673 -0.999131
-0.143997862935 1.885355353355 -0.567656815052 -0.001016 0.041673 -0.999131
-0.378295004368 1.799702405930 -0.571121811867 -0.001016 0.041673 -0.999131
-0.178478389978 1.445900678635 -0.585550665855 -0.001016 0.041673 -0.999131
-0.010854066350 2.180543422699 -0.556194961071 -0.001012 0.037461 -0.999298
-0.099094554782 2.132361888885 -0.557999908924 -0.001012 0.037461 -0.999298
-0.142294406891 2.208320617676 -0.555098712444 -0.001012 0.037461 -0.999298
-0.008679993451 2.123715400696 -0.558356344700 -0.001012 0.037461 -0.999298
-0.116938441992 2.017707824707 -0.562353789806 -0.001012 0.037461 -0.999298
-0.211902335286 2.196929454803 -0.555510520935 -0.001012 0.037461 -0.999298
-0.023372784257 2.302547454834 -0.551552414894 -0.001012 0.037461 -0.999298
-0.231300547719 2.135971546173 -0.557822227478 -0.001012 0.037461 -0.999298
-0.025695675984 2.282307863235 -0.552321195602 -0.001012 0.037461 -0.999298
-0.572874903679 2.146324396133 -0.557379961014 -0.001012 0.037461 -0.999298
-0.210483923554 2.293603658676 -0.551870286465 -0.001012 0.037461 -0.999298
-0.159186631441 2.230736255646 -0.554241240025 -0.001012 0.037461 -0.999298
-0.462260395288 2.112877130508 -0.558649122715 -0.001012 0.037461 -0.999298
-0.347887665033 2.299136400223 -0.551649272442 -0.001012 0.037461 -0.999298
-0.496977686882 2.193573236465 -0.555608689785 -0.001012 0.037461 -0.999298
-0.317969083786 2.258949756622 -0.553164660931 -0.001012 0.037461 -0.999298
-0.671959638596 2.153989076614 -0.557082355022 -0.001012 0.037461 -0.999298
-0.690952003002 2.252802133560 -0.553361475468 -0.001012 0.037461 -0.999298
-0.439571201801 2.153403759003 -0.557125926018 -0.001012 0.037461 -0.999298
-0.339717537165 2.207365274429 -0.555104196072 -0.001012 0.037461 -0.999298
-0.407263606787 2.179012537003 -0.556165039539 -0.001012 0.037461 -0.999298
-0.662156641483 2.042088031769 -0.561294794083 -0.001012 0.037461 -0.999298
-0.795312941074 2.132208824158 -0.557890415192 -0.001012 0.037461 -0.999298
-0.668745040894 2.076246261597 -0.560008585453 -0.001012 0.037461 -0.999298
-0.702549576759 2.024272441864 -0.561961472034 -0.001012 0.037461 -0.999298
-0.805317699909 2.006972074509 -0.535139262676 0.001278 -0.924094 -0.382163
-0.796120941639 2.018106937408 -0.562107324600 0.001278 -0.924094 -0.382163
-0.831303715706 1.987690329552 -0.488499671221 0.001278 -0.924094 -0.382163
-0.745107412338 1.998326063156 -0.513795137405 0.001278 -0.924094 -0.382163
-0.838302969933 2.009751796722 -0.551220655441 0.974585 0.059768 0.215897
-0.870913982391 1.929611325264 -0.398762255907 0.858760 -0.500346 0.110391
-0.902079463005 1.869242310524 -0.316741138697 0.913071 -0.393684 -0.106364
-0.770037114620 1.899443507195 -0.294853091240 0.001342 -0.857729 -0.514100
-0.707899212837 1.921927213669 -0.332032948732 0.001342 -0.857729 -0.514100
-0.627945005894 1.929550528526 -0.346179425716 0.001278 -0.924094 -0.382163
-0.564605593681 2.010149717331 -0.541409015656 0.001278 -0.924094 -0.382163
-0.571362733841 2.004495620728 -0.527727484703 0.001278 -0.924094 -0.382163
-0.647209465504 1.939395189285 -0.370187401772 0.001278 -0.924094 -0.382163
-0.601384222507 1.894271612167 -0.285547614098 0.001342 -0.857729 -0.514100
-0.816199719906 1.869021058083 -0.244389176369 0.001342 -0.857729 -0.514100
-0.539792418480 1.819699645042 -0.298595786095 -0.999995 -0.002938 0.000979
-0.539560019970 1.725564002991 -0.289973735809 -0.999995 -0.002938 0.000979
-0.539174973965 1.569611072540 -0.270514190197 -0.999995 -0.002938 0.000979
-0.539813756943 1.828333616257 -0.277907013893 -0.999995 -0.002938 0.000979
-0.539381384850 1.653154015541 -0.204754352570 -0.999995 -0.002938 -0.000979
-0.539608299732 1.745049357414 -0.199592098594 -0.999995 -0.002938 -0.000979
-0.539378583431 1.651987552643 -0.197191759944 -0.999995 -0.002938 -0.000979
-0.538230419159 1.187021493912 -0.236298888922 -0.999995 -0.002938 -0.000979
-0.538624465466 1.346559047699 -0.157833859324 -0.999995 -0.002938 -0.000979
-0.610970795155 1.177403569221 -0.233224228024 -0.001382 0.736866 -0.676037
-0.582314133644 1.207141995430 -0.200808718801 -0.001382 0.736866 -0.676037
-0.840250968933 1.214150190353 -0.192455902696 -0.001382 0.736866 -0.676037
-0.876439929008 1.211397051811 -0.195366457105 -0.001382 0.736866 -0.676037
-0.900122642517 1.157092332840 -0.309669137001 0.923321 0.374466 -0.085167
-0.918383717537 1.257591962814 -0.197953969240 0.943312 0.263026 -0.202433
-0.692681550980 1.275488138199 -0.148371443152 -0.001362 0.578659 -0.815569
-0.634502947330 1.247678399086 -0.168202877045 -0.001362 0.578659 -0.815569
-0.645526170731 1.253915190697 -0.163758993149 -0.001362 0.578659 -0.815569
-0.603821039200 1.353235483170 -0.120375156403 -0.001247 0.330406 -0.943838
-0.577780008316 1.311607480049 -0.135017991066 -0.001247 0.330406 -0.943838
-0.820562720299 1.347286105156 -0.122276879847 -0.001247 0.330406 -0.943838
-0.810995221138 1.306104063988 -0.136748731136 -0.001247 0.330406 -0.943838
