-0.197372958064 -0.566707611084 0.040492348373 0.003896 0.907762 0.419467
0.043727651238 -0.577643930912 0.063085824251 -0.001299 0.907768 0.419470
0.021923935041 -0.579138994217 0.066211834550 -0.001299 0.907768 0.419470
0.029409810901 -0.614851295948 0.126708984375 0.012111 0.496537 0.867931
-0.184907242656 -0.588344216347 0.086372882128 -0.001300 0.903843 0.427862
-0.309008747339 -0.566173613071 0.041117101908 0.014472 0.903857 0.427589
-0.313759922981 -0.555482804775 -0.023609647527 0.016149 0.995869 0.089359
-0.417285352945 -0.556156396866 0.002616866725 0.024723 0.996438 0.080618
-0.430092275143 -0.550907790661 -0.061000868678 0.015865 0.997360 0.070862
-0.573575675488 -0.549776554108 -0.011459552683 0.060516 0.995757 0.069318
-0.622336983681 -0.545856058598 -0.028036657721 0.055536 0.996387 0.064248
-0.528605222702 -0.573855340481 0.063715964556 0.047464 0.890965 0.451585
-0.383844554424 -0.575092434883 0.061612535268 0.006565 0.899341 0.437198
-0.543721199036 -0.591507136822 0.097480490804 0.018007 0.793678 0.608071
0.457233428955 -0.615758717060 0.116935878992 0.048098 0.170103 0.984252
0.581602334976 -0.627130866051 0.111588694155 0.056682 0.085579 0.994718
0.564764976501 -0.718549013138 0.120053455234 0.044727 0.077454 0.995992
0.506637692451 -0.746566951275 0.125110805035 0.056216 0.078261 0.995347
0.400480270386 -0.768709242344 0.125455185771 -0.005014 0.021058 0.999766
0.281744658947 -0.635897159576 0.128130123019 0.051334 0.024095 0.998391
0.341907560825 -0.776500105858 0.128211796284 0.044692 0.019747 0.998806
0.118930831552 -0.664031088352 0.133099809289 0.023435 0.019359 0.999538
0.028608933091 -0.643377423286 0.134840413928 0.023435 0.019359 0.999538
0.048058222979 -0.694131731987 0.134691715240 0.010901 -0.004955 0.999928
0.109309569001 -0.724149107933 0.133928969502 0.010901 -0.004955 0.999928
-0.193314701319 -0.643807470798 0.130742639303 -0.025117 -0.005023 0.999672
-0.059112060815 -0.711021423340 0.133670434356 -0.025117 -0.005023 0.999672
-0.223661631346 -0.680337965488 0.130420908332 -0.011053 0.019091 0.999757
-0.083028212190 -0.775253593922 0.133667171001 -0.011053 0.019091 0.999757
-0.305223017931 -0.651400089264 0.127183571458 -0.051125 0.019824 0.998496
-0.361228764057 -0.682252407074 0.124990604818 -0.044874 0.024002 0.998704
-0.453085899353 -0.708262801170 0.120606631041 -0.060190 0.024287 0.997891
-0.512271046638 -0.627095401287 0.115097463131 -0.060190 0.024287 0.997891
-0.469139963388 -0.766650974751 0.124834306538 0.007371 0.074762 0.997174
-0.622057557106 -0.630434036255 0.109216593206 -0.058551 0.076227 0.995370
-0.618194878101 -0.742770433426 0.118985958397 -0.045086 0.086874 0.995199
-0.579347550869 -0.804756104946 0.125211015344 -0.045981 0.050258 0.997677
-0.549581468105 -0.874963879585 0.129343479872 0.009133 0.029428 0.999525
-0.557880938053 -0.990294337273 0.132901057601 0.009133 0.029428 0.999525
-0.419747889042 -0.828334271908 0.127176076174 0.005053 0.029310 0.999558
-0.474468797445 -0.811474621296 0.126957744360 0.005053 0.029310 0.999558
-0.446348786354 -0.984529018402 0.132350847125 -0.045702 0.043576 0.998004
-0.427368879318 -0.989954888821 0.133451431990 -0.045702 0.043576 0.998004
-0.421057283878 -1.044500589371 0.134988859296 -0.002973 0.012883 0.999913
-0.458742469549 -1.069887757301 0.135221779346 -0.002973 0.012883 0.999913
-0.462403833866 -1.069929242134 0.135213524103 -0.002973 0.012883 0.999913
-0.301832377911 -0.870453834534 0.133058249950 -0.002973 0.012883 0.999913
-0.190526813269 -1.070238471031 0.133965939283 0.015012 0.011009 0.999827
-0.240007370710 -1.149937391281 0.135503903031 0.015012 0.011009 0.999827
-0.203839763999 -0.982740938663 0.133314490318 0.004945 0.006924 0.999964
-0.174738124013 -1.004927754402 0.133340597153 0.004945 0.006924 0.999964
-0.121694117785 -1.050049066544 0.133423984051 0.004945 0.006924 0.999964
-0.047263894230 -0.920822679996 0.133905187249 -0.010880 -0.002967 0.999936
-0.210716709495 -0.846048057079 0.132444068789 -0.010880 -0.002967 0.999936
-0.237186148763 -0.820296227932 0.132243663073 -0.010880 -0.002967 0.999936
-0.226769432425 -0.796960353851 0.132411345840 -0.010880 -0.002967 0.999936
-0.059963963926 -0.830485641956 0.134015962481 -0.010880 -0.002967 0.999936
0.125325500965 -0.896643996239 0.133184283972 0.010880 -0.002967 0.999936
0.016289956868 -0.891915678978 0.134302228689 0.010880 -0.002967 0.999936
0.029373973608 -1.085463523865 0.133663788438 0.010880 -0.002967 0.999936
0.062417000532 -1.075802803040 0.133353993297 0.010880 -0.002967 0.999936
0.066123053432 -1.066754341125 0.133340060711 0.010880 -0.002967 0.999936
0.243903130293 -0.826062083244 0.132316112518 -0.004945 0.006924 0.999964
0.079466447234 -1.110904932022 0.133674994111 -0.004945 0.006924 0.999964
0.070180788636 -1.143386006355 0.133876770735 -0.004945 0.006924 0.999964
0.274198621511 -1.038250565529 0.134853273630 -0.015012 0.011009 0.999827
0.238218873739 -1.058156251907 0.134527564049 -0.015012 0.011009 0.999827
0.194221109152 -1.097478747368 0.134281545877 -0.015012 0.011009 0.999827
0.334112823009 -1.014450788498 0.133153170347 0.044692 0.019747 0.998806
0.308965057135 -0.919889748096 0.132475644350 0.044692 0.019747 0.998806
0.367404848337 -0.797079026699 0.127447947860 0.044692 0.019747 0.998806
0.393058240414 -1.073525190353 0.134624302387 -0.003026 0.031266 0.999507
0.423757702112 -0.905357480049 0.129546567798 -0.003026 0.031266 0.999507
0.344971805811 -1.124473333359 0.136072337627 -0.003026 0.031266 0.999507
0.437403112650 -0.864892542362 0.128386825323 -0.005053 0.029310 0.999558
0.498807162046 -0.886133551598 0.129342839122 -0.005053 0.029310 0.999558
0.580703914165 -0.822262465954 0.124858468771 0.049041 0.021912 0.998556
0.572959482670 -0.778699219227 0.124264664948 0.049041 0.021912 0.998556
0.508641898632 -1.077150702477 0.134944081306 -0.019942 0.057726 0.998133
0.610441267490 -0.986329615116 0.131882533431 -0.019942 0.057726 0.998133
0.491216540337 -0.571190178394 0.059177584946 -0.019972 0.890760 0.454035
0.470402657986 -0.552442193031 -0.017777103931 -0.026721 0.997226 0.069474
0.473340809345 -0.548760354519 -0.065330527723 -0.018198 0.996606 0.080285
0.482866197824 -0.578219532967 -0.129834219813 -0.017608 0.862809 -0.505224
0.492084056139 -0.581752777100 -0.136218011379 -0.017608 0.862809 -0.505224
0.441912859678 -0.667318761349 -0.279833078384 -0.025851 0.861261 -0.507505
0.396670252085 -0.571003317833 -0.114079959691 -0.025851 0.861261 -0.507505
-0.016910022125 -0.606485724449 0.133414551616 0.001197 0.966294 0.257439
-0.082198187709 -0.705429196358 0.144275993109 -0.225950 -0.231427 0.946250
0.027229305357 -0.829527258873 0.107179582119 0.084363 -0.438413 0.894805
0.120779216290 -0.708223104477 0.131720080972 0.358426 -0.177088 0.916608
0.143554329872 -0.717266142368 0.119281388819 0.327837 -0.238295 0.914187
0.193994686007 -0.679201424122 0.099466934800 0.609810 -0.079290 0.788572
0.136312812567 -0.810682415962 0.091042213142 0.325065 -0.316077 0.891307
0.198440074921 -0.704745531082 0.092668637633 0.623965 -0.120050 0.772176
0.064815625548 -0.667037010193 0.157333478332 0.214613 -0.132366 0.967688
0.075310081244 -0.601105809212 0.113476194441 -0.008397 0.968028 0.250704
0.049705054611 -0.609564602375 0.145462602377 -0.001195 0.967043 0.254611
-0.200107082725 -0.598518669605 0.004516480491 0.997722 0.064403 0.020060
-0.223891973495 -0.614135563374 -0.094588130713 0.593356 0.346260 -0.726658
-0.209748506546 -0.610299170017 -0.081225886941 0.593356 0.346260 -0.726658
-0.235261544585 -0.538524389267 -0.064073324203 -0.001286 0.399807 -0.916599
-0.366693139076 -0.568816959858 -0.065306261182 -0.593356 0.346260 -0.726658
-0.377174466848 -0.532333493233 -0.001038171351 -0.997856 0.062300 0.020063
-0.307892024517 -0.563219428062 0.057870127261 0.001071 -0.101730 0.994811
-0.247324436903 -0.700222909451 0.043736483902 0.001071 -0.101730 0.994811
-0.362845271826 -0.513834118843 -0.020230386406 -0.582761 0.771255 0.256038
-0.256567656994 -0.366209387779 0.026060825214 0.061629 0.962171 0.265383
-0.214536070824 -0.441051185131 0.096025474370 0.376169 -0.354496 0.856055
-0.308634489775 -0.408620119095 0.114432692528 -0.011928 0.457226 0.889271
-0.355527639389 -0.406995594501 0.110148653388 -0.200652 0.568258 0.798011
-0.375445216894 -0.394373118877 0.078174404800 -0.438902 0.861099 0.256659
-0.249613970518 -0.484808683395 0.088885776699 0.226046 -0.366048 0.902725
-0.270651549101 -0.475314110518 0.095037162304 0.050861 -0.350812 0.935064
-0.313976585865 -0.373208343983 -0.028621433303 -0.215098 0.239759 -0.946704
-0.296524137259 -0.487657904625 0.091357842088 -0.019053 -0.344229 0.938692
-0.345589905977 -0.457898110151 -0.008826764300 -0.788886 -0.177841 -0.588244
-0.319189637899 -0.369629740715 -0.024050183594 -0.001307 0.897798 0.440405
-0.303221344948 -0.394321709871 -0.058048903942 0.001379 -0.740750 -0.671779
-0.386907219887 -0.437030613422 0.039297848940 -0.370739 -0.871161 -0.321918
-0.411107718945 -0.386734664440 0.030949864537 0.098288 0.933062 0.346027
-0.211031734943 -0.442082017660 0.033808149397 0.371727 -0.870422 -0.322775
-0.166368409991 -0.429940253496 0.052604548633 0.371727 -0.870422 -0.322775
-0.167783081532 -0.422346651554 0.077577225864 0.001255 -0.347682 0.937612
-0.219685882330 -0.455731421709 0.216073632240 0.374637 0.108411 0.920812
-0.294083595276 -0.443181693554 0.214360877872 0.030325 0.998620 -0.042873
-0.112750463188 -0.390207141638 0.066276662052 0.365621 0.862372 0.350194
-0.107178166509 -0.404367715120 0.093295149505 0.874168 0.296457 0.384634
-0.425463199615 -0.376067638397 -0.006637989543 0.807425 0.280639 0.518947
-0.470395058393 -0.383329719305 0.003435921855 -0.871529 0.481672 -0.091814
-0.444788694382 -0.423863172531 0.149369552732 -0.321389 0.778688 0.538846
-0.132978886366 -0.369276136160 -0.040677208453 0.718364 0.601080 -0.350223
-0.245345190167 -0.464015305042 0.187307566404 -0.222669 -0.080858 -0.971535
-0.181330144405 0.346627712250 0.369716554880 0.999999 0.000978 -0.000978
-0.181312352419 0.333161741495 0.325658619404 0.999999 0.000978 0.000978
-0.374655395746 0.361940205097 0.374129861593 -0.001318 0.889364 0.457199
-0.256143361330 0.370994776487 0.351688235998 -0.001135 0.983996 0.178186
-0.181331127882 0.347379982471 0.274734973907 0.999999 0.000978 -0.000978
-0.181263148785 0.295943349600 0.307162731886 0.999999 0.000978 -0.000978
-0.183185666800 0.289376229048 0.388106822968 0.674240 -0.092141 0.732742
-0.332201331854 0.276853233576 0.398619711399 0.001139 -0.183394 0.983039
-0.386986464262 0.340551674366 0.396654605865 -0.577953 0.503813 0.641983
-0.183540672064 0.356184810400 0.263986110687 0.589188 0.723020 -0.360694
-0.188842728734 0.308452874422 0.224710091949 0.697729 -0.117528 -0.706655
-0.379980593920 0.273467212915 0.239980280399 0.001351 -0.838844 -0.544370
-0.210374593735 0.256575196981 0.268823951483 0.001280 -0.920595 -0.390517
-0.252961546183 0.292068123817 0.222814440727 0.001378 -0.657235 -0.753685
-0.308038711548 0.370911628008 0.278149992228 -0.001216 0.959055 -0.283219
-0.203912556171 0.362140446901 0.256161391735 -0.001335 0.868817 -0.495132
-0.398155093193 0.361179053783 0.345486551523 -0.708062 0.699229 0.098628
-0.327996909618 0.255807191133 0.386721372604 0.001379 -0.748548 0.663079
-0.334768801928 0.347970873117 0.233810767531 -0.000985 0.008867 0.999960
-0.273901313543 0.244459763169 0.191861808300 0.001374 -0.773712 0.633537
-0.383910924196 0.185961976647 0.100558184087 0.001329 -0.875906 0.482479
-0.489287585020 0.190732017159 0.132668286562 0.063037 -0.850301 0.522508
-0.440402299166 0.372707873583 0.176842719316 -0.204589 0.972738 -0.109198
-0.315114349127 0.375009357929 0.190069183707 -0.001090 0.992658 -0.120950
-0.119139045477 0.316602408886 0.234186902642 0.000987 0.010858 0.999941
-0.218716442585 0.347533971071 0.233815535903 -0.000985 0.008867 0.999960
-0.189992949367 0.297538459301 0.234217584133 -0.000985 0.008867 0.999960
-0.176137983799 0.172014877200 0.073697201908 0.001316 -0.890978 0.454044
-0.432411909103 0.162848278880 0.056377232075 0.001316 -0.890978 0.454044
-0.465784609318 0.160461932421 0.066760167480 0.329680 -0.839043 0.432802
-0.494062572718 0.329915076494 0.140001654625 -0.763988 0.612734 -0.202187
-0.474573165178 0.352707535028 0.144477069378 -0.538598 0.781526 -0.314848
-0.342359274626 0.343078583479 0.089679211378 -0.001294 0.912042 -0.410095
-0.253811538219 0.361316591501 0.129934310913 -0.001294 0.912042 -0.410095
-0.160453021526 0.335812211037 0.073003061116 -0.001294 0.912042 -0.410095
-0.090171366930 0.320024639368 0.107025809586 0.694324 0.681786 -0.230396
-0.166331261396 0.133228078485 -0.011669203639 0.001273 -0.927860 0.372926
-0.266772210598 0.117817379534 -0.049620568752 0.001273 -0.927860 0.372926
-0.259993582964 0.114015981555 -0.059085711837 0.001273 -0.927860 0.372926
-0.419390916824 0.146616488695 0.022419337183 0.001273 -0.927860 0.372926
-0.374531209469 0.100778900087 -0.091591358185 0.001273 -0.927860 0.372926
-0.462761700153 0.130922570825 -0.002905019093 0.369561 -0.866398 0.335825
-0.492764472961 0.118918098509 -0.004514891654 0.331035 -0.874115 0.355443
-0.531767249107 0.158132642508 -0.005798614118 -0.986373 0.164207 -0.010192
-0.518559217453 0.237443193793 -0.004857356660 -0.986312 0.164574 -0.010215
-0.515207350254 0.225499838591 -0.107394136488 -0.831775 0.536296 -0.143308
-0.501622974873 0.269710093737 -0.015236735344 -0.627623 0.745984 -0.222705
-0.497527837753 0.284501910210 0.022235944867 -0.623026 0.737168 -0.261576
-0.155817851424 0.326940327883 0.055946137756 -0.001328 0.877641 -0.479317
-0.066962458193 0.260543316603 0.106947667897 0.985961 0.166785 -0.007942
-0.057799730450 0.208642363548 0.151742890477 0.985961 0.166785 -0.007942
-0.061927121133 0.164004758000 0.091542050242 0.151444 -0.848380 0.507264
-0.241696104407 0.081423521042 -0.146283313632 0.001183 -0.971313 0.237800
-0.286599010229 0.077577061951 -0.161730006337 0.001183 -0.971313 0.237800
-0.352401852608 0.081526957452 -0.145264551044 0.001183 -0.971313 0.237800
-0.511886656284 0.063511483371 -0.128854095936 0.194986 -0.959015 0.205598
-0.527077317238 0.178200632334 -0.162619248033 -0.985809 0.167869 0.001127
-0.476396381855 0.268318504095 -0.075339242816 -0.375939 0.885180 -0.274091
-0.343816995621 0.292161762714 -0.022372936830 -0.001231 0.951836 -0.306607
-0.299759238958 0.255291670561 -0.136729091406 -0.001231 0.951836 -0.306607
-0.337052255869 0.281815141439 -0.054441049695 -0.001231 0.951836 -0.306607
-0.290160179138 0.249463796616 -0.154815629125 -0.001231 0.951836 -0.306607
-0.248647943139 0.252051204443 -0.146973103285 -0.001231 0.951836 -0.306607
-0.124661825597 0.285415649414 -0.039454910904 0.115782 0.946219 -0.302098
-0.115606978536 0.299501389265 0.010995820165 0.369792 0.887801 -0.273976
-0.088447228074 0.279942631721 -0.003392383456 0.624272 0.748815 -0.222621
-0.051536586136 0.162623792887 -0.033094823360 0.985941 0.166782 -0.010211
-0.054170139134 0.128862291574 0.028003968298 0.136815 -0.904110 0.404804
-0.050744958222 0.081533372402 -0.079552479088 0.115454 -0.908331 0.402002
-0.443620920181 0.066906720400 -0.235321909189 0.001065 -0.995698 0.092648
-0.478143781424 0.060165949166 -0.226410061121 0.321198 -0.945534 0.052888
-0.508958101273 0.051386635751 -0.239027351141 0.117655 -0.992918 0.016494
-0.470040261745 0.239998042583 -0.177046298981 -0.119738 0.953958 -0.275003
-0.442687779665 0.242820948362 -0.176150083542 -0.001211 0.960094 -0.279674
-0.264135420322 0.234581455588 -0.205261349678 -0.001211 0.960094 -0.279674
-0.045330729336 0.126062840223 -0.033266112208 0.985941 0.166782 -0.010211
-0.036097403616 0.067860081792 -0.173227369785 0.985221 0.171195 0.005669
-0.094291567802 0.059545896947 -0.274416923523 -0.158678 -0.984280 -0.077549
-0.526976525784 0.167778581381 -0.294572442770 -0.844500 0.529409 -0.080902
-0.398128986359 0.223592028022 -0.246049284935 -0.001182 0.970765 -0.240031
-0.221929043531 0.224101752043 -0.244924619794 -0.001182 0.970765 -0.240031
-0.118136115372 0.217448890209 -0.266679227352 0.116990 0.965488 -0.232694
-0.090042203665 0.210751965642 -0.257907062769 0.358957 0.909646 -0.209031
-0.083210356534 0.205050408840 -0.263640493155 0.618130 0.769262 -0.161711
-0.041043750942 0.096614278853 -0.192091941833 0.985368 0.170436 0.001129
-0.048196271062 0.138846859336 -0.271765679121 0.984316 0.176380 0.003414
-0.088720411062 0.063922286034 -0.311050266027 -0.146206 -0.966512 -0.210899
-0.263979047537 0.067864969373 -0.299812018871 0.001083 -0.993508 -0.113760
-0.537180840969 0.064695455134 -0.320973545313 -0.183968 -0.947092 -0.263006
-0.546284198761 0.073900252581 -0.309310764074 -0.982594 0.184454 0.022042
-0.075034767389 0.215528503060 0.170678317547 0.166299 -0.691131 0.703337
-0.226646229625 -0.336394727230 -0.382384270430 0.001055 -0.996696 -0.081212
-0.344293147326 -0.338026076555 -0.364492267370 0.001055 -0.996696 -0.081212
-0.345838308334 -0.344637364149 -0.284367382526 0.001055 -0.996696 -0.081212
-0.502676367760 -0.320014476776 -0.248991966248 -0.642226 -0.755473 -0.129637
-0.496211647987 -0.312836259604 -0.327403873205 -0.611808 -0.782819 -0.113516
-0.521747291088 -0.278555065393 -0.322783499956 -0.855632 -0.501177 -0.129289
-0.542512953281 -0.255810499191 -0.247169643641 -0.975427 -0.161943 -0.149390
-0.539699137211 -0.172010064125 -0.317450523376 -0.987835 -0.001119 -0.155503
-0.525792002678 -0.146405160427 -0.399313986301 -0.984958 0.012555 -0.172339
-0.540693402290 -0.054137170315 -0.306612312794 -0.984642 0.019532 -0.173490
-0.522920012474 0.001486718655 -0.391086965799 -0.976033 0.044529 -0.213018
-0.413913995028 0.172900781035 -0.416653960943 -0.001294 0.909655 -0.415362
-0.311880946159 0.169614627957 -0.424164324999 -0.001294 0.909655 -0.415362
-0.120758667588 0.174004301429 -0.415082126856 -0.001294 0.909655 -0.415362
-0.113306626678 0.167415082455 -0.429565757513 -0.001294 0.909655 -0.415362
-0.116334706545 0.163727134466 -0.366390585899 -0.079452 0.303481 0.949519
-0.140283763409 0.137190297246 -0.366581320763 -0.001154 0.201881 0.979409
-0.175756990910 0.131210386753 -0.365352004766 -0.001154 0.201881 0.979409
-0.276583164930 0.117298483849 -0.362501144409 -0.001154 0.201881 0.979409
-0.336953878403 -0.011318095028 -0.335906177759 -0.001154 0.201881 0.979409
-0.429447650909 0.166236251593 -0.372668415308 -0.001154 0.201881 0.979409
-0.407090425491 -0.001976689091 -0.337858170271 -0.001154 0.201881 0.979409
-0.463034421206 -0.290237247944 -0.230777353048 0.190560 0.267332 0.944574
-0.467597812414 -0.131944954395 -0.260725975037 0.456576 0.184699 0.870302
-0.477007091045 0.109104789793 -0.340301245451 0.453645 0.386320 0.803096
-0.490508615971 -0.193236052990 -0.237498015165 0.147354 0.193482 0.969975
-0.435055166483 -0.165331915021 -0.264505147934 -0.266143 0.333782 0.904299
-0.461073487997 -0.312662333250 -0.224363446236 0.121510 -0.048831 0.991388
-0.281047195196 -0.344922095537 -0.231362223625 0.001365 -0.812439 0.583045
-0.168881118298 -0.345704436302 -0.232659742236 0.001365 -0.812439 0.583045
-0.084363684058 -0.144527539611 -0.246548384428 -0.147864 0.201866 0.968187
-0.049777869135 -0.234110742807 -0.346722304821 0.972634 -0.178802 -0.148368
-0.046395264566 -0.215412274003 -0.344461858273 0.977234 -0.158504 -0.141031
-0.038433160633 -0.092424392700 -0.293413907290 0.985745 -0.001129 -0.168243
-0.040867418051 -0.200460761786 -0.310957074165 0.987361 0.017004 -0.157570
-0.054398339242 -0.033526122570 -0.370184123516 0.982413 0.053328 -0.178944
-0.051880206913 0.012144930661 -0.350352108479 0.978878 0.010500 -0.204176
-0.047031100839 0.062224939466 -0.319582045078 0.916472 0.252571 0.310302
-0.051590293646 0.056029662490 -0.307770818472 0.622361 0.406609 0.668831
-0.124831616879 0.093665771186 -0.341737866402 -0.459523 0.351400 0.815694
-0.168564200401 -0.047693781555 -0.320999354124 -0.001322 0.471891 0.881656
-0.225328817964 -0.097015887499 -0.294417291880 -0.001323 0.475046 0.879960
-0.274918675423 -0.123852983117 -0.279993057251 -0.001323 0.475046 0.879960
-0.349809050560 -0.033843010664 -0.328542858362 -0.001323 0.475046 0.879960
-0.273058712482 -0.163705781102 -0.263485074043 -0.001242 0.326641 0.945148
-0.233572781086 -0.168084949255 -0.261954694986 -0.001242 0.326641 0.945148
-0.154157370329 -0.175574705005 -0.259470015764 0.006254 0.328951 0.944326
-0.137067779899 -0.158663555980 -0.260518491268 0.307443 0.197943 0.930751
-0.113871224225 -0.274747610092 -0.233450740576 -0.219306 0.224754 0.949416
-0.137092903256 -0.274571776390 -0.233802616596 0.300132 0.229011 0.925999
-0.185736089945 -0.271163731813 -0.233228445053 0.005825 0.210878 0.977495
-0.234489560127 -0.252118796110 -0.237313136458 -0.001162 0.210402 0.977614
-0.286997675896 -0.241652965546 -0.239609241486 -0.001160 0.209925 0.977717
-0.046665232629 0.063552156091 -0.321740567684 0.924404 0.244317 0.292895
-0.058356259018 0.135706171393 -0.375504255295 0.957923 -0.046574 -0.283223
-0.068859621882 0.153582423925 -0.406619220972 0.945823 0.066169 -0.317869
-0.069577291608 -0.300028383732 -0.308790266514 0.855097 -0.499657 -0.138389
0.188923180103 0.279091089964 0.239257827401 -0.554918 -0.548171 -0.625759
0.318275928497 0.278453409672 0.235368356109 0.001378 -0.657235 -0.753685
0.248696818948 0.250189125538 0.285361230373 0.001280 -0.920595 -0.390517
0.233937919140 0.375934809446 0.327891767025 -0.001135 0.983996 0.178186
0.399233549833 0.309087514877 0.277743756771 0.999999 0.000978 -0.000978
0.399252116680 0.295028299093 0.253849416971 0.999999 0.000978 -0.000978
0.356383353472 0.320576637983 0.218044221401 -0.001255 0.347682 -0.937612
0.244126871228 0.354488164186 0.241687625647 -0.001335 0.868817 -0.495132
0.178973019123 0.358637332916 0.314118862152 -0.999999 -0.000978 0.000978
0.179044559598 0.304521322250 0.380920976400 -0.999999 -0.000978 -0.000978
0.183336138725 0.311794638634 0.392977952957 -0.707059 -0.064802 0.704179
0.247019737959 0.249120905995 0.378296315670 0.001379 -0.748548 0.663079
0.337051093578 0.318059146404 0.402872323990 0.000993 -0.016879 0.999857
0.398159831762 0.301945537329 0.388736814260 0.705680 -0.009743 0.708464
0.390818744898 0.260682135820 0.383657425642 0.601885 -0.605257 0.520959
0.295510590076 0.337851732969 0.398528188467 -0.001184 0.242814 0.970072
0.180376753211 0.350389450788 0.375710636377 -0.581764 0.754851 0.302902
0.396687507629 0.229004502296 0.171877920628 0.001374 -0.773712 0.633537
0.239538133144 0.242837682366 0.189048230648 0.001374 -0.773712 0.633537
0.185794144869 0.265258252621 0.216552734375 0.001374 -0.773712 0.633537
0.116616427898 0.299691945314 0.234380513430 -0.000987 0.010858 0.999941
0.134520858526 0.276553273201 0.225949272513 0.072632 -0.556845 0.827435
0.358513355255 0.349482595921 0.233806043863 -0.000985 0.008867 0.999960
0.476367682219 0.363967657089 0.222979187965 0.298704 0.583032 0.755546
0.397060900927 0.278422266245 0.226455003023 0.001364 -0.576843 0.816854
0.429093986750 0.192590579391 0.110627993941 0.001329 -0.875906 0.482479
0.292321741581 0.186984300613 0.100791096687 0.001329 -0.875906 0.482479
0.171542182565 0.214279741049 0.150569587946 0.001329 -0.875906 0.482479
0.259298443794 0.375211060047 0.185524001718 -0.001090 0.992658 -0.120950
0.451612055302 0.375609874725 0.203678682446 0.115362 0.982396 -0.146934
0.503438055515 0.323708891869 0.204092323780 0.985745 0.168243 -0.001129
0.440276920795 0.153760626912 0.036284338683 0.001316 -0.890978 0.454044
0.293492406607 0.155075982213 0.039245698601 0.001316 -0.890978 0.454044
0.228657707572 0.155560463667 0.040364369750 0.001316 -0.890978 0.454044
0.176734670997 0.166313603520 0.061596333981 0.001316 -0.890978 0.454044
0.073659181595 0.141544565558 0.051407836378 0.154122 -0.858681 0.488788
0.088878855109 0.342277497053 0.166453778744 -0.763317 0.615875 -0.195053
0.063612379134 0.254184484482 0.125283256173 -0.986394 0.164210 -0.007927
0.069128312171 0.292016983032 0.180886387825 -0.986201 0.163794 -0.024054
0.071363575757 0.304941773415 0.197579130530 -0.983092 0.182821 -0.010348
0.196423932910 0.352950960398 0.110028289258 -0.001294 0.912042 -0.410095
0.200688749552 0.367465585470 0.142259418964 -0.001294 0.912042 -0.410095
0.300566792488 0.345760613680 0.093749374151 -0.001294 0.912042 -0.410095
0.309571504593 0.370116978884 0.147829756141 -0.001294 0.912042 -0.410095
0.487524479628 0.328066468239 0.114501424134 0.761249 0.616103 -0.202279
0.501622915268 0.307262390852 0.115356437862 0.875310 0.462890 -0.139877
0.468938171864 0.131510138512 0.004295285325 -0.408451 -0.849515 0.333904
0.451816976070 0.135485753417 -0.004288110882 -0.366909 -0.867378 0.336205
0.416316628456 0.090255759656 -0.120328217745 0.001273 -0.927860 0.372926
0.339311808348 0.116644985974 -0.054522939026 0.001273 -0.927860 0.372926
0.183961436152 0.088209919631 -0.124647274613 0.001273 -0.927860 0.372926
0.216601043940 0.108334697783 -0.074763260782 0.001273 -0.927860 0.372926
0.147267118096 0.147810935974 0.023525740951 0.001273 -0.927860 0.372926
0.125296682119 0.103001371026 -0.084630057216 0.411879 -0.850180 0.327949
0.074133127928 0.085758395493 -0.077222503722 0.197739 -0.904979 0.376714
0.043514661491 0.120108105242 -0.130224078894 -0.986373 0.164207 -0.010192
0.040297333151 0.106927126646 -0.027383655310 -0.986373 0.164207 -0.010192
0.131653502584 0.314731806517 0.034160412848 -0.112677 0.874314 -0.472101
0.194006428123 0.318591833115 0.039806887507 -0.001328 0.877641 -0.479317
0.181390181184 0.307435661554 0.019402202219 -0.001328 0.877641 -0.479317
0.513839721680 0.257496148348 0.057863123715 0.986039 0.166415 -0.005660
0.526236176491 0.184648990631 0.062881171703 0.986039 0.166415 -0.005660
0.378003448248 0.074973940849 -0.175930693746 0.001183 -0.971313 0.237800
0.153054416180 0.085473947227 -0.131890833378 0.001183 -0.971313 0.237800
0.036657344550 0.080641746521 -0.176350682974 -0.985666 0.168616 0.005658
0.044866412878 0.128965854645 -0.200695782900 -0.985809 0.167869 0.001127
0.084560982883 0.198338851333 -0.310569703579 -0.349892 0.919353 -0.179904
0.153848946095 0.280355453491 -0.060970798135 -0.001231 0.951836 -0.306607
0.280672639608 0.271839737892 -0.087860435247 -0.001231 0.951836 -0.306607
0.298009574413 0.291992157698 -0.025525372475 -0.001231 0.951836 -0.306607
0.428460508585 0.297971874475 -0.007541853935 -0.001231 0.951836 -0.306607
0.453967332840 0.257993847132 -0.128441363573 0.118706 0.945644 -0.302766
0.494284510612 0.252836197615 -0.091422080994 0.622366 0.750271 -0.223054
0.529204905033 0.160991609097 -0.054473306984 0.985877 0.167156 -0.010234
0.535463869572 0.122439272702 -0.082239545882 0.985877 0.167156 -0.010234
0.517306923866 0.234882950783 0.008672011085 0.985941 0.166782 -0.010211
0.319458752871 0.066889807582 -0.246256574988 0.001065 -0.995698 0.092648
0.292981356382 0.070488624275 -0.207512497902 0.001065 -0.995698 0.092648
0.136548876762 0.067335955799 -0.238921940327 0.001065 -0.995698 0.092648
0.043824333698 0.051096867770 -0.206520184875 -0.145500 -0.989172 0.019174
0.117836110294 0.218950763345 -0.262614488602 -0.119525 0.965194 -0.232623
0.404425859451 0.229238301516 -0.227419123054 -0.001182 0.970765 -0.240031
0.483625411987 0.213159516454 -0.262953460217 0.359901 0.909147 -0.209581
0.526519596577 0.054474737495 -0.163763761520 -0.173561 -0.964372 0.199660
0.380171656609 0.068395361304 -0.296782612801 0.001007 -0.999513 -0.031203
0.242836877704 0.067381516099 -0.269639134407 0.001007 -0.999513 -0.031203
0.266641974449 0.066908225417 -0.253177851439 0.001007 -0.999513 -0.031203
0.118112884462 0.066435590386 -0.270598262548 0.237488 -0.970656 -0.037755
0.143662571907 0.072285138071 -0.333702534437 0.001083 -0.993508 -0.113760
0.208404362202 0.073102064431 -0.340088456869 0.001083 -0.993508 -0.113760
0.361341476440 0.072841964662 -0.336052179337 0.001083 -0.993508 -0.113760
0.531533718109 0.143885061145 -0.261124432087 0.984462 0.175594 -0.001133
0.543306887150 0.076926484704 -0.222042664886 0.985072 0.171960 0.007972
0.518423378468 0.174441218376 -0.338099122047 0.859603 0.505070 -0.077378
0.527095854282 0.154735654593 -0.374551236629 0.876621 0.478780 -0.048015
0.415142655373 0.199001491070 -0.358332306147 -0.001164 0.976541 -0.215328
0.162549853325 0.211600393057 -0.298822253942 -0.001162 0.977134 -0.212622
0.381823837757 0.245725825429 -0.169915989041 -0.001211 0.960094 -0.279674
0.290325343609 0.247127383947 -0.164686486125 -0.001211 0.960094 -0.279674
0.257920205593 0.234711706638 -0.207184180617 -0.001211 0.960094 -0.279674
0.244375303388 0.233293294907 -0.211994618177 -0.001211 0.960094 -0.279674
0.057858325541 0.208886831999 -0.082304060459 -0.986373 0.164207 -0.010192
0.168653011322 -0.344335556030 -0.279781401157 0.001055 -0.996696 -0.081212
0.134854763746 -0.342384546995 -0.285209953785 -0.229594 -0.967848 -0.102747
0.058088876307 -0.285013586283 -0.294303089380 -0.865207 -0.483880 -0.131442
0.049636971205 0.090769991279 -0.329986631870 -0.917137 0.249866 0.310527
0.037804469466 -0.104736745358 -0.256052821875 -0.662609 0.169079 0.729631
0.039868500084 -0.200527429581 -0.233704954386 -0.191560 0.202129 0.960442
0.064882785082 0.007736369967 -0.286439538002 0.173057 0.347521 0.921564
0.088407434523 -0.036838684231 -0.274023383856 0.173057 0.347521 0.921564
0.060532059520 -0.142791211605 -0.243048578501 0.175917 0.191554 0.965588
0.067674219608 -0.302017062902 -0.223650082946 -0.057136 0.048512 0.997187
0.125525221229 -0.068411387503 -0.280571073294 0.457982 0.181131 0.870313
0.109257280827 0.052942551672 -0.316193312407 0.459008 0.354183 0.814780
0.119271419942 0.145330235362 -0.363346606493 0.303890 0.424212 0.853051
0.241432249546 0.150759130716 -0.369282662868 -0.001154 0.201881 0.979409
0.415737599134 0.166025876999 -0.434149801731 -0.001294 0.909655 -0.415362
0.444087892771 0.145151823759 -0.363389343023 0.469410 0.351660 0.809932
0.398645609617 0.010151932016 -0.340147256851 -0.001154 0.201881 0.979409
0.403148293495 0.114749737084 -0.361787885427 -0.001154 0.201881 0.979409
0.373971760273 0.032215178013 -0.344719022512 -0.001154 0.201881 0.979409
0.312882035971 0.085415907204 -0.355743229389 -0.001154 0.201881 0.979409
0.270746022463 0.134141951799 -0.365836441517 -0.001154 0.201881 0.979409
0.263987749815 -0.039200194180 -0.325219303370 -0.001323 0.475046 0.879960
0.130736291409 -0.103869639337 -0.273792803288 -0.309982 0.197771 0.929945
0.270182847977 -0.340509295464 -0.324536651373 0.001055 -0.996696 -0.081212
0.171979233623 -0.338193237782 -0.354194343090 0.001055 -0.996696 -0.081212
0.414718121290 -0.345192044973 -0.265454739332 0.001055 -0.996696 -0.081212
0.401643514633 -0.336723595858 -0.368331462145 0.001055 -0.996696 -0.081212
0.321025252342 -0.345643639565 -0.233477845788 0.001365 -0.812439 0.583045
0.269239664078 -0.327522456646 -0.224014461040 -0.001048 0.076536 0.997066
0.267977297306 -0.233238279819 -0.241245508194 -0.001162 0.210402 0.977614
0.222340449691 -0.201319545507 -0.250268936157 -0.001242 0.326641 0.945148
0.278081685305 -0.064150333405 -0.311766386032 -0.001323 0.475046 0.879960
0.372209429741 -0.088388629258 -0.298640012741 -0.001323 0.475046 0.879960
0.511413872242 0.072571702302 -0.314129889011 0.085297 0.462838 0.882329
0.469805508852 -0.015157344751 -0.290776073933 -0.449781 0.306598 0.838865
0.384966462851 -0.206176340580 -0.248517394066 -0.001242 0.326641 0.945148
0.368257015944 -0.242051467299 -0.239314392209 -0.001162 0.210402 0.977614
0.382132530212 -0.299585103989 -0.226891085505 -0.001160 0.209925 0.977717
0.539354741573 -0.192060485482 -0.235286727548 0.189392 0.205285 0.960203
0.504669845104 -0.277451366186 -0.224579185247 0.054528 0.043837 0.997549
0.486603677273 -0.319501191378 -0.321927487850 0.645419 -0.752740 -0.129680
0.523050189018 -0.247440233827 -0.379502564669 0.974096 -0.177681 -0.139877
0.531267404556 -0.191022694111 -0.364831358194 0.987835 0.001119 -0.155503
0.526623129845 -0.088251031935 -0.383706569672 0.984525 0.021878 -0.173875
0.526468276978 -0.134766876698 -0.388605177402 0.984858 0.014870 -0.172722
0.148457810283 -0.188710406423 -0.254771828651 -0.008776 0.329723 0.944037
0.097321577370 0.176555812359 -0.410114765167 -0.001294 0.909655 -0.415362
0.063643619418 0.170090883970 -0.395697534084 -0.944455 0.016349 -0.328233
0.056808717549 0.132983416319 -0.375797033310 -0.958488 -0.049121 -0.280871
0.067462049425 0.061460051686 -0.420697212219 -0.974040 0.064936 -0.216862
0.046718694270 0.043362300843 -0.331590056419 -0.978530 0.008145 -0.205945
0.051765177399 -0.078057378531 -0.375463843346 -0.982616 0.050845 -0.178550
0.035529885441 -0.175512641668 -0.281452834606 -0.985676 -0.003395 -0.168617
0.051179446280 -0.197040393949 -0.381026893854 -0.987454 0.014704 -0.157223
0.049455583096 -0.226002156734 -0.359357565641 -0.976845 -0.160936 -0.140975
-0.145949870348 1.195938348770 0.293027758598 0.999999 0.000978 -0.000978
-0.145992800593 1.228422880173 0.307142883539 0.999999 0.000978 -0.000978
-0.205744504929 1.233026504517 0.327626854181 -0.001343 0.852716 0.522373
-0.202757447958 1.247263550758 0.294377475977 -0.001162 0.977614 0.210402
-0.279251605272 1.168995380402 0.339778959751 0.001116 -0.155160 0.987889
-0.167702615261 1.136118650436 0.259177953005 0.001223 -0.954848 -0.297091
-0.374164670706 1.178589820862 0.333674728870 -0.572689 -0.087995 0.815036
-0.211713120341 1.197592139244 0.204503148794 -0.001223 0.297091 -0.954848
-0.233238995075 1.158068418503 0.222964435816 0.001370 -0.790530 -0.612421
-0.243180751801 1.148041963577 0.235863775015 0.001370 -0.790530 -0.612421
-0.375556707382 1.222526669502 0.225277215242 -0.479950 0.553531 -0.680626
-0.379102528095 1.199741840363 0.267719984055 -0.999999 -0.000978 -0.000978
-0.263361185789 1.140189886093 0.250511825085 0.001315 -0.892578 -0.450890
-0.246040627360 1.144600868225 0.241819888353 0.001315 -0.892578 -0.450890
-0.338200896978 1.155854463577 0.336215168238 0.001272 -0.375114 0.926978
0.141431093216 1.144682288170 0.277577340603 -0.999999 -0.000978 -0.000978
0.217102065682 1.182983636856 0.206535711884 0.001145 -0.191268 -0.981537
0.343543291092 1.160336017609 0.221025288105 0.001370 -0.790530 -0.612421
0.337450921535 1.141034007072 0.250413149595 0.001315 -0.892578 -0.450890
0.362860083580 1.148700952530 0.240487232804 0.488872 -0.777972 -0.394670
0.292825579643 1.201438069344 0.205492854118 -0.001223 0.297091 -0.954848
0.141320735216 1.228143453598 0.265997767448 -0.999999 -0.000978 0.000978
0.158005446196 1.249625086784 0.285625517368 -0.001162 0.977614 0.210402
0.346174240112 1.233574628830 0.327922642231 -0.001343 0.852716 0.522373
0.146521568298 1.239707231522 0.289824664593 -0.599234 0.789561 0.132337
0.141360461712 1.198115587234 0.279138296843 -0.999999 -0.000978 -0.000978
0.298114717007 1.170842528343 0.339948534966 0.001116 -0.155160 0.987889
0.191618010402 1.163742780685 0.338860094547 0.001116 -0.155160 0.987889
0.181518375874 1.150558948517 0.333796828985 0.001272 -0.375114 0.926978
0.271238118410 1.133282899857 0.316709101200 0.001245 -0.944882 0.327410
0.256314218044 1.216383099556 0.338534176350 -0.001158 0.207235 0.978290
-0.495632737875 1.136096596718 0.162422537804 0.001370 -0.790530 0.612421
-0.308597236872 1.145488977432 0.174222648144 0.001370 -0.790530 0.612421
-0.549333333969 1.176563262939 0.211554974318 0.090592 -0.559368 0.823954
-0.547600567341 1.193177103996 0.217943191528 0.009685 0.095769 0.995356
-0.002483009594 1.262655735016 0.193336248398 -0.001152 0.979955 0.199215
0.231055170298 1.261666893959 0.199738532305 -0.001152 0.979955 0.199215
0.413261860609 1.265327334404 0.182864949107 -0.001152 0.979955 0.199215
0.279695808887 1.255616545677 0.206374496222 -0.001380 0.677534 0.735490
-0.515580356121 1.253390431404 0.207465618849 -0.001380 0.677534 0.735490
-0.311873942614 1.233759999275 0.213989555836 -0.001065 0.094759 0.995500
-0.404269099236 1.229987621307 0.214334577322 -0.001065 0.094759 0.995500
-0.052710983902 1.188941478729 0.215329945087 0.001223 -0.294859 0.955540
-0.031965978444 1.175703763962 0.208916783333 0.001362 -0.581753 0.813364
-0.214819729328 1.154930710793 0.186245530844 0.001370 -0.790530 0.612421
-0.308736681938 1.153889417648 0.185062006116 0.001370 -0.790530 0.612421
0.113070555031 1.143960833549 0.171531707048 0.001370 -0.790530 0.612421
0.311656713486 1.136824131012 0.161984413862 0.001370 -0.790530 0.612421
0.391523867846 1.122496485710 0.141090288758 0.001340 -0.856545 0.516071
0.284819841385 1.115422248840 0.129553541541 0.001340 -0.856545 0.516071
0.128187626600 1.128137946129 0.151056706905 0.001340 -0.856545 0.516071
0.216194853187 1.088256359100 0.084501042962 0.001340 -0.856545 0.516071
0.037787470967 1.098322033882 0.101642504334 0.001340 -0.856545 0.516071
0.255800843239 1.095225930214 0.096011132002 0.001340 -0.856545 0.516071
-0.205216541886 1.109196543694 0.120271869004 0.001340 -0.856545 0.516071
-0.089751124382 1.121437191963 0.140386253595 0.001340 -0.856545 0.516071
-0.015240460634 1.109886884689 0.121002867818 0.001340 -0.856545 0.516071
-0.513718247414 1.082774758339 0.076985314488 0.001340 -0.856545 0.516071
-0.315161466599 1.084002733231 0.078591868281 0.001340 -0.856545 0.516071
-0.512372970581 1.078986167908 0.070678383112 0.001340 -0.856545 0.516071
-0.548392117023 1.120916366577 0.146309316158 0.220724 -0.838752 0.497771
-0.588496088982 1.107514023781 0.137383982539 0.057620 -0.839004 0.541066
-0.599434137344 1.203594326973 0.145206451416 -0.981878 0.189485 -0.003445
-0.479052573442 1.259732484818 0.141791492701 -0.001087 0.992690 -0.120688
-0.245626643300 1.258717298508 0.130878448486 -0.001087 0.992690 -0.120688
-0.194577559829 1.260661125183 0.146347463131 -0.001087 0.992690 -0.120688
0.240233972669 1.262844204903 0.159605979919 -0.001087 0.992690 -0.120688
0.078356832266 1.260269165039 0.140141949058 -0.001087 0.992690 -0.120688
0.325560152531 1.260997891426 0.143455356359 -0.001087 0.992690 -0.120688
0.270689189434 1.261384963989 0.147244527936 -0.001087 0.992690 -0.120688
0.562391459942 1.216211676598 0.215864449739 0.001069 0.097281 0.995256
0.407055020332 1.215258002281 0.215828195214 -0.001065 0.094759 0.995500
0.266239225864 1.219318151474 0.215426862240 -0.001065 0.094759 0.995500
0.395697504282 1.192306041718 0.216187983751 0.001223 -0.294859 0.955540
0.591711580753 1.205040097237 0.212168067694 0.665248 0.297992 0.684577
0.443345546722 1.169115304947 0.203425422311 0.001370 -0.790530 0.612421
0.504597246647 1.169256448746 0.203503087163 0.001370 -0.790530 0.612421
0.072835564613 1.172905325890 0.206816673279 0.001362 -0.581753 0.813364
0.121022999287 1.068021178246 0.049865067005 0.001302 -0.902354 0.430994
0.314162015915 1.061091184616 0.034788921475 0.001302 -0.902354 0.430994
0.309104204178 1.054353833199 0.020666765049 0.001302 -0.902354 0.430994
0.157660529017 1.054407715797 0.021199949086 0.001302 -0.902354 0.430994
-0.169268712401 1.058159589767 0.029978821054 0.001302 -0.902354 0.430994
-0.360157608986 1.064181327820 0.043142955750 0.001302 -0.902354 0.430994
-0.244006365538 1.065408945084 0.045396562666 0.001302 -0.902354 0.430994
-0.362824320793 0.966118216515 -0.331378430128 0.001116 -0.987889 -0.155160
-0.228338956833 0.961452901363 -0.300444573164 0.001116 -0.987889 -0.155160
0.287952810526 0.965959429741 -0.324869662523 0.001116 -0.987889 -0.155160
0.379091113806 0.961762368679 -0.297292560339 0.001116 -0.987889 -0.155160
0.205556973815 0.960157573223 -0.264420002699 0.001016 -0.999131 -0.041673
0.299204438925 0.961471498013 -0.293381661177 0.001016 -0.999131 -0.041673
-0.050714243203 0.960985600948 -0.292811602354 0.001016 -0.999131 -0.041673
-0.503003299236 0.960550010204 -0.296760648489 0.001016 -0.999131 -0.041673
-0.405324876308 0.962022960186 -0.217809349298 0.001052 -0.996710 0.081042
-0.072336763144 0.961088478565 -0.234785333276 0.001052 -0.996710 0.081042
0.177238538861 0.961751401424 -0.230671942234 0.001052 -0.996710 0.081042
0.437674522400 0.962913632393 -0.220570519567 0.001052 -0.996710 0.081042
0.187568932772 0.973715066910 -0.161829233170 0.001172 -0.974073 0.226229
0.426080584526 0.972981631756 -0.166359022260 0.001172 -0.974073 0.226229
0.173943400383 0.971815407276 -0.169956788421 0.001172 -0.974073 0.226229
-0.303087890148 0.971581280231 -0.168244510889 0.001172 -0.974073 0.226229
-0.249658554792 0.972061336040 -0.166475862265 0.001172 -0.974073 0.226229
-0.444457471371 0.966345965862 -0.190051391721 0.001172 -0.974073 0.226229
-0.336533874273 0.968756198883 -0.180256381631 0.001172 -0.974073 0.226229
-0.587382078171 0.958849728107 -0.155178114772 0.293517 -0.936194 0.193360
-0.596703827381 0.982905805111 -0.090893864632 0.144037 -0.897025 0.417851
-0.272691220045 0.983786642551 -0.132738456130 0.001292 -0.911072 0.412244
-0.380786120892 1.002257347107 -0.091562792659 0.001292 -0.911072 0.412244
-0.415082991123 1.017296791077 -0.058192953467 0.001292 -0.911072 0.412244
-0.260570704937 0.994042634964 -0.110086277127 0.001292 -0.911072 0.412244
-0.171390891075 1.012668967247 -0.069143176079 0.001292 -0.911072 0.412244
-0.199261173606 1.012956738472 -0.068425133824 0.001292 -0.911072 0.412244
-0.024373024702 0.979878008366 -0.142111003399 0.001292 -0.911072 0.412244
-0.069864273071 1.027641773224 -0.036318067461 0.001292 -0.911072 0.412244
0.075331032276 1.028925299644 -0.033903196454 0.001292 -0.911072 0.412244
0.189873069525 1.020333528519 -0.053244512528 0.001292 -0.911072 0.412244
0.246860936284 1.005926132202 -0.085282102227 0.001292 -0.911072 0.412244
0.197884425521 1.012874960899 -0.069767244160 0.001292 -0.911072 0.412244
0.111167386174 1.011300683022 -0.072996050119 0.001292 -0.911072 0.412244
0.106274783611 1.033419132233 -0.024052619934 0.001292 -0.911072 0.412244
0.389551281929 1.043343067169 -0.002928034402 0.001292 -0.911072 0.412244
0.373069405556 1.044415354729 -0.000507918885 0.001292 -0.911072 0.412244
0.440276920795 1.023290753365 -0.047434668988 0.001292 -0.911072 0.412244
0.462884068489 1.000828385353 -0.097190842032 0.001292 -0.911072 0.412244
0.621271491051 0.951291263103 -0.280742347240 0.142890 -0.977868 -0.152831
0.582687258720 0.963147282600 -0.143375515938 -0.300466 -0.870893 0.388928
0.552636682987 1.012337923050 -0.058082662523 -0.337839 -0.859254 0.384119
0.576705574989 1.068845510483 0.074130326509 -0.171953 -0.829862 0.530812
0.607717514038 1.139759659767 0.155818477273 0.981810 0.187957 -0.026851
0.600283920765 1.183236479759 0.196041867137 0.977116 0.212315 -0.012903
0.555581212044 1.248713850975 0.126596882939 0.497247 0.805445 -0.322496
0.560524404049 1.203383445740 0.019356776029 0.401125 0.853359 -0.332981
0.185655474663 1.129464745522 -0.208390951157 -0.001263 0.933019 -0.359825
0.286140501499 1.178900480270 -0.080364063382 -0.001263 0.933019 -0.359825
0.315321743488 1.148323535919 -0.159864589572 -0.001263 0.933019 -0.359825
0.154621690512 1.143085360527 -0.172915309668 -0.001263 0.933019 -0.359825
0.369350224733 1.130157589912 -0.207222342491 -0.001263 0.933019 -0.359825
0.165405511856 1.116218805313 -0.242717534304 -0.001263 0.933019 -0.359825
0.526416718960 1.157833814621 -0.135893195868 -0.001263 0.933019 -0.359825
0.177186369896 1.119356870651 -0.234609156847 -0.001263 0.933019 -0.359825
0.443557798862 1.111047029495 -0.257101893425 -0.001263 0.933019 -0.359825
0.454428553581 1.110601186752 -0.258296966553 -0.001263 0.933019 -0.359825
0.452738285065 1.224220395088 0.036747615784 -0.001263 0.933019 -0.359825
0.517208576202 1.199453711510 -0.027785910293 -0.001263 0.933019 -0.359825
0.049187123775 1.183067798615 -0.068729311228 -0.001263 0.933019 -0.359825
0.423431217670 1.256198644638 0.119887456298 -0.001263 0.933019 -0.359825
0.332539290190 1.205300331116 -0.011970162392 -0.001263 0.933019 -0.359825
0.053456529975 1.128561139107 -0.210283264518 -0.001263 0.933019 -0.359825
0.063005924225 1.241884827614 0.083955124021 -0.001263 0.933019 -0.359825
0.135233730078 1.235844492912 0.068022191525 -0.001263 0.933019 -0.359825
0.366320818663 1.234266757965 0.063132233918 -0.001263 0.933019 -0.359825
0.490468472242 1.256014704704 0.119179747999 -0.001263 0.933019 -0.359825
0.031410932541 1.235113620758 0.066480629146 -0.001263 0.933019 -0.359825
0.316345870495 1.206615328789 -0.008499711752 -0.001263 0.933019 -0.359825
0.278999119997 1.190876126289 -0.049242272973 -0.001263 0.933019 -0.359825
0.045513529330 1.133556962013 -0.197283521295 -0.001263 0.933019 -0.359825
-0.434795171022 1.117276668549 -0.237910330296 -0.001263 0.933019 -0.359825
-0.275561541319 1.156793475151 -0.135842427611 -0.001263 0.933019 -0.359825
-0.044441588223 1.204229474068 -0.013456936926 -0.001263 0.933019 -0.359825
-0.239157795906 1.113039970398 -0.249583601952 -0.001263 0.933019 -0.359825
-0.159223034978 1.160871744156 -0.125651732087 -0.001263 0.933019 -0.359825
-0.318398475647 1.153644323349 -0.143872722983 -0.001263 0.933019 -0.359825
-0.021324366331 1.149304509163 -0.156161531806 -0.001263 0.933019 -0.359825
-0.352801740170 1.128037452698 -0.210249125957 -0.001263 0.933019 -0.359825
-0.421731054783 1.129698038101 -0.205700278282 -0.001263 0.933019 -0.359825
-0.357434034348 1.109854936600 -0.257448077202 -0.001263 0.933019 -0.359825
-0.269513636827 1.111382365227 -0.253783583641 -0.001263 0.933019 -0.359825
-0.214101418853 1.158423542976 -0.131820678711 -0.001263 0.933019 -0.359825
-0.133764803410 1.221198558807 0.030913904309 -0.001263 0.933019 -0.359825
-0.427061349154 1.255821704865 0.121827766299 -0.001263 0.933019 -0.359825
-0.300682723522 1.203942537308 -0.013322666287 -0.001263 0.933019 -0.359825
-0.483529925346 1.213040471077 0.010930076241 -0.001263 0.933019 -0.359825
-0.324454218149 1.207018852234 -0.005252480507 -0.001263 0.933019 -0.359825
-0.189265072346 1.256843447685 0.123664580286 -0.001263 0.933019 -0.359825
-0.302261888981 1.216779470444 0.020017005503 -0.001263 0.933019 -0.359825
-0.255918890238 1.250618100166 0.107727795839 -0.001263 0.933019 -0.359825
-0.377795994282 1.193507313728 -0.040155142546 -0.001263 0.933019 -0.359825
-0.408661782742 1.238814830780 0.077602125704 -0.001263 0.933019 -0.359825
-0.417410194874 1.233099818230 0.062791898847 -0.001263 0.933019 -0.359825
-0.515608072281 1.188459396362 -0.052790507674 -0.001263 0.933019 -0.359825
-0.553677916527 1.120359539986 -0.205633163452 -0.401770 0.851628 -0.336618
0.348152697086 0.539952278137 -0.373890966177 0.001135 -0.983996 -0.178186
0.410323739052 0.522922813892 -0.278985470533 0.001135 -0.983996 -0.178186
0.363081485033 0.523642599583 -0.283322781324 0.001135 -0.983996 -0.178186
0.163865178823 0.537056386471 -0.359176129103 0.001135 -0.983996 -0.178186
0.108965292573 0.528949975967 -0.314618438482 0.001135 -0.983996 -0.178186
0.044437002391 0.532374382019 -0.334083050489 0.001135 -0.983996 -0.178186
0.264283865690 0.517990052700 -0.252697110176 0.001135 -0.983996 -0.178186
-0.022586585954 0.527766525745 -0.309020280838 0.001135 -0.983996 -0.178186
-0.307297378778 0.537392139435 -0.364496827126 0.001135 -0.983996 -0.178186
-0.127279356122 0.522123277187 -0.278493076563 0.001135 -0.983996 -0.178186
-0.175765812397 0.526536822319 -0.303326725960 0.001135 -0.983996 -0.178186
-0.299152493477 0.513346970081 -0.231077998877 0.001135 -0.983996 -0.178186
-0.460287123919 0.533964157104 -0.346608608961 0.001135 -0.983996 -0.178186
-0.364622622728 0.521192967892 -0.275074124336 0.001135 -0.983996 -0.178186
-0.201663643122 0.518922805786 -0.261288374662 0.001135 -0.983996 -0.178186
-0.520388424397 0.537154078484 -0.364741504192 0.001135 -0.983996 -0.178186
-0.568162679672 0.534126520157 -0.304053604603 -0.208349 -0.959468 -0.189770
-0.614472866058 0.569481790066 -0.292886257172 -0.844144 -0.502288 -0.187421
-0.615928113461 0.598314046860 -0.366877913475 -0.832406 -0.522323 -0.185146
-0.639500617981 0.695672869682 -0.292367726564 -0.987615 0.019320 -0.155700
-0.637684226036 0.761056542397 -0.291773706675 -0.985089 0.035969 -0.168243
-0.618972122669 0.903306722641 -0.347234010696 -0.979973 0.029482 -0.196938
0.260318458080 0.514848053455 -0.223732531071 0.001331 -0.869469 0.493986
