0.441012322903 -0.515565276146 -0.273206859827 0.000978 0.000978 -0.999999
0.291054815054 -0.480335116386 -0.273147881031 0.000978 0.000978 -0.999999
0.439879626036 -0.397284477949 -0.273008763790 0.000978 0.000978 -0.999999
0.419176846743 -0.493940114975 -0.273170650005 0.000978 0.000978 -0.999999
0.397506266832 -0.569844245911 -0.270816177130 0.001381 0.722131 0.691755
0.364432603121 -0.574976384640 -0.265478104353 0.001381 0.722131 0.691755
0.398875474930 -0.582899570465 -0.248204454780 0.001223 0.954848 0.297091
0.229531481862 -0.598885953426 -0.231765568256 -0.085360 0.788492 0.609092
0.162148505449 -0.599838197231 -0.196701422334 0.000991 0.999889 -0.014865
0.149340063334 -0.602574944496 -0.148971304297 0.001009 0.999445 0.033281
0.470805794001 -0.601960122585 -0.166881546378 0.001009 0.999445 0.033281
0.111409470439 -0.578901171684 -0.211550965905 -0.999999 0.000978 0.000978
0.111409470439 -0.407846629620 -0.182834729552 -0.999999 0.000978 0.000978
0.111409470439 -0.427884310484 -0.133266910911 -0.999999 0.000978 0.000978
0.179708957672 -0.536188125610 -0.273221790791 -0.000979 0.000979 -0.999999
-0.483494400978 -0.599859237671 -0.193581596017 0.001077 0.994066 0.108776
0.235163643956 -0.616849958897 -0.126316711307 0.636202 -0.749645 -0.182429
0.269960612059 -0.938450634480 -0.038913704455 0.001357 0.563126 -0.826370
0.255349040031 -0.777473270893 -0.002910798416 0.001083 -0.115898 -0.993261
0.227903068066 -0.653238654137 -0.063276052475 0.572058 -0.688805 -0.445305
0.225067123771 -0.987629830837 -0.134046882391 0.596125 0.772639 -0.218321
0.221012398601 -0.912332236767 -0.085069403052 0.999999 0.000978 0.000978
0.221012398601 -0.871001064777 -0.070032522082 0.999999 0.000978 0.000978
0.221012398601 -0.831607699394 -0.014210986905 0.999999 0.000978 0.000978
0.221012398601 -0.772077381611 -0.036210067570 0.999999 0.000978 0.000978
0.221012398601 -0.760099411011 -0.092096447945 0.999999 0.000978 0.000978
-0.221012458205 -0.689466118813 -0.135326087475 -0.999999 0.000978 0.000978
-0.221012458205 -0.644373595715 -0.098738439381 -0.999999 0.000978 0.000978
-0.249072894454 -0.833528816700 -0.002786596073 0.001083 0.115898 -0.993261
-0.256518632174 -0.769090473652 -0.003887087805 0.001083 -0.115898 -0.993261
-0.283518284559 -0.653958022594 -0.052255105227 0.001357 -0.563126 -0.826370
-0.251761287451 -0.601699113846 -0.164800450206 0.017770 -0.974990 -0.221535
-0.104967944324 -0.459828406572 -0.065343573689 0.000978 0.999999 0.000978
-0.101000182331 -0.459828406572 -0.111474491656 0.000978 0.999999 0.000978
0.041643776000 -0.459828406572 -0.027943786234 0.000978 0.999999 0.000978
0.049735054374 -0.459828406572 0.021634941921 0.000978 0.999999 0.000978
0.114805772901 -0.477770507336 -0.015645880252 0.999999 0.000978 0.000978
0.273142963648 -0.441475719213 0.044278398156 0.000978 0.000978 -0.999999
0.304062694311 -0.425154805183 -0.043232291937 -0.999889 0.014865 0.000991
0.302225261927 -0.554159462452 -0.010478504002 -0.999889 0.014865 0.000991
0.250504285097 -0.484220534563 -0.114607051015 0.000978 0.000978 0.999999
0.288349181414 -0.547275543213 -0.114607051015 0.000978 0.000978 0.999999
0.116314291954 -0.521141886711 -0.114607051015 0.000978 0.000978 0.999999
0.288527429104 -0.415967702866 -0.114607051015 0.000978 0.000978 0.999999
0.275807559490 -0.381157368422 -0.021646060050 -0.332624 -0.943059 0.001246
0.296559900045 -0.399158418179 -0.038846552372 0.934187 0.356781 0.001261
0.315976887941 -0.442779093981 0.069208689034 0.000978 0.000978 -0.999999
0.315955966711 -0.498245418072 0.084084659815 0.998945 -0.045917 0.001020
0.317949950695 -0.454409807920 0.104890152812 0.998945 -0.045917 0.001020
0.339671045542 -0.391756653786 0.122583001852 -0.003008 0.025067 -0.999681
0.356940090656 -0.514523625374 0.119524270296 -0.003008 0.025067 -0.999681
0.348649740219 -0.646706819534 0.116320170462 -0.003008 0.025067 -0.999681
0.383218437433 -0.555469691753 0.118476271629 -0.001001 0.025017 -0.999686
0.414253413677 -0.636576414108 0.116506598890 -0.001001 0.025017 -0.999686
0.392279565334 -0.877912223339 0.103482194245 -0.001048 0.076536 -0.997066
0.387183517218 -0.945751309395 0.101730071008 0.425970 -0.036054 -0.904019
0.442816019058 -0.967482984066 0.107945851982 -0.506949 0.126374 -0.852662
0.506673693657 -0.822238683701 0.043253868818 -0.996463 0.078810 0.029149
0.513614833355 -0.733264267445 0.055803641677 -0.994150 0.090377 0.059136
0.482947796583 -0.516090154648 -0.249579474330 -0.977122 0.022449 0.211493
0.501198470592 -0.345007270575 -0.206384003162 -0.944481 0.047545 0.325107
0.504536271095 -0.480043143034 -0.166545629501 -0.986655 0.050090 0.154929
0.504630565643 -0.565970659256 -0.144643649459 -0.980964 0.046261 0.188601
0.519510507584 -0.323589056730 -0.110595360398 -0.995685 0.047101 0.079961
0.506364703178 -0.590641856194 -0.122196108103 -0.993937 0.043311 0.101060
0.515282630920 -0.484265297651 -0.074934311211 -0.997549 0.043837 0.054528
0.525652170181 -0.302327871323 -0.032294426113 -0.998472 0.034647 0.043047
0.522687613964 -0.414046049118 0.029428675771 -0.999296 0.035799 -0.011251
0.522306144238 -0.424384146929 0.030644794926 -0.999296 0.035799 -0.011251
0.519264936447 -0.512525975704 0.032838132232 -0.999388 0.027619 0.021481
0.517655253410 -0.580268740654 0.043042384088 -0.999388 0.027619 0.021481
0.514343321323 -0.609295010567 0.096323646605 -0.985089 0.035969 -0.168243
0.494491726160 -0.453199207783 0.123675629497 -0.605428 0.046571 -0.794536
0.437095701694 -0.608213126659 0.118278205395 0.064937 0.028743 -0.997475
0.442678391933 -0.509894132614 0.121519945562 0.064937 0.028743 -0.997475
-0.089398793876 -0.363239765167 0.127426072955 0.002979 0.014894 -0.999885
-0.034255072474 -0.377626329660 0.127265647054 0.001003 0.027071 -0.999633
-0.005634559318 -0.602675616741 0.121208406985 0.001003 0.027071 -0.999633
-0.139182522893 -0.497437834740 0.123989962041 0.001003 0.027071 -0.999633
-0.032605245709 -0.617933273315 0.120767027140 0.001003 0.027071 -0.999633
-0.186795085669 -0.564615488052 0.122058525681 0.003020 0.029192 -0.999569
-0.226232305169 -0.580557286739 0.121495231986 0.003020 0.029192 -0.999569
-0.162391409278 -0.642763316631 0.119916453958 0.001001 0.025017 -0.999686
-0.238662004471 -0.580801606178 0.121463023126 0.001001 0.025017 -0.999686
-0.068983405828 -0.695752203465 0.118605785072 0.001001 0.025017 -0.999686
-0.260105371475 -0.869560301304 0.107286460698 0.001050 0.078785 -0.996891
-0.252550959587 -0.905740976334 0.104428447783 0.001050 0.078785 -0.996891
-0.225701436400 -0.768217384815 0.115315347910 0.001050 0.078785 -0.996891
-0.114152461290 -0.774473547935 0.114867828786 0.001050 0.078785 -0.996891
-0.145482033491 -0.887254953384 0.105919763446 0.001050 0.078785 -0.996891
-0.123388625681 -0.927429020405 0.102721244097 0.001050 0.078785 -0.996891
-0.240627065301 -0.967567384243 0.099525563419 0.001050 0.078785 -0.996891
-0.241282090545 -0.970926105976 0.099227994680 0.001120 0.160219 -0.987081
-0.003396414919 -1.014971613884 0.091847583652 -0.003381 0.165677 -0.986174
0.303610295057 -1.053852081299 0.082559168339 -0.046194 0.183591 -0.981917
0.309123098850 -1.070562005043 0.071281075478 -0.134846 0.582359 -0.801670
0.221252575517 -0.756209850311 0.100580886006 0.001046 -0.074296 0.997236
0.125494047999 -0.819525897503 0.095946654677 0.001046 -0.074296 0.997236
0.145279020071 -0.793930053711 0.097827918828 0.001046 -0.074296 0.997236
0.284373968840 -0.750675797462 0.100963227451 0.001046 -0.074296 0.997236
0.300399184227 -0.526696622372 0.106668651104 0.001001 -0.023017 0.999735
0.237224519253 -0.542526602745 0.106318607926 0.001001 -0.023017 0.999735
0.294575542212 -0.554986178875 0.105998672545 0.001001 -0.023017 0.999735
0.210829049349 -0.698117792606 0.102631434798 0.001001 -0.023017 0.999735
0.042423970997 -0.435153335333 0.109331585467 0.001003 -0.025067 0.999685
0.010658873245 -0.373106062412 0.110948644578 0.001003 -0.025067 0.999685
0.199303492904 -0.496649771929 0.107513584197 0.001003 -0.025067 0.999685
0.089647859335 -0.529781341553 0.106867507100 0.001003 -0.025067 0.999685
0.067624777555 -0.564144134521 0.106039978564 0.001003 -0.025067 0.999685
0.082541182637 -0.499023050070 0.107654288411 0.001003 -0.025067 0.999685
0.185998573899 -0.382800936699 0.110530741513 0.001005 -0.029133 0.999575
0.297530204058 -0.379469662905 0.110287681222 0.017217 -0.021269 0.999626
0.240464478731 -0.354814082384 0.115981325507 0.000978 0.999999 0.000978
0.255988210440 -0.374152928591 0.063344247639 0.332624 0.943059 0.001246
0.222942680120 -0.372626572847 0.014046706259 0.000978 -0.999999 0.000978
0.249653339386 -0.372626572847 -0.069503769279 0.000978 -0.999999 0.000978
0.114336967468 -0.372626572847 -0.075407788157 0.000978 0.999999 0.000978
0.013809276745 -0.372626572847 -0.032537348568 0.000978 0.999999 0.000978
-0.013238057494 -0.372626572847 -0.015031181276 0.000978 -0.999999 0.000978
-0.122761942446 -0.372626572847 -0.053477708250 0.000978 -0.999999 0.000978
-0.077640496194 -0.377194523811 -0.114607051015 0.000978 0.000978 0.999999
-0.300485938787 -0.482898414135 -0.134028881788 -0.998393 -0.056668 0.001030
-0.299920558929 -0.492756694555 -0.099804863334 -0.998393 -0.056668 0.001030
-0.296448171139 -0.563663899899 -0.033616572618 -0.998513 -0.054502 -0.001028
-0.299694001675 -0.511384248734 0.051386758685 -0.998687 -0.042786 -0.028176
-0.292864084244 -0.663689374924 0.049453400075 -0.998885 -0.046292 -0.009258
-0.285247445107 -0.831294059753 0.050183773041 -0.998885 -0.046292 -0.009258
-0.280433356762 -0.933080852032 0.023126110435 -0.999217 -0.039563 -0.001014
-0.209187254310 -1.054717063904 0.072924040258 0.001116 -0.155160 0.987889
-0.187771737576 -0.942873716354 0.086793556809 0.001046 -0.074296 0.997236
-0.067054107785 -0.824685931206 0.095577023923 0.001046 -0.074296 0.997236
-0.166471198201 -0.912368953228 0.089060604572 0.001046 -0.074296 0.997236
-0.032751973718 -0.846939802170 0.093923158944 0.001046 -0.074296 0.997236
-0.248690783978 -0.878830552101 0.091517731547 -0.001046 -0.074296 0.997236
-0.202401861548 -0.886708676815 0.090955376625 -0.001046 -0.074296 0.997236
-0.150683522224 -0.779691755772 0.098876737058 -0.001046 -0.074296 0.997236
-0.132408455014 -0.844847381115 0.094074577093 -0.001046 -0.074296 0.997236
-0.201962888241 -0.668957710266 0.103328190744 -0.001001 -0.023017 0.999735
-0.310820460320 -0.472157061100 0.107960626483 -0.001001 -0.023017 0.999735
-0.285153865814 -0.635044872761 0.104099735618 -0.001001 -0.023017 0.999735
-0.247440755367 -0.614887177944 0.104594483972 -0.001001 -0.023017 0.999735
-0.283556014299 -0.679376542568 0.103046707809 -0.001001 -0.023017 0.999735
-0.089552909136 -0.394241929054 0.110280930996 -0.001003 -0.025067 0.999685
-0.214724674821 -0.504146218300 0.107298322022 -0.001003 -0.025067 0.999685
-0.081348836422 -0.502064764500 0.107579737902 -0.001003 -0.025067 0.999685
-0.078068003058 -0.500407576561 0.107627108693 -0.001003 -0.025067 0.999685
-0.004923131317 -0.599767804146 0.105250522494 -0.001003 -0.025067 0.999685
-0.021215349436 -0.639730095863 0.104216195643 -0.001003 -0.025067 0.999685
-0.119499959052 -0.533655524254 0.106718696654 -0.001003 -0.025067 0.999685
-0.222496569157 -0.393193215132 0.110208824277 -0.001005 -0.029133 0.999575
-0.128384813666 -0.354814082384 0.117262065411 0.000978 -0.999999 0.000978
-0.121709503233 -0.354814082384 0.105882249773 0.000978 0.999999 0.000978
0.104630023241 -0.354814082384 0.100011721253 0.000978 0.999999 0.000978
0.092667326331 -0.354814082384 0.123226158321 0.000978 0.999999 0.000978
-0.236270621419 -0.354814082384 0.102407380939 0.000978 0.999999 0.000978
-0.191911429167 -0.363967388868 0.069208689034 0.000978 0.000978 -0.999999
-0.209736332297 -0.372626572847 -0.026794254780 0.000978 0.999999 0.000978
-0.249057441950 -0.372626572847 -0.045901726931 0.000978 0.999999 0.000978
-0.137671321630 -0.372626572847 -0.070052355528 0.000978 0.999999 0.000978
-0.056197423488 -0.372626572847 -0.037071466446 0.000978 0.999999 0.000978
0.187235444784 -0.372626572847 0.001509625465 0.000978 0.999999 0.000978
0.178643286228 -0.372626572847 -0.019029065967 0.000978 0.999999 0.000978
0.033420413733 -0.363775998354 0.069208689034 0.000978 0.000978 -0.999999
0.190074205399 -0.428333073854 0.044278398156 0.000978 0.000978 -0.999999
0.095180422068 -0.391689240932 0.044278398156 0.000978 0.000978 -0.999999
0.030598573387 -0.407182395458 0.044278398156 0.000978 0.000978 -0.999999
0.300700783730 -0.479152321815 -0.109204962850 0.998393 -0.056668 0.001030
0.303996592760 -0.421686142683 0.049897599965 0.998393 -0.056668 0.001030
0.296109437943 -0.563870966434 -0.083643458784 0.998805 -0.048346 -0.007200
0.295373529196 -0.588202893734 0.006014613435 0.998756 -0.048543 -0.011361
0.293351769447 -0.632167160511 0.007331747562 0.998794 -0.046576 -0.015525
0.290088921785 -0.705183923244 0.009224571288 0.998687 -0.042786 -0.028176
0.284362971783 -0.840149819851 0.006759088486 0.998885 -0.046292 -0.009258
0.297002524137 -0.575957894325 0.068265482783 0.998885 -0.046292 -0.009258
0.300592541695 -0.835795164108 0.099893987179 -0.998945 0.045917 0.001020
0.306311786175 -0.710097372532 0.110536433756 -0.998945 0.045917 0.001020
0.308854907751 -0.654217958450 0.111011162400 0.998945 -0.045917 0.001020
0.318780541420 -0.560746073723 0.118510812521 -0.001001 0.025017 -0.999686
0.327811658382 -0.840260207653 0.106405273080 -0.001051 0.076696 -0.997054
0.335043460131 -0.948290705681 0.098045915365 0.001048 0.076536 -0.997066
0.485179662704 -0.995502650738 -0.156101942062 0.862308 -0.501732 0.068482
-0.107742451131 -1.074579358101 -0.252607226372 0.009023 0.921622 0.387984
-0.032932691276 -1.087450265884 -0.223495036364 0.011520 0.927973 0.372469
-0.249420925975 -1.081050753593 -0.233342647552 0.001270 0.928213 0.372047
-0.447757661343 -1.060719370842 -0.219444811344 0.755249 0.544104 0.365443
-0.476448655128 -1.065214276314 0.017339039594 0.965641 0.186352 -0.181139
-0.475249618292 -0.980780303478 0.081373862922 0.747816 0.257704 -0.611849
-0.488133966923 -0.985161364079 0.045191291720 0.973883 0.205750 -0.096017
-0.504005968571 -0.809471249580 0.084996178746 0.969098 0.115884 -0.217761
-0.514907002449 -0.445573627949 0.108005791903 0.841263 0.040192 -0.539129
-0.517537176609 -0.599788427353 0.062805533409 0.999388 0.027619 0.021481
-0.515644073486 -0.631514966488 0.012133620679 0.999388 0.027619 0.021481
-0.508659720421 -0.779438793659 0.020887078717 0.996803 0.053148 0.059656
-0.503221750259 -0.857767820358 0.021695651114 0.996463 0.078810 0.029149
-0.489470839500 -0.950314760208 -0.028352882713 0.985510 0.108705 0.130207
-0.491060137749 -0.968191683292 0.000880938955 0.979515 0.151930 0.132167
-0.483594387770 -0.985049486160 -0.113364644349 0.994399 0.096447 -0.043235
-0.488049954176 -0.964303314686 -0.086626298726 -0.522217 -0.782522 0.339040
-0.509600698948 -0.889414787292 -0.013239813037 -0.502889 -0.370295 0.781015
-0.517911374569 -0.516755878925 -0.040690418333 0.997878 0.032874 0.056204
-0.518522381783 -0.535499572754 -0.016449585557 0.998566 0.034578 0.040865
-0.526637017727 -0.292612850666 0.060549654067 0.999296 0.035799 -0.011251
-0.526795506477 -0.281414031982 0.081007048488 0.999296 0.035799 -0.011251
-0.526538491249 -0.250039428473 0.094532757998 0.985368 0.001129 -0.170436
-0.495108872652 -0.694533586502 0.109378129244 0.592798 0.046466 -0.804009
-0.496165663004 -0.493999481201 0.120061494410 0.605428 0.046571 -0.794536
-0.472397178411 -0.955037415028 0.091205604374 0.768051 0.123304 -0.628406
-0.482978403568 -0.513616502285 0.126309409738 0.212462 0.024926 -0.976851
-0.507854759693 -0.161095276475 0.123200394213 0.570621 -0.004086 -0.821204
-0.493298470974 -0.165903657675 0.129634857178 0.319205 -0.003726 -0.947678
-0.470872223377 -0.143598362803 0.130930334330 -0.121210 0.005460 -0.992612
-0.455349147320 -0.203762874007 0.128079459071 -0.176379 0.005690 -0.984306
-0.447601884604 -0.264164984226 0.128453463316 -0.050049 -0.043660 -0.997792
-0.400549978018 -0.356249451637 0.123304255307 -0.064937 0.028743 -0.997475
-0.412589550018 -0.424017965794 0.122095070779 -0.064937 0.028743 -0.997475
-0.413414567709 -0.730535507202 0.114233575761 0.001001 0.025017 -0.999686
-0.406280755997 -0.610283255577 0.117144629359 0.001001 0.025017 -0.999686
-0.373374044895 -0.760146677494 0.112592041492 0.001048 0.076536 -0.997066
-0.357853859663 -0.815821051598 0.108290478587 0.001048 0.076536 -0.997066
0.118695423007 -1.117036819458 0.042119551450 -0.026606 0.777165 -0.628734
-0.156761854887 -1.077040076256 0.075057402253 -0.001380 0.674661 -0.738126
-0.293301552534 -0.995893061161 0.086746856570 -0.998945 -0.045917 0.001020
-0.296993553638 -0.914767861366 0.079866215587 -0.998945 -0.045917 0.001020
-0.311142981052 -0.603982388973 0.090113095939 -0.998945 -0.045917 0.001020
-0.303239971399 -0.480170547962 0.123984821141 0.003014 0.025118 -0.999680
-0.273255288601 -0.428225100040 0.125417247415 0.005023 0.025117 -0.999672
-0.301460385323 -0.367705315351 0.120450355113 -0.332624 0.943059 0.001246
-0.329214602709 -0.344521611929 0.123770490289 0.003008 0.025067 -0.999681
-0.374353408813 -0.305887788534 0.124568946660 0.003008 0.025067 -0.999681
-0.271555125713 -0.379654496908 -0.058962609619 -0.332624 0.943059 0.001246
-0.116400212049 -0.372626572847 -0.014171849936 0.000978 -0.999999 0.000978
-0.143150776625 -0.372626572847 0.041676692665 0.000978 -0.999999 0.000978
-0.258798152208 -0.375145941973 -0.030079998076 0.332624 -0.943059 0.001246
-0.203993141651 -0.418846458197 0.044278398156 0.000978 0.000978 -0.999999
-0.299064099789 -0.435090959072 0.044278398156 0.000978 0.000978 -0.999999
-0.231276378036 -0.560132920742 0.008676424623 0.001339 0.512919 -0.858436
-0.292978703976 -0.544317901134 0.018148845062 0.001339 0.512919 -0.858436
-0.128149688244 -0.559966802597 0.008775917813 0.001339 0.512919 -0.858436
-0.123298011720 -0.604026615620 -0.069182068110 0.000978 0.999999 0.000978
-0.114805825055 -0.509492874146 -0.112452089787 -0.999999 0.000978 0.000978
-0.143357574940 -0.458433270454 -0.114607051015 0.000978 0.000978 0.999999
-0.247224539518 -0.485738813877 -0.114607051015 0.000978 0.000978 0.999999
-0.295016765594 -0.430231362581 -0.114607051015 0.000978 0.000978 0.999999
-0.303366154432 -0.474135398865 -0.052225328982 0.999889 0.014865 0.000991
-0.303702235222 -0.450617611408 0.005184255540 0.999889 0.014865 0.000991
-0.303347080946 -0.416918665171 -0.028019614518 0.934187 -0.356781 0.001261
-0.114805825055 -0.479290246964 -0.071644797921 -0.999999 0.000978 0.000978
-0.114805825055 -0.467909574509 -0.007888920605 -0.999999 0.000978 0.000978
-0.220612391829 -0.388426661491 0.044278398156 0.000978 0.000978 -0.999999
-0.308089703321 -0.391836345196 0.109867207706 -0.003008 -0.023063 0.999730
-0.341625690460 -0.571986138821 0.118168875575 0.003008 0.025067 -0.999681
-0.325415968895 -0.617935180664 0.117081731558 0.001001 0.025017 -0.999686
-0.300237774849 -0.873565852642 0.103840559721 0.001048 0.076536 -0.997066
-0.501495540142 -0.113256983459 0.121648162603 0.001065 -0.995500 0.094759
-0.515087783337 -0.135342240334 0.113195642829 0.937808 -0.154704 0.310777
-0.520378649235 -0.447995364666 -0.037760127336 0.998472 0.034647 0.043047
-0.511433005333 -0.597356617451 -0.076455779374 0.982174 0.029197 0.185691
-0.512047231197 -0.476347267628 -0.114714324474 0.993937 0.043311 0.101060
-0.474534034729 -0.239791467786 0.008029345423 0.000978 -0.999999 0.000978
-0.502762615681 -0.239791467786 -0.042536210269 0.000978 -0.999999 0.000978
-0.476343274117 -0.239791467786 -0.122055321932 0.000978 -0.999999 0.000978
-0.510188698769 -0.480101346970 -0.135380625725 0.995685 0.047101 0.079961
-0.491295158863 -0.441485643387 -0.221392452717 0.944481 0.047545 0.325107
-0.482232362032 -0.489738881588 -0.255581825972 0.977122 0.022449 0.211493
-0.490910530090 -0.201562121511 -0.242818415165 0.940911 -0.018996 0.338120
-0.488117039204 0.031755059958 -0.183382153511 0.000978 0.000978 -0.999999
-0.461792111397 0.220641151071 -0.183382153511 0.000978 0.000978 -0.999999
-0.413702726364 0.268505781889 -0.247623577714 -0.999371 0.001013 -0.035439
-0.412867337465 0.255462467670 -0.272105872631 -0.999999 0.000978 0.000978
-0.414194494486 0.201931864023 -0.234821140766 -0.999374 0.001010 -0.035367
-0.414469003677 0.100687712431 -0.226968258619 -0.999374 0.001010 -0.035367
-0.414062052965 0.002861946821 -0.238615542650 -0.999374 0.001010 -0.035367
-0.412961006165 0.203284054995 -0.270109027624 -0.999374 0.001010 -0.035367
-0.405905038118 -0.169505327940 -0.193654477596 -0.924985 -0.378105 -0.037941
-0.399960070848 -0.180181711912 -0.226812928915 -0.913529 -0.404087 -0.046677
-0.335633635521 -0.251693010330 -0.128411054611 -0.424733 -0.905318 0.001299
-0.438331812620 -0.239791467786 -0.092350155115 0.000978 -0.999999 0.000978
-0.415204644203 -0.239791467786 0.073949441314 0.000978 -0.999999 0.000978
-0.443861126900 -0.165641188622 0.106591805816 -0.001129 -0.170436 0.985368
-0.419721633196 -0.158970117569 0.113670691848 -0.762476 -0.098054 -0.639543
-0.363000303507 -0.235453873873 0.105439729989 -0.318631 -0.502517 -0.803711
-0.302921056747 -0.262936383486 0.109650269151 -0.061718 -0.644453 -0.762149
0.002717688680 -0.332889050245 0.124886140227 -0.003014 0.027126 -0.999627
-0.134011000395 -0.285042911768 0.121888428926 0.004907 0.000981 -0.999987
-0.256606638432 -0.261002898216 0.099193394184 -0.094759 -0.995500 0.001065
-0.174852475524 -0.268830239773 0.070846006274 -0.094759 -0.995500 0.001065
-0.274144887924 -0.259323745966 -0.012754138559 -0.094759 -0.995500 0.001065
-0.273771643639 -0.259359478951 -0.071075409651 -0.094759 -0.995500 0.001065
-0.241458669305 -0.262453198433 -0.064291231334 -0.094759 -0.995500 0.001065
-0.191051661968 -0.267279267311 -0.065932780504 -0.094759 -0.995500 0.001065
-0.222190082073 -0.264298021793 -0.245294719934 -0.094759 -0.995500 0.001065
-0.170591846108 -0.249731630087 -0.177844882011 0.999999 0.000978 0.000978
-0.170591846108 -0.236948817968 -0.047920554876 0.999999 0.000978 0.000978
-0.077593430877 -0.223635092378 0.122123785317 0.004907 -0.000981 -0.999987
0.046262882650 -0.244943484664 0.122254490852 -0.004907 0.000981 -0.999987
0.170591801405 -0.267532020807 0.079542815685 -0.999999 0.000978 0.000978
0.170591801405 -0.222702875733 -0.175321549177 -0.999999 0.000978 0.000978
0.170591801405 -0.259960293770 -0.217766448855 -0.999999 0.000978 0.000978
0.104038752615 -0.260867595673 -0.122718915343 0.999999 0.000978 0.000978
-0.140939086676 -0.195079505444 -0.141714930534 0.000978 -0.999999 0.000978
-0.114974632859 -0.231919229031 -0.272806018591 0.000978 0.000978 0.999999
-0.104038804770 -0.228185132146 -0.248494073749 -0.999999 0.000978 0.000978
0.023557104170 -0.267307788134 -0.089189000428 0.000978 0.000978 0.999999
-0.156455874443 -0.195079505444 0.049335122108 0.000978 -0.999999 0.000978
-0.119827121496 -0.195079505444 0.077722691000 0.000978 -0.999999 0.000978
0.000428229803 -0.195079505444 0.022110663354 0.000978 -0.999999 0.000978
0.022739350796 -0.195079505444 -0.019636994228 0.000978 -0.999999 0.000978
0.135626867414 -0.195079505444 -0.114029556513 0.000978 -0.999999 0.000978
-0.076212741435 -0.195079505444 0.085532285273 0.000978 -0.999999 0.000978
0.178654238582 -0.268466234207 -0.254386931658 0.094759 -0.995500 0.001065
0.212076872587 -0.265266269445 -0.203518092632 0.094759 -0.995500 0.001065
0.196945860982 -0.266714960337 -0.039267025888 0.094759 -0.995500 0.001065
0.338943004608 -0.250137060881 -0.215411707759 0.424733 -0.905318 0.001299
0.374047935009 -0.225391283631 -0.228871956468 0.789904 -0.611218 -0.049635
0.405157804489 -0.163180425763 -0.272237420082 0.913529 -0.404087 -0.046677
0.435818552971 0.022452682257 -0.183382153511 0.000978 0.000978 -0.999999
0.417688578367 0.084122166038 -0.183382153511 0.000978 0.000978 -0.999999
0.413841485977 0.127496987581 -0.244918674231 0.999374 0.001010 -0.035367
0.413172274828 0.153702437878 -0.264065235853 0.999374 0.001010 -0.035367
0.413746297359 0.233647763729 -0.247642487288 0.999374 0.001010 -0.035367
0.412924140692 0.332640558481 -0.189959421754 0.997710 0.067624 0.001040
0.412867277861 0.362045317888 0.042360536754 0.999999 0.000978 0.000978
0.513812124729 0.331023544073 -0.169988572598 -0.981833 0.017388 0.188948
0.492453873158 0.268521308899 -0.226237207651 -0.916090 0.035589 0.399389
0.486791819334 -0.190093442798 -0.253661453724 -0.940911 -0.018996 0.338120
0.503994941711 -0.245538026094 -0.207413002849 -0.945368 -0.006244 0.325946
0.498912483454 -0.021415933967 -0.216384544969 -0.941125 -0.006283 0.338001
0.489716619253 0.206474453211 -0.230737730861 -0.916295 -0.016944 0.400146
0.474481016397 -0.162257179618 -0.183382153511 0.000978 0.000978 -0.999999
0.470951884985 -0.239791467786 0.022816307843 0.000978 -0.999999 0.000978
0.445724546909 -0.239791467786 -0.114308208227 0.000978 -0.999999 0.000978
0.242799624801 -0.262324810028 -0.006508966908 0.094759 -0.995500 0.001065
0.211001947522 -0.265369176865 0.048571918160 0.094759 -0.995500 0.001065
0.516246080399 -0.150512546301 0.117279879749 -0.592312 -0.001368 -0.805708
0.524149417877 -0.244138956070 0.105875216424 -0.842882 -0.001349 -0.538096
0.475048691034 -0.240265712142 0.131354197860 0.199215 -0.001152 -0.979955
0.450290560722 -0.191333413124 0.102157980204 0.001129 -0.170436 0.985368
0.474669039249 -0.212454259396 0.098514482379 0.001129 -0.170436 0.985368
0.414579898119 -0.239791467786 -0.104481384158 0.000978 -0.999999 0.000978
0.462077289820 -0.105861864984 -0.183382153511 0.000978 0.000978 -0.999999
0.444714099169 0.315147787333 0.089405804873 0.001075 -0.994321 -0.106419
0.446444898844 0.300534248352 -0.067084178329 -0.001091 0.992091 -0.125512
0.481173425913 0.300656527281 -0.066086925566 0.001091 0.992091 -0.125512
0.443716377020 0.329613238573 0.146766081452 0.550538 0.202830 -0.809795
0.404947191477 0.652752220631 0.146899878979 0.414090 0.414090 -0.810592
0.322719156742 0.688241243362 0.131487071514 0.305890 0.952066 -0.001228
0.107966035604 0.695401608944 0.096723683178 0.000978 0.999999 0.000978
-0.014353415929 0.695401608944 0.126611799002 0.000978 0.999999 0.000978
-0.412867337465 0.417104423046 0.102977640927 -0.999999 0.000978 0.000978
-0.412867337465 0.392209440470 0.054662123322 -0.999999 0.000978 0.000978
-0.412867337465 0.353547871113 0.049661628902 -0.999999 0.000978 0.000978
-0.432085782290 0.521961152554 0.152030766010 -0.516569 0.037193 -0.855438
-0.505369365215 0.709454953671 0.157670184970 0.512788 0.020403 -0.858273
-0.521860241890 0.321817189455 -0.110499471426 0.995149 0.009683 0.097901
-0.492958426476 -0.048951134086 -0.233508214355 0.941125 -0.006283 0.338001
-0.488700717688 -0.151252597570 -0.247459739447 0.941125 -0.006283 0.338001
-0.485627710819 -0.057796493173 -0.251760870218 0.916295 -0.016944 0.400146
-0.481507956982 0.209746822715 -0.264939934015 0.638907 -0.012473 -0.769183
-0.486019045115 -0.066660672426 -0.264302641153 0.597522 -0.012420 -0.801756
-0.488393366337 0.264527797699 -0.271052986383 0.639507 0.001375 -0.768784
-0.514471948147 0.365548878908 -0.208290860057 -0.671830 -0.739720 -0.038188
-0.528167545795 0.446727782488 0.006094153970 0.999956 -0.002961 -0.008884
-0.527960956097 0.380125433207 0.037950895727 0.999940 -0.000989 -0.010880
-0.527210652828 0.476324439049 0.107830829918 0.999960 0.000985 -0.008867
-0.527694880962 0.576923727989 0.055833879858 0.999960 0.000985 -0.008867
-0.527827680111 0.610271930695 0.040895193815 0.999960 0.000985 -0.008867
-0.527966856956 0.676824092865 0.027208119631 0.999960 0.000985 -0.008867
-0.523569166660 0.754656612873 -0.036051385105 0.993691 -0.107456 0.032126
-0.479747891426 0.770442306995 0.160337388515 0.289365 -0.100820 -0.951894
-0.449126839638 0.675637125969 0.159128084779 0.002991 0.016947 -0.999852
-0.431637883186 0.664447546005 0.158814609051 -0.177024 0.073459 -0.981461
-0.417356371880 0.631681442261 0.149309784174 -0.604908 0.198558 -0.771143
-0.456869572401 0.746965348721 0.157138958573 -0.374603 -0.027220 -0.926786
-0.517698764801 0.802406787872 0.027552502230 0.993915 -0.109711 -0.009776
-0.045660264790 0.722906053066 0.158050701022 0.008130 0.203252 -0.979093
-0.032375723124 0.773174881935 0.157333657146 0.007358 -0.070423 -0.997490
-0.385638654232 0.797961354256 0.152870252728 -0.708486 -0.705724 0.001381
-0.463090538979 0.890819668770 0.151882648468 -0.038790 -0.100855 -0.994145
-0.406915962696 0.981211781502 0.135610863566 0.005439 -0.116398 -0.993188
-0.336833387613 0.902263879776 0.145037353039 0.003256 -0.116148 -0.993227
0.105600818992 0.778178036213 0.156360536814 -0.007358 -0.070423 -0.997490
0.461834430695 0.546465158463 0.157639771700 0.149923 0.014654 -0.988589
0.424294352531 0.773031175137 0.155071958899 -0.003134 -0.069985 -0.997543
0.382470697165 0.725758135319 0.158675745130 -0.001048 -0.076536 -0.997066
0.438087970018 0.793756902218 0.153559088707 -0.003152 -0.074607 -0.997208
0.455816715956 0.868593215942 0.153381586075 0.379982 -0.024640 -0.924666
0.527225136757 0.520680248737 0.107573404908 -0.999960 0.000985 -0.008867
0.527516543865 0.512097656727 0.075612500310 -0.999960 0.000985 -0.008867
0.527467191219 0.644298255444 0.083212994039 -0.999960 0.000985 -0.008867
0.528300702572 0.602185726166 -0.013847157359 -0.999960 0.000985 -0.008867
0.527558028698 0.707971990108 0.075778350234 -0.999960 0.000987 -0.008884
0.523485839367 0.743538022041 -0.062171161175 -0.990673 -0.118238 0.067729
0.526399254799 0.728243827820 -0.023439692333 -0.993915 -0.109711 -0.009776
0.517982363701 0.418008118868 0.141310229897 -0.799410 0.015187 -0.600593
0.503904163837 0.778262436390 0.148832485080 -0.520531 -0.120346 -0.845319
0.440750151873 0.968330323696 0.143089771271 0.043311 -0.101060 -0.993937
0.431710064411 0.934956967831 0.140890076756 -0.003256 -0.116148 -0.993227
0.274421185255 0.829455137253 0.151431411505 -0.003146 -0.072365 -0.997373
0.333902359009 0.804413318634 0.153119176626 -0.003171 -0.081383 -0.996678
0.019145891070 0.867942988873 0.150723338127 -0.007372 -0.072667 -0.997329
-0.127181589603 0.854908227921 0.150748178363 0.009478 -0.072666 -0.997311
-0.210856929421 0.899452865124 0.146025195718 0.007633 -0.114497 -0.993394
-0.123629286885 0.908544659615 0.145724937320 0.007633 -0.114497 -0.993394
-0.291473865509 0.989477932453 0.135130032897 0.003257 -0.114005 -0.993475
-0.322587132454 1.018906235695 0.131042242050 0.003635 -0.277438 -0.960737
-0.284919321537 1.092316985130 0.089924827218 0.000978 -0.999999 0.000978
-0.426004528999 1.092316985130 -0.013240195811 0.000978 -0.999999 0.000978
-0.488099455833 0.986149191856 0.100501142442 0.964116 -0.202765 -0.171369
-0.507120907307 0.892650723457 -0.001703970134 0.983169 -0.182408 -0.010325
-0.488926351070 0.990913987160 0.019731529057 0.983956 -0.177962 -0.012630
-0.506226897240 0.891429841518 -0.058891676366 0.978774 -0.180527 0.097018
-0.497104316950 0.930542767048 -0.083732083440 0.983393 -0.173540 0.053124
-0.492977797985 0.942806363106 -0.102216228843 0.979730 -0.167989 0.109131
-0.492842406034 0.896286845207 -0.134345322847 0.920643 -0.185260 0.343650
-0.501509606838 0.853262782097 -0.126305013895 0.933593 -0.089743 0.346916
-0.505799412727 0.817199587822 -0.124806493521 0.946861 -0.090615 0.308616
-0.481114000082 0.953244030476 -0.134774491191 0.862318 -0.207733 0.461796
-0.263405799866 1.076205492020 -0.125046789646 0.001217 -0.288352 0.957524
-0.299272894859 1.083541035652 -0.119504176080 0.001369 -0.803435 0.595391
-0.405557304621 1.092316985130 -0.107241727412 0.000978 -0.999999 0.000978
-0.357965171337 1.065995812416 -0.033362954855 0.000978 -0.999999 0.000978
-0.199098438025 1.065995812416 0.037950631231 0.000978 -0.999999 0.000978
-0.248213008046 1.070384860039 0.057388275862 -0.051231 -0.019865 0.998489
-0.071709938347 1.048713922501 0.124325804412 0.008526 -0.276480 -0.960982
-0.216363966465 1.038594245911 0.125979229808 0.008526 -0.276480 -0.960982
-0.001581379445 0.994414567947 0.136919662356 0.009814 -0.114494 -0.993375
0.077832646668 0.955314815044 0.140740334988 -0.009814 -0.114494 -0.993375
0.114387348294 1.013106226921 0.133782044053 -0.009814 -0.114494 -0.993375
0.201133906841 0.964616656303 0.138598382473 -0.007633 -0.114497 -0.993394
0.297267735004 0.956726372242 0.138880744576 -0.003257 -0.114005 -0.993475
0.346967339516 0.962822258472 0.137982800603 -0.003256 -0.116148 -0.993227
0.370801538229 0.854505240917 0.149322107434 -0.003146 -0.072365 -0.997373
0.383792996407 1.092316985130 0.050034217536 0.000978 -0.999999 0.000978
0.046179849654 1.092316985130 0.088965646923 0.000978 -0.999999 0.000978
-0.078603953123 1.065995812416 -0.021070651710 0.000978 -0.999999 0.000978
-0.128249496222 1.065995812416 -0.017336871475 0.000978 -0.999999 0.000978
-0.258841007948 1.092316985130 -0.099606439471 0.000978 -0.999999 0.000978
-0.063763275743 1.092316985130 -0.094434425235 0.000978 -0.999999 0.000978
-0.143265664577 1.070348262787 -0.130839869380 -0.001361 -0.575560 0.817758
0.148948892951 1.092316985130 -0.099661678076 0.000978 -0.999999 0.000978
0.052014242858 1.092316985130 -0.085609614849 0.000978 -0.999999 0.000978
-0.025023836643 1.081016421318 -0.041213925928 0.001116 0.987889 0.155160
0.013355314732 1.075791716576 -0.008193582296 0.001119 0.987835 0.155503
0.288064539433 1.065995812416 -0.040299475193 0.000978 -0.999999 0.000978
0.058930024505 1.065995812416 0.032224945724 0.000978 -0.999999 0.000978
-0.030602170154 1.065995812416 -0.017121493816 0.000978 -0.999999 0.000978
0.101892650127 1.075320005417 0.064349286258 0.004907 0.000981 0.999987
0.350155353546 1.065995812416 -0.025558233261 0.000978 -0.999999 0.000978
0.256250619888 1.065995812416 0.056494295597 0.000978 -0.999999 0.000978
0.282924234867 1.092316985130 -0.069150768220 0.000978 -0.999999 0.000978
0.347506493330 1.092316985130 -0.101047411561 0.000978 -0.999999 0.000978
0.372343689203 1.065995812416 -0.010456675664 0.000978 -0.999999 0.000978
0.360403627157 1.080927133560 -0.033520806581 0.768784 0.001375 -0.639507
0.497242242098 0.806732177734 -0.154398038983 -0.887714 -0.108671 0.447385
0.510917782784 0.806707441807 -0.108354941010 -0.976064 -0.092782 0.196697
0.448820441961 0.983599960804 0.141189321876 -0.338624 -0.163041 -0.926688
0.429222613573 1.021994590759 0.136047571898 0.040926 -0.264156 -0.963611
0.466214448214 1.033688902855 -0.115214779973 -0.787928 -0.448164 0.422278
0.503909826279 0.846713840961 0.136317342520 -0.804104 -0.134758 -0.579014
0.483016431332 0.979789912701 0.119025051594 -0.859392 -0.228064 -0.457638
0.483625113964 1.012940049171 0.093820638955 -0.964116 -0.202765 -0.171369
0.504288613796 0.908149063587 -0.004222047050 -0.983169 -0.182408 -0.010325
0.487462133169 0.999057352543 0.018336825073 -0.983956 -0.177962 -0.012630
0.459430277348 1.083033323288 0.063405856490 -0.749242 -0.655403 -0.095305
0.057986341417 1.087243676186 -0.024769736454 0.001116 -0.987889 -0.155160
0.007255617063 1.083509206772 -0.001176340505 0.001116 -0.987889 -0.155160
0.118671797216 1.087791442871 -0.011582158506 -0.999999 0.000978 0.000978
0.112768955529 1.081435561180 -0.043862260878 0.001116 0.987889 0.155160
0.084063455462 1.024929523468 0.131078854203 -0.008526 -0.276480 -0.960982
-0.340184658766 1.065423846245 0.117551006377 0.003635 -0.277438 -0.960737
0.513518869877 0.351473301649 -0.177097603679 -0.958029 0.219244 0.184696
0.415188848972 0.281894683838 -0.205338254571 0.999371 0.001013 -0.035439
-0.437188357115 0.181026369333 -0.183382153511 0.000978 0.000978 -0.999999
-0.451133608818 0.197415411472 -0.183382153511 0.000978 0.000978 -0.999999
-0.418758302927 0.294248074293 -0.116587258875 0.001091 0.992091 -0.125512
-0.451321572065 0.305531114340 -0.027732532471 0.001091 0.992091 -0.125512
-0.462784886360 0.300326585770 -0.068713255227 -0.001091 0.992091 -0.125512
-0.215749800205 -0.446385234594 0.125299096107 0.015252 0.027453 -0.999507
0.316830754280 -1.097690820694 -0.004452785477 -0.680775 0.722486 -0.120663
0.321747869253 -1.096144318581 -0.009028906934 0.007648 0.993114 -0.116901
0.408817291260 -1.075493574142 -0.222017332911 -0.180064 0.949057 0.258588
0.221520051360 -1.093815445900 -0.196043893695 -0.011115 0.954619 0.297624
0.004406794906 -1.096518516541 -0.200018733740 -0.019128 0.937254 0.348123
-0.459970533848 -1.098277330399 -0.067354895175 0.722974 0.688615 -0.055834
-0.359741449356 -1.089629769325 0.032889470458 -0.035239 0.970883 -0.236949
-0.328419089317 -1.055779814720 0.080353893340 -0.322453 0.656249 -0.682174
0.073825024068 -1.128926515579 0.029989818111 -0.037819 0.802610 -0.595304
0.163111701608 -1.123713612556 0.032108258456 -0.037241 0.848261 -0.528267
0.404570430517 -1.086001276970 -0.174165830016 -0.022813 0.971355 0.236535
0.028704002500 -1.104071021080 -0.178327113390 -0.029825 0.929753 0.366974
-0.046894770116 -1.101569414139 -0.183204784989 0.029825 0.929753 0.366974
-0.436217218637 -1.087467432022 -0.164947986603 0.022813 0.971355 0.236535
-0.335489004850 -1.091752529144 -0.148282587528 -0.014820 0.986131 0.165305
-0.420709788799 -1.102054357529 -0.082061290741 0.027289 0.999603 -0.007075
-0.156223416328 -1.133270144463 0.015885464847 0.045169 0.877366 -0.477692
-0.317036837339 -1.097313284874 0.020083565265 0.677056 0.724883 0.127041
-0.324194908142 -1.099963545799 -0.041394300759 -0.007648 0.993114 -0.116901
-0.375210940838 -1.099966764450 -0.039744466543 0.009572 0.996595 -0.081897
-0.389772176743 -1.093150258064 -0.135360106826 0.021311 0.948968 0.314651
-0.417913377285 -1.090936541557 -0.144606128335 0.021063 0.992177 0.123052
-0.447307348251 -0.597468018532 0.121861919761 -0.525194 -0.012214 -0.850895
-0.467437803745 -1.071556448936 0.049434874207 0.579694 0.616875 -0.532372
0.278643459082 -1.063787579536 0.079948544502 -0.899331 0.437266 0.001305
0.186330527067 -1.032065749168 0.076472289860 0.001116 -0.155160 0.987889
0.019633173943 -0.788571238518 0.098260991275 0.001046 -0.074296 0.997236
0.055858090520 -0.944212079048 0.086694091558 0.001046 -0.074296 0.997236
0.154407098889 -0.907599806786 0.089415036142 0.001046 -0.074296 0.997236
0.213607087731 -0.972370088100 0.084601446986 0.001046 -0.074296 0.997236
0.038121111691 -1.024637460709 0.077635899186 0.001116 -0.155160 0.987889
0.201424658298 -1.063171386719 0.071599707007 0.001116 -0.155160 0.987889
-0.078727357090 -1.027578949928 0.077175125480 0.001116 -0.155160 0.987889
0.054857630283 -1.072803974152 0.075976908207 0.000978 -0.999999 0.000978
0.204849466681 -1.081401944160 0.071094721556 0.001380 0.674661 -0.738126
0.472564041615 -0.981059074402 0.084542311728 -0.747816 0.257704 -0.611849
0.302039384842 -0.860212981701 0.104875281453 0.001048 0.076536 -0.997066
0.198846161366 -0.803547501564 0.112532772124 -0.001050 0.078785 -0.996891
0.144198328257 -0.851639747620 0.108752712607 -0.001050 0.078785 -0.996891
0.178637549281 -0.829864025116 0.110460177064 -0.001050 0.078785 -0.996891
0.278379678726 -0.880008995533 0.106452427804 -0.001050 0.078785 -0.996891
0.043251052499 -0.820471286774 0.111236862838 0.001050 0.078785 -0.996891
0.003435626626 -0.914141297340 0.103779166937 0.001050 0.078785 -0.996891
0.066028051078 -0.887876927853 0.105870246887 0.001050 0.078785 -0.996891
0.180478289723 -0.988125145435 0.096456788480 0.001120 0.160219 -0.987081
0.208432734013 -1.048193573952 0.086757399142 0.003381 0.165677 -0.986174
0.136905834079 -0.680696725845 0.118960656226 -0.001001 0.025017 -0.999686
0.061589092016 -0.739328861237 0.117498524487 -0.001001 0.025017 -0.999686
0.142707288265 -0.716655552387 0.118041932583 -0.001001 0.025017 -0.999686
0.132170766592 -0.645564734936 0.119877561927 -0.003020 0.029192 -0.999569
0.214787647128 -0.543441236019 0.122592486441 -0.003020 0.029192 -0.999569
0.126670584083 -0.471405953169 0.124682299793 -0.001003 0.027071 -0.999633
0.079321451485 -0.607371628284 0.121053673327 -0.001003 0.027071 -0.999633
0.151008248329 -0.498959511518 0.123950719833 -0.001003 0.027071 -0.999633
0.002584449947 -0.369879007339 0.127500072122 -0.001003 0.027071 -0.999633
0.171550467610 -0.403417617083 0.126449182630 -0.000989 0.012857 -0.999917
0.304238855839 -0.755666792393 0.106855079532 0.998945 -0.045917 0.001020
0.277455419302 -1.002397775650 0.008503513411 0.998599 -0.052667 -0.005163
0.277174979448 -1.004189014435 -0.051954109222 0.999686 -0.025017 0.001001
0.082104831934 -0.372626572847 -0.081993944943 0.000978 -0.999999 0.000978
0.185336872935 -0.372626572847 -0.114246442914 0.000978 -0.999999 0.000978
0.066692724824 -0.414232105017 -0.114607051015 0.000978 0.000978 0.999999
0.037579923868 -0.402289330959 -0.114607051015 0.000978 0.000978 0.999999
0.114805772901 -0.473888665438 -0.084580808878 0.999999 0.000978 0.000978
0.218345865607 -0.600114524364 -0.015270634554 0.001339 0.512919 -0.858436
0.121729850769 -0.604026615620 -0.081681236625 0.000978 0.999999 0.000978
0.278324544430 -0.604026615620 -0.078170761466 0.000978 0.999999 0.000978
0.186222225428 -0.504911661148 0.041751231998 0.001339 0.512919 -0.858436
-0.131859600544 -0.461982697248 0.124865822494 0.001364 -0.576843 -0.816854
-0.182223305106 -0.410064131021 0.123621009290 0.001381 0.724826 -0.688930
-0.162027254701 -0.659687101841 0.127985790372 0.270020 -0.043552 -0.961869
-0.155129611492 -0.694837868214 0.129599735141 0.150135 -0.001112 -0.988665
-0.115975961089 -0.820555806160 0.122592061758 -0.150614 0.123675 -0.980826
-0.085297621787 -0.732345521450 0.118029259145 -0.664027 0.015313 -0.747552
0.113468945026 -0.438546419144 0.122480988503 -0.999999 0.000978 0.000978
0.058622304350 -0.391697734594 0.119653597474 -0.999999 0.000978 0.000978
-0.131769254804 -0.467971473932 0.117825269699 0.999999 0.000978 0.000978
-0.045410767198 1.072472691536 0.025707129389 0.000978 0.000978 0.999999
-0.430583864450 0.783229708672 0.133449330926 0.000978 0.000978 0.999999
-0.473674237728 -0.310673296452 0.134793698788 0.000989 0.012857 -0.999917
-0.444935202599 -0.855448424816 0.118128120899 0.994066 0.108776 0.001077
-0.434644311666 -0.892023742199 0.112838901579 -0.993536 -0.113516 0.001081
0.472768217325 -0.272767871618 0.133369371295 0.999976 0.006883 0.000983
0.457298845053 -0.658653199673 0.123135514557 0.000985 -0.008867 0.999960
0.428142428398 -0.988032639027 0.105554416776 0.001114 -0.152643 0.988281
-0.234157845378 1.072733998299 0.028048215434 0.000978 0.999999 0.000978
-0.262712895870 1.072733998299 0.001653615385 0.000978 0.999999 0.000978
-0.268571555614 1.072733998299 -0.021270323545 0.000978 -0.999999 0.000978
-0.285787612200 1.072733998299 0.030163565651 0.000978 -0.999999 0.000978
0.195972815156 1.078246116638 -0.015402834862 0.999995 0.000979 -0.002938
0.232971057296 1.064225316048 0.012497349642 0.000978 0.999999 0.000978
0.308223664761 1.064225316048 -0.002565711737 0.000978 0.999999 0.000978
0.265815019608 1.083866119385 0.044502921402 -0.001362 -0.578659 -0.815569
0.353120028973 1.081949472427 0.033557031304 -0.549650 -0.613916 -0.566562
0.258165597916 1.072733998299 0.004995901138 0.000978 -0.999999 0.000978
0.191176891327 1.084090828896 0.034740183502 0.702446 -0.671016 -0.237291
-0.260575741529 -1.120618462563 -0.082898497581 0.999999 0.000978 0.000978
-0.178197711706 -1.125948190689 -0.094579510391 -0.428135 0.892068 0.144621
0.178403809667 -1.112348079681 -0.056838776916 0.430994 0.001302 -0.902354
0.206048592925 -1.115946531296 -0.054936945438 0.000978 0.000978 -0.999999
0.228275567293 1.094250082970 0.016315340996 0.000978 -0.999999 0.000978
0.251653373241 1.094250082970 0.007604730316 0.000978 -0.999999 0.000978
0.312124818563 1.083790421486 0.023280136287 0.259673 0.001197 -0.965696
0.317927181721 1.094250082970 0.011237931438 0.000978 -0.999999 0.000978
-0.219521313906 0.779917299747 0.163943752646 0.000978 0.000978 -0.999999
-0.225293964148 0.799019992352 0.156453892589 0.999999 0.000978 0.000978
-0.213363826275 0.755194604397 0.169309213758 0.000978 0.000978 -0.999999
-0.457411497831 0.926163136959 0.142707169056 0.996132 -0.087863 0.001059
-0.469303727150 0.576985180378 0.158990740776 -0.999999 0.000978 0.000978
-0.474741429090 0.443667799234 0.160258680582 0.999999 0.000978 0.000978
-0.474741429090 0.374810814857 0.156702980399 0.999999 0.000978 0.000978
0.462373554707 0.868993937969 0.153292894363 -0.997066 -0.076536 0.001048
0.469303667545 0.655470371246 0.161307379603 0.999999 0.000978 0.000978
0.469303667545 0.386208832264 0.155406087637 0.999999 0.000978 0.000978
0.448956668377 0.954914629459 0.142138108611 0.994569 0.104070 0.001073
0.034920152277 -1.120604157448 -0.059832401574 -0.972780 0.001176 0.231726
0.132966756821 -1.114537596703 -0.064695052803 0.000978 -0.999999 0.000978
0.005238942802 -1.117734909058 -0.083911426365 0.001108 0.989410 0.145143
0.000906525645 -1.121355533600 -0.026151677594 0.001108 -0.989410 -0.145143
-0.047949213535 -1.141610264778 0.002745952923 0.000978 0.000978 -0.999999
0.250719547272 -1.096148133278 -0.148856952786 -0.490829 0.001330 0.871255
-0.140388578176 -1.089250564575 -0.160081416368 -0.018902 -0.999821 0.000995
-0.238834649324 -1.096678733826 -0.150017350912 0.490829 0.001330 0.871255
-0.264684468508 -1.112798810005 -0.135437414050 0.490829 0.001330 0.871255
-0.171295866370 -1.094601511955 -0.152151569724 -0.000978 0.000978 -0.999999
0.252811670303 -1.111054420471 -0.004297301173 0.031203 -0.999513 0.001007
-0.223305106163 -1.111705064774 -0.011179180816 -0.031266 -0.999511 0.001009
-0.267915934324 -1.113061308861 -0.025889009237 -0.921899 0.001279 0.387428
-0.238569378853 -1.117816567421 -0.013079363853 0.000978 0.000978 0.999999
0.154691874981 -1.131468653679 -0.013079363853 0.000978 0.000978 0.999999
-0.500401794910 1.112579941750 -0.070981688797 0.810995 -0.140849 -0.567845
-0.507313549519 1.092035770416 -0.095546320081 0.986665 -0.162760 0.001122
-0.491869240999 1.062679648399 -0.109440356493 0.000978 0.000978 0.999999
-0.492694407701 1.128162145615 -0.100420765579 0.218402 -0.265700 0.938991
-0.391562402248 1.115872859955 -0.072847723961 -0.000978 0.999999 -0.000978
-0.531837224960 0.915858089924 -0.069458819926 0.709605 -0.117524 -0.694729
-0.189962968230 1.141756415367 -0.102570652962 0.001363 -0.573736 0.819039
-0.213441923261 1.121414780617 -0.118442751467 0.016548 -0.352609 0.935624
-0.158962830901 1.142421841621 -0.113044589758 0.021028 -0.992741 -0.118421
-0.111061751842 1.118409037590 -0.114447891712 -0.007913 0.986817 0.161644
0.115880087018 1.116765022278 -0.104684174061 0.007913 0.986817 0.161644
0.208234459162 1.118024230003 -0.111099645495 0.009350 0.998323 0.057136
0.393769562244 1.115868330002 -0.082796536386 0.000978 0.999999 -0.000978
0.476854890585 1.074499964714 -0.101792342961 0.978290 0.207235 0.001158
0.525544226170 0.900159001350 -0.069262832403 0.000978 0.000978 -0.999999
0.169601187110 1.125920295715 -0.075128011405 0.285453 0.001215 -0.958392
0.331286579370 1.119296908379 -0.069613851607 0.002938 0.000979 -0.999995
0.393516302109 1.135951280594 -0.069430701435 0.002938 0.000979 -0.999995
-0.000286725350 1.124959945679 -0.148376345634 0.001257 -0.350710 0.936483
0.505520105362 0.960063040257 -0.109440356493 0.000978 0.000978 0.999999
0.526236832142 0.851432204247 -0.106577359140 -0.483732 0.441098 0.755934
0.454817861319 0.325690925121 0.159758120775 0.978551 -0.027149 0.204209
0.438930869102 0.191357970238 0.218278080225 0.978551 -0.027149 0.204209
0.414496093988 0.106369301677 0.324350535870 0.978551 -0.027149 0.204209
0.409990698099 0.014071762562 0.333785891533 0.978551 -0.027149 0.204209
0.449165463448 -0.106416791677 0.143902629614 0.976571 -0.020123 0.214254
0.429420769215 0.002434879541 0.243767514825 0.976571 -0.020123 0.214254
0.438183844090 -0.092985510826 0.195067942142 0.976571 -0.020123 0.214254
0.434233218431 0.116895958781 0.232528343797 0.976571 -0.020123 0.214254
0.448331356049 -0.068310886621 0.151235088706 0.976571 -0.020123 0.214254
0.429851919413 0.082425504923 0.249240532517 0.976571 -0.020123 0.214254
-0.416221976280 0.194963723421 0.327769190073 0.978551 0.027149 -0.204209
-0.417327612638 0.068456560373 0.305749446154 0.978551 0.027149 -0.204209
