-0.150321006775 0.949103951454 -0.248483866453 0.001359 -0.822094 0.569351
-0.007744610310 0.938219070435 -0.264175772667 0.001359 -0.822094 0.569351
0.506827950478 0.973751485348 -0.212951511145 0.001359 -0.822094 0.569351
-0.223507523537 1.017970323563 -0.149204850197 0.001359 -0.822094 0.569351
0.250456929207 0.955028295517 -0.239943206310 0.001359 -0.822094 0.569351
0.146380484104 0.961181342602 -0.231072857976 0.001359 -0.822094 0.569351
0.450606316328 0.998046159744 -0.177927881479 0.001359 -0.822094 0.569351
-0.054284274578 1.008968353271 -0.162182241678 0.001359 -0.822094 0.569351
0.494013816118 0.945209622383 -0.254097998142 0.001359 -0.822094 0.569351
0.202606320381 1.000985980034 -0.173689663410 0.001359 -0.822094 0.569351
0.363485068083 1.106654167175 -0.021356314421 0.001359 -0.822094 0.569351
0.696687221527 1.123365998268 0.002735704184 0.001359 -0.822094 0.569351
-0.311359703541 0.942409038544 -0.258135437965 0.001359 -0.822094 0.569351
0.491420805454 1.083765864372 -0.054352626204 0.001359 -0.822094 0.569351
-0.071007609367 0.987899065018 -0.192556083202 0.001359 -0.822094 0.569351
0.415553212166 1.018851518631 -0.147934511304 0.001359 -0.822094 0.569351
-0.187568962574 0.975535392761 -0.210379794240 0.001359 -0.822094 0.569351
0.492057085037 1.097370147705 -0.034740433097 0.001359 -0.822094 0.569351
-0.246945083141 0.982850551605 -0.199834108353 0.001359 -0.822094 0.569351
0.148245215416 1.031580924988 -0.129583463073 0.001359 -0.822094 0.569351
-0.719226539135 0.938424885273 -0.263879060745 0.001359 -0.822094 0.569351
0.568377315998 1.065107584000 -0.081250786781 0.001359 -0.822094 0.569351
0.534078598022 1.142445921898 0.030241727829 0.001359 -0.822094 0.569351
0.672599196434 1.046595931053 -0.107937499881 0.001359 -0.822094 0.569351
-0.639088630676 0.949921131134 -0.247305810452 0.001359 -0.822094 0.569351
0.544566273689 1.036140680313 -0.123010039330 0.001359 -0.822094 0.569351
0.383495271206 0.950281262398 -0.246786668897 0.001359 -0.822094 0.569351
0.130837023258 1.060312747955 -0.088163077831 0.001359 -0.822094 0.569351
0.451843351126 1.081658720970 -0.057390391827 0.001359 -0.822094 0.569351
0.551448583603 1.022992968559 -0.141964092851 0.001359 -0.822094 0.569351
0.679474473000 1.079317569733 -0.060765445232 0.001359 -0.822094 0.569351
0.534538507462 0.944611787796 -0.254959881306 0.001359 -0.822094 0.569351
-0.186035215855 0.934713840485 -0.269228965044 0.001359 -0.822094 0.569351
-0.204726517200 0.988717019558 -0.191376894712 0.001359 -0.822094 0.569351
0.420605063438 0.994488894939 -0.183056086302 0.001359 -0.822094 0.569351
0.124781966209 0.991876542568 -0.186822101474 0.001359 -0.822094 0.569351
0.482770502567 1.154885768890 0.048175156116 0.001359 -0.822094 0.569351
-0.250994563103 1.127623081207 0.008860543370 -0.001359 -0.822094 0.569351
-0.537272453308 1.060212016106 -0.088318511844 -0.001359 -0.822094 0.569351
-0.674008250237 0.967466354370 -0.222014173865 -0.001359 -0.822094 0.569351
-0.334216117859 1.133745074272 0.017683789134 -0.001359 -0.822094 0.569351
-0.708153545856 1.142722010612 0.030616074800 -0.001359 -0.822094 0.569351
-0.172179996967 1.076152801514 -0.065332055092 -0.001359 -0.822094 0.569351
-0.513235986233 1.112407565117 -0.013078205287 -0.001359 -0.822094 0.569351
0.022885739803 1.115510344505 -0.008593991399 -0.001359 -0.822094 0.569351
0.330799579620 1.178159952164 0.081722103059 -0.001359 -0.822094 0.569351
-0.451693356037 1.161675572395 0.057943098247 -0.001359 -0.822094 0.569351
-0.265309423208 1.115065813065 -0.009240925312 -0.001359 -0.822094 0.569351
-0.090535104275 1.083434343338 -0.054834067822 -0.001359 -0.822094 0.569351
-0.592613995075 1.175741195679 0.078215509653 -0.001359 -0.822094 0.569351
-0.188259631395 1.160779356956 0.056656748056 -0.001359 -0.822094 0.569351
0.122191563249 1.167487621307 0.066333428025 -0.001359 -0.822094 0.569351
-0.306988328695 1.130992412567 0.013716407120 -0.001359 -0.822094 0.569351
0.007315605879 1.142334699631 0.030072875321 -0.001359 -0.822094 0.569351
-0.176061004400 1.088563323021 -0.047442287207 -0.001359 -0.822094 0.569351
0.467299103737 1.196981072426 0.108855493367 -0.001359 -0.822094 0.569351
-0.178446769714 1.044196724892 -0.111396715045 -0.001359 -0.822094 0.569351
-0.237373858690 1.112780451775 -0.012534640729 -0.001359 -0.822094 0.569351
0.003845885396 1.176638364792 0.079521581531 -0.001359 -0.822094 0.569351
-0.125594198704 1.082323908806 -0.056435361505 -0.001359 -0.822094 0.569351
0.132000565529 1.132628083229 0.016083680093 -0.001359 -0.822094 0.569351
-0.219252496958 1.148426532745 0.038849592209 -0.001359 -0.822094 0.569351
0.241828203201 1.138896942139 0.025122456253 -0.001359 -0.822094 0.569351
-0.581161379814 1.129532814026 0.011606559157 -0.001359 -0.822094 0.569351
-0.283976614475 1.155624151230 0.049223523587 -0.001359 -0.822094 0.569351
0.301719933748 1.151768088341 0.043677411973 -0.001359 -0.822094 0.569351
-0.641685187817 1.033230185509 -0.127214923501 -0.001359 -0.822094 0.569351
-0.432998180389 1.024209976196 -0.140213087201 -0.001359 -0.822094 0.569351
-0.409213364124 1.177888035774 0.081314206123 -0.001359 -0.822094 0.569351
-0.533941447735 1.186469912529 0.093682333827 -0.001359 -0.822094 0.569351
0.258500516415 1.209595799446 0.129842311144 -0.001339 -0.858436 0.512919
-0.367679357529 1.235113143921 0.172475710511 -0.001339 -0.858436 0.512919
-0.474245846272 1.226849198341 0.158661007881 -0.001339 -0.858436 0.512919
-0.454857766628 1.206484436989 0.124624565244 -0.001339 -0.858436 0.512919
-0.125955328345 1.232090353966 0.167429670691 -0.001339 -0.858436 0.512919
-0.008137106895 1.208708763123 0.128353372216 -0.001339 -0.858436 0.512919
-0.176795184612 1.213609576225 0.136540114880 -0.001339 -0.858436 0.512919
-0.524860441685 1.244501590729 0.188163459301 -0.001339 -0.858436 0.512919
-0.028402745724 1.247769594193 0.193628340960 -0.001339 -0.858436 0.512919
0.617831707001 1.219501256943 0.146397426724 -0.001339 -0.858436 0.512919
-0.094011664391 1.233295798302 0.169444903731 -0.001339 -0.858436 0.512919
-0.015910506248 1.252110004425 0.200880378485 -0.001339 -0.858436 0.512919
0.545345306396 1.238819122314 0.178674146533 -0.001339 -0.858436 0.512919
0.433230459690 1.256075739861 0.207507207990 -0.001339 -0.858436 0.512919
0.241231739521 1.241814970970 0.183679372072 -0.001339 -0.858436 0.512919
-0.444361925125 1.251754283905 0.200285673141 -0.001339 -0.858436 0.512919
-0.553313434124 -1.939514756203 -0.165427893400 -0.141454 -0.893015 0.427218
-0.487865597010 -1.963916659355 -0.197186648846 -0.119793 -0.894921 0.429844
-0.553401648998 -1.972912430763 -0.235682815313 -0.194454 -0.906010 0.375944
0.421911865473 -1.979308724403 -0.208334714174 0.151463 -0.907365 0.392106
0.709338724613 -1.853955626488 -0.216825425625 0.925946 -0.376854 0.024606
0.665170788765 -1.930731773376 -0.241171434522 0.625261 -0.730267 0.275242
0.706222176552 -1.844864010811 -0.155220657587 0.969521 -0.223736 0.099859
-0.499833911657 2.015938282013 0.004211179912 -0.098041 0.990787 -0.093427
-0.706554770470 1.915165305138 0.027761302888 -0.917162 0.216732 0.334427
-0.719426214695 -1.797535300255 -0.193782687187 -0.978433 -0.180918 0.099689
-0.689862608910 -1.896014213562 -0.187269389629 -0.530710 -0.816831 0.226128
0.535142242908 1.999764084816 -0.077685408294 0.092079 0.995539 0.020582
0.570430219173 1.997023105621 -0.113417200744 0.088420 0.996055 0.007457
0.566443383694 2.006182670593 -0.024343341589 0.095876 0.981817 -0.163838
0.719659507275 1.958297729492 -0.091794006526 0.509272 0.852635 0.116859
0.734495818615 1.953101754189 -0.100990980864 0.430960 0.875341 0.219208
0.771807730198 1.846035003662 -0.107712313533 0.892288 0.203658 0.402921
0.676468253136 1.982102632523 -0.074832893908 0.575015 0.818133 -0.004097
-0.649670958519 1.992287516594 -0.055407088250 -0.259493 0.958427 -0.118662
-0.679038882256 1.982897996902 -0.097869150341 -0.262407 0.962994 0.061521
0.853487610817 -0.482532382011 0.132383257151 -0.139254 0.979704 0.144183
0.859568715096 -0.493157446384 0.204620927572 -0.129953 0.978982 0.157182
-0.860961556435 -0.482069224119 0.136413335800 0.139254 0.979704 0.144183
-0.822876334190 -0.493846535683 0.178426802158 0.129953 0.978982 0.157182
0.793550133705 -1.470061063766 -0.589706063271 0.291405 0.944695 0.150446
0.785571157932 -1.191678524017 -0.340469002724 0.063369 -0.542159 -0.837883
0.803160846233 -1.196230292320 -0.479344487190 0.991865 0.034822 0.122439
0.787003695965 -1.354314923286 -0.484000623226 0.979532 -0.201019 0.010458
0.785470128059 -1.156692624092 -0.605993270874 -0.001369 -0.606331 -0.795211
0.790789246559 -1.299398541451 -0.724181950092 0.996376 -0.020378 -0.082584
0.790764153004 -1.319217562675 -0.721100211143 0.990610 0.046630 -0.128518
0.779337525368 -1.222369074821 -0.702984392643 0.976760 0.173397 -0.125993
0.802962243557 -1.084661841393 -0.673379302025 0.999999 0.000978 0.000978
0.796886205673 -1.045022249222 -0.574085712433 0.371126 -0.917310 0.144249
0.799736559391 -1.039657115936 -0.519387364388 0.371126 -0.917310 -0.144249
0.778930187225 -1.080847024918 -0.554609894753 0.976753 0.175442 0.123183
0.789916753769 -1.052433490753 -0.493775546551 0.999976 -0.006883 -0.000983
-0.778966605663 -1.278865098953 -0.748640775681 -0.003364 -0.155847 -0.987776
-0.787723243237 -1.283760428429 -0.747837960720 -0.003364 -0.155847 -0.987776
-0.805319249630 -1.194743990898 -0.577028512955 0.001369 -0.606331 -0.795211
-0.777019858360 -1.246879696846 -0.317234843969 0.003364 0.155847 0.987776
-0.792639911175 -1.354295253754 -0.359053164721 0.026460 0.594653 -0.803547
-0.781723499298 -1.390244603157 -0.417564660311 -0.979532 -0.201019 0.010458
-0.804616093636 -1.294418096542 -0.445547103882 -0.991222 -0.109115 0.074657
-0.794160842896 -1.181522488594 -0.431401908398 -0.979702 -0.053962 0.193062
-0.803655445576 -1.213223457336 -0.455631524324 -0.991865 0.034822 0.122439
-0.792120218277 -1.252559304237 -0.667520284653 -0.976334 0.175815 -0.125938
-0.797521054745 -1.380626797676 -0.533690214157 0.000979 0.002938 0.999995
-0.785336434841 -1.433999419212 -0.594133973122 -0.977065 -0.069529 -0.201268
-0.805766522884 -1.478605151176 -0.577685296535 -0.999999 0.000978 0.000978
-0.776850163937 -1.174650788307 -0.732113420963 -0.003948 0.454041 -0.890972
-0.797017216682 -1.135847091675 -0.352780997753 -0.347593 -0.426234 -0.835167
-0.791957974434 -1.119625926018 -0.580542922020 -0.976753 0.175442 0.123183
0.801771402359 1.106068134308 -0.592422127724 0.291405 0.944695 0.150446
0.802962243557 1.091259121895 -0.543428778648 0.999999 0.000978 0.000978
0.798378527164 1.191070556641 -0.353373348713 0.312331 0.430426 -0.846867
0.786046564579 1.115444898605 -0.515208661556 0.001118 0.987489 -0.157685
0.790202975273 1.116765141487 -0.536900699139 0.993511 -0.107677 -0.036632
0.794722080231 1.233171701431 -0.574906051159 0.001164 -0.215328 -0.976541
0.785754203796 1.187354326248 -0.593426764011 0.977065 -0.069529 -0.201268
0.797841966152 1.192627072334 -0.714081108570 0.315961 0.431138 0.845156
0.802097678185 1.310405492783 -0.754623532295 0.329256 0.147408 0.932664
0.777156889439 1.512099981308 -0.628600180149 0.003948 0.890972 -0.454041
0.790045082569 1.240280389786 -0.454969435930 0.979532 -0.201019 0.010458
0.797302246094 1.271947026253 -0.404443919659 0.993813 -0.057141 0.095236
0.805629312992 1.311049580574 -0.526064634323 0.999999 0.000978 0.000978
0.799665153027 1.417395472527 -0.569981694221 0.992323 0.123630 0.003282
0.802088201046 1.306049585342 -0.616277277470 0.990610 0.046630 -0.128518
0.789477229118 1.368229746819 -0.607307672501 0.976760 0.173397 -0.125993
0.789900243282 1.303503751755 -0.740475177765 0.999987 -0.000981 0.004907
0.789339780807 1.399113416672 -0.348283022642 0.063369 -0.542159 -0.837883
0.789582729340 1.347399234772 -0.436047345400 0.979702 -0.053962 0.193062
0.784436583519 1.458895325661 -0.543846428394 0.976753 0.175442 0.123183
0.777806818485 1.345899343491 -0.319525957108 -0.003364 0.155847 0.987776
-0.780282020569 1.252724885941 -0.741247117519 -0.003364 -0.155847 -0.987776
-0.792749702930 1.351207375526 -0.743851363659 -0.999976 -0.000983 0.006883
-0.793847620487 1.527211189270 -0.469735026360 -0.371126 -0.917310 -0.144249
-0.805766522884 1.543978214264 -0.516602933407 -0.999999 0.000978 0.000978
-0.805766522884 1.480621933937 -0.693807959557 -0.999999 0.000978 0.000978
-0.792746901512 1.441825270653 -0.709139347076 -0.999984 -0.002956 0.004926
-0.799470126629 1.439492344856 -0.612784504890 -0.994163 0.072853 -0.079578
-0.794656634331 1.452776908875 -0.591084003448 0.001379 0.745961 0.665988
-0.785427689552 1.486816167831 -0.568780064583 -0.976753 0.175442 0.123183
-0.789581418037 1.311933159828 -0.706250667572 -0.976334 0.175815 -0.125938
-0.808448851109 1.348394989967 -0.498655885458 -0.999999 0.000978 0.000978
-0.785745680332 1.209871649742 -0.373906672001 -0.979532 -0.201019 0.010458
-0.795727372169 1.280851840973 -0.419052958488 0.001227 0.953006 0.302950
-0.786964714527 1.440053701401 -0.383137434721 -0.979702 -0.053962 0.193062
-0.792747676373 1.343997836113 -0.322165220976 -0.999976 -0.000983 -0.006883
-0.802039086819 1.127066612244 -0.428248137236 -0.295056 0.851182 -0.434087
-0.782232880592 1.188913583755 -0.708542048931 -0.001384 -0.707106 -0.707106
-0.781663060188 1.166479587555 -0.619656443596 -0.977065 -0.069529 -0.201268
-0.792723834515 1.114809274673 -0.569001138210 -0.999995 0.002938 0.000979
-0.794622004032 1.132074117661 -0.538449525833 -0.993511 -0.107677 -0.036632
-0.805766522884 1.114376544952 -0.626197516918 -0.999999 0.000978 0.000978
-0.805766522884 1.169619798660 -0.367695659399 -0.999999 0.000978 0.000978
0.647301197052 -0.506527841091 0.289697736502 0.790481 -0.158096 0.591731
0.704746425152 -0.695219635963 0.141563683748 0.691624 -0.422936 0.585476
0.502215623856 -0.055875539780 0.530174255371 0.253027 -0.132413 0.958355
0.507307112217 0.170402422547 0.547854840755 0.815925 -0.006834 0.578118
0.520703732967 0.143475472927 0.529116690159 0.805702 -0.004104 0.592307
0.490445762873 0.321786463261 0.567288815975 0.275733 -0.030912 0.960737
0.516639232635 0.565141499043 0.535541772842 0.813364 -0.001362 0.581753
0.516936421394 0.614104688168 0.535105347633 0.811146 0.001363 0.584843
0.504335343838 0.642168760300 0.552551925182 0.811146 -0.001363 0.584843
0.507150173187 0.955222368240 0.547180771828 0.815925 0.006834 0.578118
0.562808752060 1.370758891106 0.438878774643 0.772176 0.120050 0.623965
0.642028450966 1.634018659592 0.254121601582 0.868993 0.140722 0.474392
0.662351667881 1.682708501816 0.196577951312 0.906820 0.115616 0.405353
0.650753378868 1.730663061142 0.208824291825 0.904272 0.130789 0.406430
0.737248480320 1.719362616539 0.044817887247 0.859228 0.039868 0.510038
0.718462109566 1.604701995850 0.086066126823 0.849908 0.051467 0.524411
0.720766842365 1.468890190125 0.090764977038 0.850788 0.028771 0.524721
0.747586071491 1.452616214752 0.049565400928 0.844210 0.037306 0.534712
0.754566431046 1.407452464104 0.040859565139 0.844128 0.015001 0.535932
0.747874498367 1.280373930931 0.056159019470 0.838360 0.020582 0.544728
0.752791762352 1.251571059227 0.049047131091 0.839272 0.004068 0.543696
0.763941943645 1.120846867561 0.033925313503 0.835560 0.009541 0.549316
0.735611498356 1.020183086395 0.075459651649 0.835560 -0.009541 0.549316
0.762810468674 1.002432703972 0.034530065954 0.830996 -0.004080 0.556264
0.731045424938 0.881731808186 0.080565534532 0.830983 -0.006800 0.556256
0.763165891171 0.827353477478 0.032333061099 0.828889 -0.004083 0.559398
0.735865652561 0.547107875347 0.070684634149 0.828889 -0.004083 0.559398
0.774063587189 0.623146414757 0.015183143318 0.825507 -0.001360 0.564391
0.797106564045 0.704371511936 -0.049089673907 0.945148 0.001242 0.326641
0.809514462948 0.610663473606 -0.085825905204 0.946931 -0.001241 0.321435
0.794465303421 0.537108063698 -0.041752133518 0.946931 -0.001241 0.321435
0.816599726677 0.758790493011 -0.128134265542 0.989726 0.001108 0.142973
0.813467264175 0.660054683685 -0.105253681540 0.989726 0.001108 0.142973
0.815089762211 0.591067850590 -0.114690870047 0.984889 0.012583 0.172727
0.829770743847 0.583737492561 -0.197926521301 0.984889 0.012583 0.172727
0.836987972260 0.768026053905 -0.382174789906 0.982549 -0.068050 -0.173110
0.850407183170 0.800697565079 -0.318460434675 0.982549 -0.068050 -0.173110
0.842455983162 0.613283216953 -0.290417999029 0.982549 -0.068050 -0.173110
0.826657593250 0.681569218636 -0.456446379423 0.996891 0.001050 -0.078785
0.831262409687 0.519029736519 -0.399118304253 0.996891 0.001050 -0.078785
0.826609849930 0.546827077866 -0.458043634892 0.996891 0.001050 -0.078785
0.826463401318 0.681906044483 -0.458912074566 0.996891 0.001050 -0.078785
0.826082110405 0.672256171703 -0.501847386360 0.999999 0.000978 0.000978
0.826082110405 0.572338163853 -0.520876348019 0.999999 0.000978 0.000978
0.826082110405 0.795825004578 -0.527132689953 0.999999 0.000978 0.000978
0.826082110405 0.858143866062 -0.545491933823 0.999999 0.000978 0.000978
0.826082110405 0.861440837383 -0.471998333931 0.999999 0.000978 0.000978
0.827756762505 0.884289026260 -0.452262282372 0.984846 0.003400 -0.173396
0.835630476475 0.827190577984 -0.408192127943 0.984846 0.003400 -0.173396
0.852650761604 0.912961304188 -0.322923779488 0.977931 -0.041894 -0.204683
0.860009551048 0.883700191975 -0.281848818064 0.977931 -0.041894 -0.204683
0.855010330677 0.892286360264 -0.225806087255 0.971381 -0.065417 0.228342
0.863321006298 1.095813512802 -0.235314607620 0.982763 -0.017363 0.184051
0.816705584526 1.077879428864 -0.148722499609 0.989497 0.021388 0.142965
0.818151772022 0.912010610104 -0.141484528780 0.989726 0.001108 0.142973
0.804457664490 0.840547740459 -0.070552907884 0.945148 -0.001242 0.326641
0.776953518391 0.879700243473 0.009805992246 0.988880 0.005587 0.148611
0.776706159115 0.864573657513 0.012059583329 0.988109 0.005608 0.153656
0.804312705994 0.986819446087 -0.069903329015 0.943838 -0.001247 0.330406
0.811039626598 1.032441139221 -0.096607543528 0.994267 0.003239 0.106876
0.823665201664 1.255966305733 -0.166711285710 0.770986 -0.029491 0.636169
0.850636482239 1.325249314308 -0.200207114220 0.769539 0.020949 0.638256
0.858707308769 1.384951710701 -0.234377086163 0.975919 0.044634 0.213520
0.849854588509 1.495656251907 -0.221986442804 0.982049 0.073144 0.173867
0.825730681419 1.489345431328 -0.173252746463 0.816718 0.049200 0.574936
0.824496984482 1.352870106697 -0.167729228735 0.818485 -0.009597 0.574448
0.810862064362 1.216842532158 -0.116564691067 0.995457 0.016178 0.093830
0.796454310417 1.155921936035 -0.049065295607 0.941881 0.011318 0.335757
0.773735523224 1.189291000366 0.012755635194 0.940146 0.016449 0.340376
0.774525225163 1.321252346039 0.002570043318 0.938066 0.029515 0.345198
0.797398090363 1.342883348465 -0.062044210732 0.939499 0.029399 0.341287
0.805334508419 1.503973364830 -0.116927817464 0.990830 0.012232 0.134557
0.828373193741 1.654310107231 -0.197207778692 0.873061 0.118599 0.472968
0.798684954643 1.501476526260 -0.084350861609 0.973785 0.047413 0.222475
0.779266953468 1.475941061974 -0.025977440178 0.937950 0.045406 0.343785
0.759664595127 1.702222943306 -0.008330836892 0.936741 0.061576 0.344564
0.766971766949 1.617018222809 -0.012990944088 0.935567 0.061671 0.347721
0.797833919525 1.724425196648 -0.115865021944 0.936741 0.061576 0.344564
0.797408103943 1.799402952194 -0.163969397545 0.957470 0.193092 0.214399
0.767414987087 1.948188900948 -0.196260690689 0.954901 0.254374 0.153157
0.665683686733 2.006294488907 -0.208384454250 0.079116 0.996860 -0.003165
0.621971130371 2.001883029938 -0.165962651372 0.082206 0.964970 0.249147
0.506440103054 2.010566949844 -0.160072565079 0.087177 0.966523 0.241315
0.770721018314 1.798973083496 -0.081443704665 0.913279 0.192946 0.358737
0.753440082073 1.740106821060 -0.001678586006 0.920121 0.191397 0.341678
0.819019198418 0.820266962051 -0.145642161369 0.989676 0.003332 0.143286
0.517221271992 1.219347476959 0.509753465652 0.190792 0.220144 0.956627
0.075106196105 -0.222223535180 0.518252968788 0.013682 -0.307228 0.951537
0.130415007472 -0.167872950435 0.534099757671 0.044473 -0.303690 0.951732
0.145325496793 -0.228486552835 0.514000117779 0.044473 -0.303690 0.951732
0.223971441388 -0.172579064965 0.527819335461 0.073906 -0.302107 0.950405
0.229972705245 -0.229974284768 0.509167432785 0.073724 -0.301364 0.950655
0.328670978546 -0.108165979385 0.539399981499 0.104289 -0.297024 0.949158
0.392845779657 -0.207520738244 0.501300692558 0.104028 -0.296282 0.949418
0.439956277609 -0.108552306890 0.525672078133 0.152823 -0.288064 0.945338
0.457408338785 -0.002229385078 0.545262038708 0.150715 -0.145732 0.977777
0.405850976706 0.093588210642 0.566526651382 0.148249 -0.081833 0.985558
0.388510584831 0.222026705742 0.579454481602 0.142962 -0.079161 0.986557
0.435299515724 0.264255434275 0.574917852879 0.142300 -0.033014 0.989273
0.415313780308 0.513178884983 0.579723954201 0.138321 -0.003320 0.990382
0.448889166117 0.755675435066 0.569248795509 0.137800 0.039860 0.989658
0.435211658478 0.789966583252 0.569721579552 0.133027 0.039794 0.990313
0.407092809677 0.856567263603 0.569613695145 0.133911 0.068702 0.988609
0.460886240005 0.992169439793 0.552445948124 0.135611 0.086084 0.987015
0.425357550383 1.024379014969 0.554521262646 0.135639 0.083742 0.987213
0.379925161600 1.143918991089 0.547019362450 0.095234 0.196652 0.975837
0.372392058372 1.229882001877 0.531046628952 0.131011 0.168442 0.976966
0.295460790396 1.139201760292 0.556365549564 0.068182 0.175837 0.982055
0.251579761505 1.224219083786 0.544829905033 0.092658 0.157639 0.983140
0.208294212818 1.243687272072 0.545686006546 0.040650 0.161437 0.986045
0.116076141596 1.259766697884 0.548289418221 0.059558 0.150646 0.986792
0.085879802704 1.270779967308 0.547333300114 0.016946 0.150252 0.988502
-0.024953646585 1.246787071228 0.552091240883 -0.016946 0.150252 0.988502
-0.047382339835 1.056165575981 0.576826393604 -0.013991 0.093632 0.995509
0.014613552950 1.060019969940 0.576922297478 0.013991 0.093632 0.995509
0.097539201379 1.016041517258 0.579852163792 0.013991 0.093632 0.995509
0.108422279358 1.006888031960 0.580281496048 0.040769 0.091454 0.994974
0.147172898054 1.011105418205 0.578262209892 0.042968 0.091445 0.994883
0.214360699058 1.099782943726 0.566878437996 0.068632 0.091134 0.993471
0.222302481532 0.980095803738 0.577226698399 0.070885 0.088888 0.993516
0.323863267899 1.044006109238 0.563708007336 0.095142 0.088265 0.991543
0.367703765631 1.041306734085 0.559697985649 0.097655 0.086166 0.991483
0.321714431047 0.735290348530 0.585148334503 0.098851 0.045538 0.994060
0.366509139538 0.649170041084 0.584224522114 0.103495 0.041176 0.993777
0.297029703856 0.474620193243 0.593611776829 0.104138 0.025212 0.994243
0.299899846315 0.329252719879 0.593412041664 0.105034 -0.032063 0.993952
0.366998136044 0.257295668125 0.583834946156 0.107456 -0.032126 0.993691
0.290172040462 0.187638133764 0.587282836437 0.107275 -0.081898 0.990851
0.327218264341 0.065953299403 0.572078049183 0.107867 -0.149075 0.982925
0.325271159410 -0.069881439209 0.551634907722 0.104970 -0.148406 0.983340
0.223621234298 0.042856745422 0.577540814877 0.077244 -0.153299 0.985156
0.241863355041 0.147104859352 0.587627112865 0.077801 -0.084567 0.993376
0.208336919546 0.166095092893 0.591853737831 0.077801 -0.084567 0.993376
0.242450281978 0.251202702522 0.595707714558 0.076819 -0.033541 0.996481
0.209019467235 0.351288586855 0.601562023163 0.076659 -0.031311 0.996566
0.268537640572 0.457049250603 0.596574664116 0.076181 0.024678 0.996789
0.212133586407 0.419201701880 0.601886630058 0.076177 0.026823 0.996733
0.282197088003 0.604499816895 0.594348371029 0.073889 0.024630 0.996962
0.279766619205 0.683820247650 0.591437816620 0.075285 0.044734 0.996158
0.242512211204 0.803127050400 0.588654160500 0.070782 0.046825 0.996392
0.281234949827 0.906849861145 0.578651189804 0.070034 0.072257 0.994924
0.234318912029 0.944141685963 0.579216003418 0.070022 0.074468 0.994762
0.116812974215 0.835273921490 0.593490481377 0.042464 0.075129 0.996269
0.098003655672 0.958393454552 0.585010707378 0.042372 0.074966 0.996285
0.064729467034 0.858013212681 0.593112051487 0.013804 0.075390 0.997059
-0.036903455853 0.885969519615 0.591397821903 -0.013804 0.075390 0.997059
-0.070858463645 1.029666662216 0.578963696957 -0.013991 0.093632 0.995509
-0.145748734474 1.286071777344 0.542533099651 -0.059558 0.150646 0.986792
-0.233398064971 1.216330170631 0.547812938690 -0.092658 0.157639 0.983140
-0.304475128651 1.207197427750 0.543559253216 -0.068342 0.176251 0.981970
-0.227171853185 1.039521336555 0.571501135826 -0.068632 0.091134 0.993471
-0.133878797293 0.937090218067 0.585094571114 -0.042372 0.074966 0.996285
-0.097036838531 0.918704926968 0.588038384914 -0.013804 0.075390 0.997059
-0.074935838580 0.800460219383 0.596878707409 -0.015587 0.050916 0.998581
0.027738556266 0.686797022820 0.603256344795 0.015587 0.050916 0.998581
0.090020909905 0.760325074196 0.598647892475 0.015588 0.048843 0.998685
0.118419207633 0.687077522278 0.601184546947 0.043660 0.050049 0.997792
0.184946104884 0.756374716759 0.594826221466 0.045790 0.047920 0.997801
0.112199343741 0.543431639671 0.605047941208 0.043970 0.003068 0.999028
0.180382698774 0.377085208893 0.604354262352 0.047340 -0.032612 0.998346
0.157287210226 0.233974665403 0.600576341152 0.047394 -0.084868 0.995264
0.148160427809 0.156330734491 0.594352841377 0.047394 -0.084868 0.995264
0.155139908195 0.033086679876 0.580036401749 0.047639 -0.156859 0.986471
0.186148241162 0.061473928392 0.583070039749 0.045216 -0.156517 0.986640
0.063224539161 0.004865996540 0.578787863255 0.014737 -0.157575 0.987397
0.077141098678 -0.094328731298 0.559438109398 0.016169 -0.307217 0.951502
-0.011050053872 -0.210436403751 0.523040533066 -0.016169 -0.307217 0.951502
-0.090651847422 0.046516567469 0.585008323193 -0.014737 -0.157575 0.987397
-0.054881285876 0.013188362122 0.580245554447 -0.017004 -0.157570 0.987361
0.045620642602 0.049638021737 0.586223125458 0.017004 -0.157570 0.987361
0.092666782439 0.199319452047 0.600592672825 0.016083 -0.086850 0.996092
0.023041661829 0.322440654039 0.607760667801 0.015344 -0.031710 0.999379
0.074630171061 0.430018752813 0.608071148396 0.015283 0.027509 0.999505
0.058149918914 0.587385714054 0.606315493584 0.014894 0.002979 0.999885
-0.106785647571 0.817566752434 0.595246076584 -0.043660 0.050049 0.997792
-0.178269952536 0.925300121307 0.584091007710 -0.042464 0.075129 0.996269
-0.238445878029 0.939373970032 0.579280674458 -0.070022 0.074468 0.994762
-0.277057975531 1.067113876343 0.565537571907 -0.070885 0.088888 0.993516
-0.389053761959 1.117056250572 0.550945222378 -0.095142 0.088265 0.991543
-0.364958494902 1.177747964859 0.541668832302 -0.095464 0.197127 0.975719
-0.311105787754 1.141155958176 0.554555058479 -0.131011 0.168442 0.976966
-0.484233170748 1.250929355621 0.508239090443 -0.206122 0.177239 0.962341
-0.324433892965 0.981279969215 0.569198191166 -0.097655 0.086166 0.991483
-0.296147406101 0.855575263500 0.581237435341 -0.096440 0.071479 0.992769
-0.282917499542 0.862641215324 0.581770718098 -0.070034 0.072257 0.994924
-0.239797666669 0.764077365398 0.590707242489 -0.070782 0.046825 0.996392
-0.144572526217 0.587932348251 0.603496730328 -0.043970 0.003068 0.999028
-0.252335190773 0.722210288048 0.591754257679 -0.075285 0.044734 0.996158
-0.302133649588 0.713848888874 0.588050544262 -0.098851 0.045538 0.994060
-0.373012125492 0.864264667034 0.573019564152 -0.098688 0.071464 0.992549
-0.412018239498 0.864361464977 0.568399310112 -0.133911 0.068702 0.988609
-0.460600227118 1.017038106918 0.550341010094 -0.135611 0.086084 0.987015
-0.442082256079 0.776016533375 0.569368779659 -0.133027 0.039794 0.990313
-0.368121832609 0.735592663288 0.580418229103 -0.103495 0.041176 0.993777
-0.079906158149 0.385103046894 0.608888566494 -0.015344 -0.031710 0.999379
-0.152184307575 0.445924431086 0.604641854763 -0.047151 0.026195 0.998544
-0.281624764204 0.494749963284 0.594610989094 -0.074451 -0.001049 0.997224
-0.437142491341 0.695058047771 0.573258221149 -0.137800 0.039860 0.989658
-0.387794137001 0.596829354763 0.583643496037 -0.134677 0.035084 0.990268
-0.360830634832 0.514750480652 0.586495041847 -0.104292 -0.003226 0.994541
-0.241687178612 0.422392189503 0.599533975124 -0.076181 0.024678 0.996789
-0.196365624666 0.289235353470 0.600529372692 -0.076659 -0.031311 0.996566
-0.173987299204 0.313017517328 0.602565109730 -0.047340 -0.032612 0.998346
-0.073540151119 0.174350753427 0.598743796349 -0.016083 -0.086850 0.996092
-0.061816468835 0.221118569374 0.602969110012 -0.016083 -0.086850 0.996092
-0.118256807327 0.097331196070 0.590716362000 -0.047394 -0.084868 0.995264
-0.239480644464 0.203850299120 0.592612326145 -0.077801 -0.084567 0.993376
-0.270460635424 0.334420233965 0.596264243126 -0.076819 -0.033541 0.996481
-0.347991198301 0.344651162624 0.588791668415 -0.105034 -0.032063 0.993952
-0.339434027672 0.406253337860 0.590866565704 -0.106544 0.023066 0.994040
-0.392888158560 0.334077984095 0.583323657513 -0.139440 -0.032876 0.989685
-0.296320229769 0.129437044263 0.581785619259 -0.107275 -0.081898 0.990851
-0.252633303404 0.145698979497 0.586669683456 -0.077801 -0.084567 0.993376
-0.258714526892 0.022484898567 0.571601152420 -0.077244 -0.153299 0.985156
-0.156968563795 -0.060865979642 0.565115034580 -0.045216 -0.156517 0.986640
-0.121387332678 0.069144234061 0.587372124195 -0.047639 -0.156859 0.986471
-0.118105232716 -0.115878924727 0.551360726357 -0.044473 -0.303690 0.951732
-0.060072377324 -0.220597535372 0.519008398056 -0.013682 -0.307228 0.951537
-0.178338676691 -0.122268721461 0.546446144581 -0.044473 -0.303690 0.951732
-0.225258097053 -0.075722634792 0.558421194553 -0.073906 -0.302107 0.950405
-0.265300869942 -0.007787245326 0.566415727139 -0.074531 -0.152612 0.985472
-0.361668616533 0.072606801987 0.569332361221 -0.107867 -0.149075 0.982925
-0.451849848032 0.222877338529 0.570325136185 -0.142962 -0.079161 0.986557
-0.461978554726 0.303875088692 0.572417616844 -0.142300 -0.033014 0.989273
-0.381079226732 -0.044888544828 0.549467861652 -0.104970 -0.148406 0.983340
-0.381651073694 -0.091057747602 0.538892507553 -0.104289 -0.297024 0.949158
-0.294194459915 -0.231117725372 0.503828406334 -0.073724 -0.301364 0.950655
-0.391991764307 -0.123936988413 0.527484953403 -0.104028 -0.296282 0.949418
-0.440124690533 -0.120247565210 0.522075355053 -0.152823 -0.288064 0.945338
-0.459358304739 0.041609141976 0.551488995552 -0.150715 -0.145732 0.977777
-0.479980200529 -0.192006245255 0.494434714317 -0.135178 -0.285079 0.948924
0.109806194901 -1.931319355965 -0.121334843338 0.009731 -0.671464 0.740973
0.416282624006 -1.953806281090 -0.155103415251 0.038071 -0.638749 0.768473
0.603614926338 -1.834541678429 -0.103117823601 0.124686 -0.352134 0.927607
0.616064548492 -1.773129701614 -0.081781953573 0.091666 -0.330793 0.939241
0.653259813786 -1.660612583160 -0.055236749351 0.104722 -0.218275 0.970252
0.549237012863 -1.707520127296 -0.054705396295 0.102031 -0.215398 0.971181
0.583303511143 -1.564961433411 -0.026512194425 0.102125 -0.180873 0.978190
0.630563080311 -1.409527659416 -0.003009210341 0.099494 -0.178106 0.978968
0.674098074436 -1.335003256798 0.006250469014 0.099689 -0.180918 0.978433
0.669315993786 -1.359975337982 0.002137129428 0.099689 -0.180918 0.978433
0.546079218388 -1.348120927811 0.016975658014 0.102125 -0.180873 0.978190
0.653279840946 -1.178440093994 0.035207685083 0.100157 -0.150839 0.983471
0.577333509922 -1.162281870842 0.045532487333 0.102996 -0.153889 0.982705
0.653357684612 -1.117316603661 0.044630285352 0.102996 -0.153889 0.982705
0.614583551884 -1.034318089485 0.060175966471 0.100900 -0.129390 0.986447
0.548893690109 -1.029361128807 0.067791268229 0.106310 -0.132588 0.985454
0.607118368149 -0.935809791088 0.074159316719 0.105877 -0.127290 0.986198
0.551896631718 -0.899843513966 0.084827087820 0.106343 -0.130240 0.985763
0.554304718971 -0.876399576664 0.087529294193 0.104366 -0.109056 0.988542
0.559481680393 -0.806860566139 0.095507331192 0.116158 -0.123342 0.985543
0.460691988468 -0.867733061314 0.095750570297 0.068000 -0.123322 0.990034
0.419397860765 -0.906579732895 0.093575268984 0.068408 -0.131019 0.989017
0.429687052965 -1.044754981995 0.074307411909 0.068544 -0.133603 0.988662
0.422513604164 -1.093036890030 0.068284496665 0.068544 -0.133603 0.988662
0.428541302681 -1.210034132004 0.049689922482 0.067286 -0.154639 0.985677
0.478260099888 -1.168366193771 0.052791781723 0.067286 -0.154639 0.985677
0.459335952997 -1.262877941132 0.039017647505 0.068445 -0.181318 0.981040
0.512988269329 -1.330319404602 0.022825125605 0.068445 -0.181318 0.981040
0.454694479704 -1.352277159691 0.022799177095 0.068445 -0.181318 0.981040
0.441910654306 -1.518169283867 -0.006639509927 0.068313 -0.178573 0.981552
0.482958048582 -1.553302407265 -0.015853824094 0.068313 -0.178573 0.981552
0.525997519493 -1.453699111938 -0.000738897361 0.068313 -0.178573 0.981552
0.493000924587 -1.569953799248 -0.019766813144 0.067699 -0.217866 0.973628
0.446154147387 -1.694230675697 -0.044262114912 0.067537 -0.217345 0.973756
0.427778601646 -1.838986515999 -0.088784761727 0.069256 -0.327985 0.942141
0.532408237457 -1.806218266487 -0.085331037641 0.074823 -0.329483 0.941192
0.330922603607 -1.830497026443 -0.080343872309 0.047661 -0.325898 0.944203
0.324649453163 -1.831941723824 -0.080519877374 0.047661 -0.325898 0.944203
0.389694839716 -1.722581386566 -0.046971913427 0.047239 -0.216817 0.975069
0.360897719860 -1.723216772079 -0.045703452080 0.047239 -0.216817 0.975069
0.322490245104 -1.631679415703 -0.023344496265 0.047326 -0.219642 0.974432
0.370969474316 -1.566088438034 -0.011107917875 0.048486 -0.178571 0.982732
0.281249195337 -1.422279477119 0.019441172481 0.048486 -0.178571 0.982732
0.357714235783 -1.311212420464 0.036177027971 0.048578 -0.181280 0.982231
0.314906626940 -1.342347860336 0.032522667199 0.048578 -0.181280 0.982231
0.295421808958 -1.230616331100 0.053461920470 0.047656 -0.154592 0.986828
0.290410637856 -1.227863788605 0.054138164967 0.047656 -0.154592 0.986828
0.348055183887 -1.050956964493 0.077959567308 0.049203 -0.133877 0.989776
0.394001007080 -0.959180414677 0.088105231524 0.049203 -0.133877 0.989776
0.396857857704 -0.940485894680 0.090472862124 0.049106 -0.131331 0.990122
0.285073220730 -0.930743277073 0.097215116024 0.049106 -0.131331 0.990122
0.292228817940 -0.886946737766 0.102695420384 0.047731 -0.159490 0.986045
0.467720985413 -0.833852946758 0.099986888468 0.090271 -0.157674 0.983356
0.155316337943 -1.033136248589 0.087529852986 0.028173 -0.134104 0.990567
0.168744459748 -0.983805358410 0.093794986606 0.028173 -0.134104 0.990567
0.206712797284 -1.100130915642 0.076989933848 0.028173 -0.134104 0.990567
0.177375495434 -1.105230331421 0.077070422471 0.028609 -0.154488 0.987580
0.230637714267 -1.156644582748 0.067458108068 0.028609 -0.154488 0.987580
0.166990384459 -1.370137333870 0.032636221498 0.029155 -0.180759 0.983095
0.213061034679 -1.361512660980 0.032874885947 0.029155 -0.180759 0.983095
0.160454735160 -1.484002709389 0.012002371252 0.029100 -0.178093 0.983583
0.161882370710 -1.537233114243 0.002277656691 0.029100 -0.178093 0.983583
0.178466558456 -1.604563832283 -0.011947602034 0.029847 -0.218477 0.975386
0.264103829861 -1.602856040001 -0.014096628875 0.027461 -0.218492 0.975452
0.180535435677 -1.836813569069 -0.076618701220 0.029242 -0.326752 0.944658
0.147531092167 -1.827428579330 -0.072355791926 0.029242 -0.326752 0.944658
0.251557886600 -1.755952715874 -0.050810977817 0.029242 -0.326752 0.944658
0.094380594790 -1.889134049416 -0.092911951244 0.008762 -0.326711 0.945084
-0.068614505231 -1.877192974091 -0.088508963585 -0.008762 -0.326711 0.945084
-0.076650865376 -1.798833608627 -0.061467632651 -0.008762 -0.326711 0.945084
0.104904517531 -1.764642119408 -0.049927551299 0.008762 -0.326711 0.945084
0.013720715418 -1.728802323341 -0.037344269454 0.010590 -0.220032 0.975435
0.116034008563 -1.712337136269 -0.034648798406 0.010590 -0.220032 0.975435
0.057616159320 -1.631342291832 -0.015906780958 0.010590 -0.220032 0.975435
0.060476541519 -1.505655050278 0.009541561827 0.010306 -0.179783 0.983652
0.111714407802 -1.432201385498 0.022401787341 0.010306 -0.179783 0.983652
0.124887757003 -1.330317378044 0.041038889438 0.010325 -0.182408 0.983169
0.058012045920 -1.318868637085 0.043813504279 0.010325 -0.182408 0.983169
0.095415823162 -1.153562307358 0.071126528084 0.010139 -0.154335 0.987967
0.037297151983 -1.102453947067 0.079699918628 0.010139 -0.154335 0.987967
0.020739424974 -1.092643141747 0.081204928458 0.009965 -0.133970 0.990935
0.019554769620 -1.004923462868 0.093053907156 0.009965 -0.133970 0.990935
0.006688634399 -0.878123939037 0.113418504596 0.019777 -0.423236 0.905804
-0.612190663815 -0.821846485138 0.087438791990 -0.104366 -0.109056 0.988542
-0.656968355179 -0.871954977512 0.077114626765 -0.106343 -0.130240 0.985763
-0.509232461452 -0.904600322247 0.087668910623 -0.068408 -0.131019 0.989017
-0.424078732729 -0.903600215912 0.093648798764 -0.068408 -0.131019 0.989017
-0.347426563501 -0.941808640957 0.092705912888 -0.049106 -0.131331 0.990122
-0.281472802162 -0.921251952648 0.098651282489 -0.049106 -0.131331 0.990122
-0.010598113760 -0.901005446911 0.107061430812 -0.009946 -0.131506 0.991266
-0.078018613160 -0.968043029308 0.097461812198 -0.009965 -0.133970 0.990935
-0.100803084671 -1.062882304192 0.084442883730 -0.009965 -0.133970 0.990935
-0.223170667887 -0.955936908722 0.095968037844 -0.028173 -0.134104 0.990567
-0.238257884979 -1.092135787010 0.077149331570 -0.028173 -0.134104 0.990567
-0.291995614767 -1.007912278175 0.086502060294 -0.049203 -0.133877 0.989776
-0.382264405489 -1.025731444359 0.079694919288 -0.049203 -0.133877 0.989776
-0.446782797575 -0.954426825047 0.085323795676 -0.068544 -0.133603 0.988662
-0.460948914289 -1.044325351715 0.072217486799 -0.068544 -0.133603 0.988662
-0.581602931023 -0.947664618492 0.075308285654 -0.106310 -0.132588 0.985454
-0.640511453152 -0.913783371449 0.073440939188 -0.105877 -0.127290 0.986198
-0.662142395973 -0.986307144165 0.061577823013 -0.100900 -0.129390 0.986447
-0.637601137161 -1.112511754036 0.047026500106 -0.102996 -0.153889 0.982705
-0.504488527775 -1.163508415222 0.051744394004 -0.067286 -0.154639 0.985677
-0.528051674366 -1.239473342896 0.038223762065 -0.067286 -0.154639 0.985677
-0.471736937761 -1.113747000694 0.061793815345 -0.067286 -0.154639 0.985677
-0.383653134108 -1.156103849411 0.060816686600 -0.047656 -0.154592 0.986828
-0.276483416557 -1.184958934784 0.061542101204 -0.047656 -0.154592 0.986828
-0.217512369156 -1.164966940880 0.066540136933 -0.028609 -0.154488 0.987580
-0.153641283512 -1.228353977203 0.058481641114 -0.028609 -0.154488 0.987580
-0.132341936231 -1.202007412910 0.063180156052 -0.010139 -0.154335 0.987967
-0.035764936358 -1.126183271408 0.075999289751 -0.010139 -0.154335 0.987967
-0.004825589713 -1.286919832230 0.050244245678 -0.010325 -0.182408 0.983169
-0.049442164600 -1.393006324768 0.030191324651 -0.010325 -0.182408 0.983169
-0.241050958633 -1.255656242371 0.051630452275 -0.029155 -0.180759 0.983095
-0.261457830667 -1.330028057098 0.037276495248 -0.029155 -0.180759 0.983095
-0.239474803209 -1.322519421577 0.039312325418 -0.029155 -0.180759 0.983095
-0.270385652781 -1.358609318733 0.031706772745 -0.048578 -0.181280 0.982231
-0.366884768009 -1.376573920250 0.023634074256 -0.048578 -0.181280 0.982231
-0.433281064034 -1.307323932648 0.032595872879 -0.068445 -0.181318 0.981040
-0.525269031525 -1.272563457489 0.032660182565 -0.068445 -0.181318 0.981040
-0.618694126606 -1.253692984581 0.026953414083 -0.102125 -0.180873 0.978190
-0.648190379143 -1.211812376976 0.030582593754 -0.100157 -0.150839 0.983471
-0.627736926079 -1.400322437286 -0.001046336256 -0.099689 -0.180918 0.978433
-0.644733011723 -1.412663102150 -0.005032503977 -0.099494 -0.178106 0.978968
-0.507961928844 -1.446707844734 0.001773079857 -0.068313 -0.178573 0.981552
-0.457219570875 -1.540042042732 -0.011670514941 -0.068313 -0.178573 0.981552
-0.424975186586 -1.472659230232 0.002801871626 -0.068313 -0.178573 0.981552
-0.413379371166 -1.421156287193 0.012964352965 -0.068313 -0.178573 0.981552
-0.403239548206 -1.560715913773 -0.011715529487 -0.048486 -0.178571 0.982732
-0.341332554817 -1.408197879791 0.019048057497 -0.048486 -0.178571 0.982732
-0.187828898430 -1.557698130608 -0.002200759249 -0.029100 -0.178093 0.983583
-0.245782762766 -1.432485461235 0.018866661936 -0.029100 -0.178093 0.983583
-0.101416885853 -1.467368602753 0.016108300537 -0.010306 -0.179783 0.983652
-0.061137672514 -1.493076443672 0.011825267226 -0.010306 -0.179783 0.983652
-0.081878945231 -1.578722715378 -0.004334317520 -0.010590 -0.220032 0.975435
-0.085731714964 -1.731126189232 -0.038564685732 -0.010590 -0.220032 0.975435
-0.206514388323 -1.589323043823 -0.009356243536 -0.029847 -0.218477 0.975386
-0.231839701533 -1.634566783905 -0.020250603557 -0.027461 -0.218492 0.975452
-0.298608422279 -1.687163829803 -0.034585859627 -0.047326 -0.219642 0.974432
-0.319871991873 -1.709479808807 -0.040621012449 -0.047239 -0.216817 0.975069
-0.423796206713 -1.576059699059 -0.016302049160 -0.067699 -0.217866 0.973628
-0.420245915651 -1.718888282776 -0.047971498221 -0.067537 -0.217345 0.973756
-0.570867598057 -1.611075043678 -0.035466808826 -0.102031 -0.215398 0.971181
-0.609421908855 -1.516964197159 -0.020436208695 -0.102171 -0.178491 0.978623
-0.654801189899 -1.619346857071 -0.046110481024 -0.104722 -0.218275 0.970252
-0.617650866508 -1.775845408440 -0.082898780704 -0.091666 -0.330793 0.939241
-0.520731270313 -1.785710334778 -0.077216714621 -0.074823 -0.329483 0.941192
-0.460481584072 -1.758237361908 -0.063161589205 -0.069256 -0.327985 0.942141
-0.297422826290 -1.870846271515 -0.092590562999 -0.047661 -0.325898 0.944203
-0.305067032576 -1.844667315483 -0.083916217089 -0.047661 -0.325898 0.944203
-0.385829865932 -1.751245141029 -0.055716175586 -0.047661 -0.325898 0.944203
-0.250952571630 -1.764712452888 -0.053818669170 -0.029242 -0.326752 0.944658
-0.156841441989 -1.841649770737 -0.077557325363 -0.029242 -0.326752 0.944658
-0.208465680480 -1.909188985825 -0.105003580451 -0.035289 -0.670495 0.741074
-0.112607717514 -1.920154213905 -0.111229941249 -0.009731 -0.671464 0.740973
-0.222519427538 -1.949298501015 -0.141579702497 -0.026653 -0.663518 0.747685
-0.310934036970 -1.933103322983 -0.132138594985 -0.058722 -0.663128 0.746199
-0.397085934877 -1.924303293228 -0.129690453410 -0.038071 -0.638749 0.768473
-0.457350969315 -1.897041082382 -0.113680735230 -0.091898 -0.625780 0.774567
-0.634218871593 -1.911424040794 -0.147826775908 -0.081687 -0.568946 0.818308
0.396424382925 -1.999890208244 -0.248470827937 0.067942 -0.925871 0.371681
0.381158471107 -1.988583803177 -0.220602601767 0.063481 -0.908992 0.411950
0.304567247629 -1.976991295815 -0.184147670865 0.058044 -0.905756 0.419806
0.182792320848 -1.996714591980 -0.214071214199 0.038621 -0.906931 0.419505
0.074399203062 -1.993225097656 -0.200048044324 0.011768 -0.908775 0.417121
0.005235295743 -1.992896318436 -0.197110339999 0.014399 -0.909733 0.414943
-0.013840266503 -2.000617504120 -0.214284241199 -0.014399 -0.909733 0.414943
-0.141403198242 -1.990484714508 -0.196487098932 -0.041326 -0.907846 0.417262
-0.367035984993 -1.975072264671 -0.188763409853 -0.058044 -0.905756 0.419806
-0.524824798107 -1.997209310532 -0.289096117020 -0.146539 -0.935386 0.321838
-0.554610311985 -1.993995785713 -0.296585530043 -0.214562 -0.932574 0.290290
-0.119627885520 -1.975568056107 -0.247607693076 0.000993 -0.016879 -0.999857
-0.025538334623 -2.022326469421 -0.272052496672 -0.042245 -0.946029 0.321317
0.253128230572 -2.008696794510 -0.244979232550 0.034424 -0.852333 0.521865
0.362273842096 -1.983101129532 -0.249059140682 -0.254023 -0.001193 -0.967197
0.223777830601 -2.007214546204 -0.298992902040 -0.000978 0.000978 0.999999
0.064496308565 -2.018018007278 -0.298978567123 0.000978 0.000978 0.999999
0.352960109711 2.021356821060 -0.148680895567 0.087177 0.966523 0.241315
0.435150921345 2.025927543640 -0.203246191144 0.088347 0.994189 -0.061508
0.315981537104 2.035529613495 -0.208514496684 0.050868 0.996798 -0.061691
0.202604383230 2.041495561600 -0.207906678319 0.053908 0.995656 -0.075912
0.026139147580 2.046381235123 -0.201486274600 0.018195 0.996432 -0.082412
-0.027482174337 2.046250104904 -0.202755719423 -0.018195 0.996432 -0.082412
-0.099342286587 2.043530464172 -0.220794588327 -0.015961 0.997014 -0.075548
-0.233823984861 2.038587093353 -0.225332692266 -0.050868 0.996798 -0.061691
-0.440527349710 2.024188518524 -0.191409066319 -0.087177 0.966523 0.241315
-0.394010066986 2.016042709351 -0.142238736153 -0.087177 0.966523 0.241315
-0.077424645424 2.043479919434 -0.188139379025 -0.017991 0.970337 0.241085
-0.065034210682 2.032381057739 -0.142349675298 -0.017991 0.970337 0.241085
0.293256968260 2.030714273453 -0.170426085591 0.052960 0.969286 0.240166
0.142414674163 2.035802602768 -0.161768004298 0.017991 0.970337 0.241085
0.017733596265 2.034646987915 -0.148041233420 0.017991 0.970337 0.241085
0.690971791744 -1.902595996857 -0.261641174555 0.928193 -0.368914 0.048576
0.727171421051 -1.788484215736 -0.277550578117 0.980726 -0.195221 0.008086
0.729232072830 -1.753605604172 -0.191365778446 0.957505 -0.258750 0.127405
0.700420200825 -1.825863838196 -0.114427581429 0.844418 -0.226700 0.485350
0.740929305553 -1.620690345764 -0.100478731096 0.992660 -0.118676 -0.023291
0.739140689373 -1.665232419968 -0.148307621479 0.985908 -0.136767 0.096331
0.751508891582 -1.565762042999 -0.125615730882 0.969728 -0.212247 0.120739
0.738088369370 -1.450597286224 -0.035731106997 0.886579 -0.148003 0.438260
0.678198277950 -1.485326290131 -0.021761849523 0.180771 -0.183372 0.966280
0.765580356121 -1.327503204346 -0.057690154761 0.893362 -0.102059 0.437594
0.793444275856 -1.353015422821 -0.158263310790 0.929440 -0.127302 0.346316
0.806038737297 -1.302614092827 -0.175701647997 0.993746 -0.111620 0.003251
0.826776802540 -0.941229581833 -0.402046978474 0.995362 -0.049493 -0.082489
0.836818277836 -0.820059597492 -0.324988007545 0.996398 -0.031306 -0.078805
0.839025914669 -0.820982992649 -0.281058758497 0.962522 -0.035924 0.268813
0.832816362381 -0.918287813663 -0.255685806274 0.995061 -0.034010 0.093253
0.831644296646 -0.989134609699 -0.251717627048 0.996207 0.009610 0.086487
0.820498168468 -1.057795405388 -0.189253047109 0.955691 0.065074 0.287090
0.814316511154 -1.145905256271 -0.158172115684 0.936264 -0.064344 0.345354
0.790543198586 -1.123258471489 -0.082182854414 0.958781 -0.085995 0.270820
0.758081018925 -1.244196653366 -0.017047937959 0.920623 -0.085419 0.380994
0.752736270428 -1.141209006310 0.019641477615 0.921355 -0.088200 0.378583
0.724804043770 -1.181013703346 0.023946966976 0.193075 -0.144486 0.970487
0.713361501694 -1.158852696419 0.029758643359 0.211794 -0.152024 0.965418
0.784948647022 -0.948611676693 -0.025298461318 0.919284 -0.054545 0.389798
0.799582123756 -1.007634997368 -0.088773399591 0.962133 -0.053940 0.267190
0.798876345158 -1.071710586548 -0.099007889628 0.961486 -0.053903 0.269517
0.817657887936 -0.971152544022 -0.158890172839 0.980782 -0.053758 0.187555
0.822218596935 -0.909115493298 -0.178061395884 0.981953 0.015036 0.188526
0.826281845570 -0.778017342091 -0.189015179873 0.988597 -0.023835 0.148687
0.794459223747 -0.834953486919 -0.049120895565 0.956599 -0.018563 0.290816
0.768363416195 -0.843171119690 0.021306999028 0.922062 -0.024710 0.386252
0.762915730476 -0.905262291431 0.030414987355 0.920748 -0.030124 0.388993
0.746985316277 -0.819633066654 0.064994148910 0.688902 -0.049920 0.723133
0.777623295784 -0.751176238060 0.004282675683 0.916749 -0.014304 0.399208
0.837055981159 -0.797500550747 -0.329061567783 0.996118 -0.022615 -0.085074
0.834119915962 -0.824309051037 -0.356629550457 0.996118 -0.022615 -0.085074
0.824369311333 -0.775439321995 -0.521176338196 0.999721 -0.023063 -0.005014
0.823064982891 -0.838240861893 -0.564067602158 0.999776 -0.020974 0.002996
