0.732766568661 -1.769880294800 -0.426207154989 0.869363 -0.203594 -0.450286
0.784942567348 -1.726273179054 -0.297192692757 0.963239 -0.152916 -0.220878
0.801908075809 -1.657769441605 -0.266956537962 0.978521 -0.127418 -0.162056
0.769788503647 -1.837229132652 -0.283243775368 0.962222 -0.161464 -0.219224
0.749230623245 -1.876876711845 -0.322309076786 0.931403 -0.200287 -0.303931
0.746907830238 -1.715271115303 -0.429278492928 0.870219 -0.258795 -0.419218
0.735397636890 -1.699540257454 0.090690776706 0.152024 -0.211794 0.965418
0.740900874138 -1.399500489235 0.147658452392 0.192465 -0.164048 0.967494
0.727178931236 -1.818224668503 0.061154190451 0.950967 -0.168134 0.259599
0.751405537128 -1.854395270348 0.040114089847 0.428995 -0.215240 0.877288
0.757596671581 -1.746756434441 0.045802608132 0.776657 -0.168049 0.607094
0.773237347603 -1.633941292763 0.040124017745 0.897911 -0.078378 0.433142
0.764515101910 -1.522668600082 0.085649311543 0.895220 -0.117013 0.429988
0.787912845612 -1.502112269402 0.043226692826 0.892388 -0.123039 0.434173
0.776619970798 -1.364977359772 0.100899375975 0.875270 -0.097566 0.473692
0.785678565502 -1.307785511017 0.094164654613 0.877504 -0.079519 0.472931
0.808367192745 -1.618959188461 -0.087392047048 0.987609 -0.093215 0.126253
0.778912246227 -1.759877920151 0.004874570295 0.981588 -0.118278 0.149982
0.829849481583 -1.243932366371 0.012781540863 0.887734 0.001319 0.460355
0.843439459801 -1.232916355133 -0.013498805463 0.884595 0.070601 0.460986
0.814444303513 -1.083014369011 0.063306406140 0.901151 -0.058270 0.429571
0.810352444649 -0.990829348564 0.084252566099 0.901151 -0.058270 0.429571
0.822604596615 -1.027770757675 0.044070705771 0.988308 -0.030778 0.149329
0.854877710342 -1.213564157486 -0.040631297976 0.907108 0.112866 0.405482
0.835857212543 -1.068400621414 -0.065921850502 0.896255 0.316588 0.310642
0.830479025841 -0.990282952785 -0.012741796672 0.996972 0.009515 0.077178
0.839603126049 -0.891952037811 -0.117774151266 0.996095 -0.003189 0.088235
0.834115803242 -0.923280119896 -0.056874468923 0.996095 -0.003189 0.088235
0.838933169842 -0.991140484810 -0.155490309000 0.999775 -0.021016 -0.003002
0.855313658714 -1.082654714584 -0.109359264374 0.916785 0.316183 0.243995
0.832902193069 -0.868351280689 -0.273481667042 0.997856 0.013641 -0.064006
0.831059753895 -0.968994498253 -0.304641604424 0.993614 -0.020860 -0.110889
0.820914685726 -0.906092822552 -0.407120883465 0.992395 -0.014319 -0.122260
0.817699015141 -0.923083245754 -0.428697288036 0.987830 -0.003356 -0.155502
0.820983827114 -0.614002585411 -0.413381218910 0.987830 -0.003356 -0.155502
0.818717181683 -0.661903798580 -0.428146064281 0.992018 -0.003288 -0.126057
0.822679638863 0.205520659685 -0.422211945057 0.992018 -0.003288 -0.126057
0.824140131474 0.328629940748 -0.402991443872 0.992514 0.009870 -0.121734
0.818220257759 0.618382811546 -0.428026020527 0.991266 0.009946 -0.131506
0.834974229336 0.907066822052 -0.211419120431 0.999442 -0.021482 -0.025574
0.837924957275 0.902380108833 -0.087031997740 0.999964 0.004945 0.006924
0.841409683228 0.275974273682 -0.084918886423 0.999964 0.004945 0.006924
0.839439630508 1.033569693565 -0.052673034370 0.997016 0.005275 -0.077018
0.839232563972 0.679309666157 -0.080866463482 0.997016 0.005275 -0.077018
0.840007066727 0.798988819122 -0.049761720002 0.997236 -0.001046 0.074296
0.840152025223 0.429990559816 -0.034505266696 0.999852 0.002991 0.016947
0.838595449924 0.769345641136 -0.017860855907 0.999852 0.002991 0.016947
0.839270234108 0.490128040314 0.005488532595 0.999852 0.002991 0.016947
0.838521659374 0.815480709076 -0.024027189240 0.999852 0.002991 0.016947
0.839436411858 0.642138659954 -0.039843790233 0.999852 0.002991 0.016947
0.838910102844 0.362029641867 0.037858746946 0.998599 0.005163 0.052667
0.836652219296 1.019986867905 0.011985465884 0.998599 0.005163 0.052667
0.836698055267 0.941229701042 0.019292790443 0.998599 0.005163 0.052667
0.835518658161 0.535689711571 0.057766903192 0.973308 -0.001177 0.229498
0.830994725227 0.923956871033 0.080491214991 0.973308 -0.001177 0.229498
0.833038389683 0.309367865324 0.066334716976 0.973308 -0.001177 0.229498
0.831713259220 0.671862721443 0.075195111334 0.973308 -0.001177 0.229498
0.831869840622 0.678033292294 0.074581988156 0.973308 -0.001177 0.229498
0.804195761681 0.297106087208 0.187238126993 0.973826 0.003533 0.227265
0.807466030121 0.389152824879 0.171498581767 0.973826 0.003533 0.227265
0.791178882122 1.054465651512 0.228514596820 0.973826 0.003533 0.227265
0.795422196388 0.721396088600 0.216694965959 0.973826 0.003533 0.227265
0.807942807674 0.784476041794 0.168653085828 0.959707 -0.003649 0.280979
0.814446210861 1.052579522133 0.149039208889 0.959707 -0.003649 0.280979
0.812666893005 0.551045715809 0.150337442756 0.959707 -0.003649 0.280979
0.805847406387 0.719490349293 0.175176128745 0.959707 -0.003649 0.280979
0.820411264896 0.570873677731 0.121923789382 0.971447 -0.001180 0.237255
0.818381786346 0.815195560455 0.131852909923 0.971447 -0.001180 0.237255
0.825915992260 0.951598763466 0.101807177067 0.971447 -0.001180 0.237255
0.844912171364 0.984207510948 -0.117118075490 0.916970 -0.326770 0.228883
0.840578436852 1.175427794456 -0.013253584504 0.942865 -0.026721 0.332102
0.830797851086 1.284651160240 0.015030874871 0.990713 0.044360 0.128531
0.817874729633 1.407225251198 0.021277524531 0.982979 0.097695 0.155588
0.821631669998 1.319148898125 0.064124703407 0.994724 0.076860 0.067949
0.817592859268 1.294806718826 0.159149438143 0.998590 0.044963 0.028232
0.812931060791 1.444449543953 0.086790524423 0.998590 0.044963 0.028232
0.810137093067 1.423005819321 0.172048971057 0.841561 0.026084 0.539532
0.763160467148 1.398196339607 0.246453791857 0.841618 0.023340 0.539569
0.787735342979 1.396260619164 0.208119407296 0.841618 0.023340 0.539569
0.764397621155 1.491421937943 0.240339428186 0.841263 0.040192 0.539129
0.800068318844 1.525218367577 0.182199016213 0.841263 0.040192 0.539129
0.807710945606 1.532996177673 0.140126690269 0.996817 0.059528 0.053034
0.809848129749 1.516166448593 0.101906724274 0.999034 0.030023 0.032093
0.804165899754 1.643901109695 0.057608775795 0.996406 0.076813 0.035702
0.800798356533 1.660179257393 0.100385531783 0.995790 0.075755 0.051601
0.799247503281 1.686327695847 0.092169582844 0.995790 0.075755 0.051601
0.791322529316 1.786128401756 0.077195912600 0.994344 0.092419 0.052334
0.787606596947 1.795802116394 0.130871579051 0.994344 0.092419 0.052334
0.781181633472 1.855349898338 0.082362435758 0.986951 0.152286 0.052312
0.753455579281 1.929675102234 0.147594228387 0.922924 0.384009 0.027336
0.718029975891 1.913126707077 0.250509858131 0.811293 0.223221 0.540349
0.688099026680 1.930781960487 0.288165837526 0.853531 0.336146 0.398108
0.674349367619 1.943962693214 0.311134517193 0.895875 0.292682 0.334282
0.611223518848 1.941023111343 0.331165134907 0.260713 0.227253 0.938288
0.545701801777 2.043419361115 0.327875882387 0.338899 0.413863 0.844905
0.545406997204 2.083232879639 0.265905350447 0.388173 0.858312 0.335592
0.474916934967 2.072770118713 0.332661330700 0.214568 0.515875 0.829357
0.330219835043 2.117189884186 0.333058655262 0.220600 0.862890 0.454705
0.383918821812 2.136637210846 0.248987480998 0.239305 0.958543 0.154689
0.417614370584 2.126600027084 0.259582310915 0.217439 0.960686 0.172634
0.468727052212 2.131734609604 0.133178174496 0.219771 0.972207 0.080707
0.398192644119 2.146739721298 0.116236940026 0.123898 0.992280 0.005482
0.402531027794 2.145712375641 0.035899918526 0.150273 0.985648 -0.076911
0.407578557730 2.138220071793 -0.052516110241 0.147640 0.986238 -0.074411
0.196184769273 2.157928943634 -0.029966808856 0.041655 0.991844 -0.120462
0.051969885826 2.159830570221 -0.035640452057 0.017100 0.986095 -0.165299
0.081121757627 2.169689655304 0.243403419852 0.037492 0.997296 0.063201
0.202609241009 2.156187057495 0.291357219219 0.117058 0.953562 0.277519
0.066908210516 2.124176740646 0.354175329208 0.024335 0.062426 0.997753
0.031234025955 2.050363063812 0.360141605139 0.009572 0.081897 0.996595
0.269594013691 2.090453863144 0.349291950464 0.042806 0.084513 0.995502
0.305333018303 2.027271747589 0.353683710098 0.040769 0.091454 0.994974
0.235511437058 2.013699293137 0.357791274786 0.040769 0.091454 0.994974
0.375762075186 2.015730142593 0.351760298014 0.067322 0.110682 0.991573
0.464610219002 1.973403811455 0.349832892418 0.076785 0.106583 0.991334
0.416150838137 1.875925779343 0.360491693020 0.062708 0.069309 0.995622
0.290540665388 1.885473251343 0.364556550980 0.035418 0.067617 0.997082
0.326373934746 1.921017765999 0.360910266638 0.035418 0.067617 0.997082
0.229037225246 1.970452308655 0.361028760672 0.035348 0.065340 0.997237
0.139883428812 1.992459297180 0.362732321024 0.035348 0.065340 0.997237
0.077155143023 1.987058281898 0.364038944244 0.007314 0.065824 0.997804
0.036350019276 1.977360129356 0.365001022816 0.009405 0.063742 0.997922
-0.010263994336 1.929626941681 0.368415534496 0.009405 0.063742 0.997922
0.069096311927 1.848990082741 0.372908085585 0.007285 0.061405 0.998086
0.108495458961 1.815435886383 0.374496042728 0.009368 0.059330 0.998195
0.139674976468 1.836536765099 0.372700273991 0.033076 0.060816 0.997601
0.167789116502 1.859487414360 0.370379567146 0.033076 0.060816 0.997601
0.309569895267 1.791884303093 0.369890600443 0.031063 0.067482 0.997237
0.401865124702 1.750286817551 0.368904560804 0.046167 0.054757 0.997432
0.382434219122 1.761297821999 0.369182497263 0.046167 0.054757 0.997432
0.448828697205 1.730947732925 0.367784082890 0.050772 0.057253 0.997068
0.513608872890 1.824291944504 0.358582407236 0.056111 0.073715 0.995700
0.689666509628 1.766778945923 0.329865247011 0.371960 0.090623 0.923814
0.705416381359 1.786550879478 0.314619898796 0.877144 0.139709 0.459456
0.723516702652 1.560180544853 0.326611906290 0.906999 0.089461 0.411521
0.700835406780 1.608002662659 0.336535811424 0.383760 0.062846 0.921292
0.652647852898 1.590593218803 0.357850492001 0.386922 0.065603 0.919776
0.627490818501 1.396340847015 0.438345491886 0.435783 0.326447 0.838765
0.663503706455 1.217624545097 0.489919185638 0.432802 0.329680 0.839043
0.605763256550 1.233403921127 0.512221813202 0.396492 0.307703 0.864935
0.622710406780 1.145323753357 0.534017741680 0.394556 0.279666 0.875279
0.564782738686 0.987296521664 0.603037476540 0.396887 0.225739 0.889676
0.533836066723 0.739842832088 0.657827496529 0.353444 0.142764 0.924498
0.441313356161 0.442002236843 0.687221229076 0.108715 -0.023061 0.993805
0.465716779232 0.273973464966 0.680664718151 0.108715 -0.023061 0.993805
0.429012417793 0.438812285662 0.688481330872 0.108715 -0.023061 0.993805
0.483232021332 0.635888576508 0.676794290543 0.110347 0.039012 0.993127
0.337986856699 0.511014461517 0.697708308697 0.110347 0.039012 0.993127
0.434600710869 0.513008177280 0.686934113503 0.110347 0.039012 0.993127
0.299866378307 0.566311478615 0.699619889259 0.105921 0.043483 0.993423
0.383451670408 0.720226407051 0.684083044529 0.105921 0.043483 0.993423
0.310646951199 0.656229913235 0.694603860378 0.105921 0.043483 0.993423
0.285506218672 0.760336339474 0.691412270069 0.123926 0.153374 0.980367
0.286466270685 0.766635835171 0.690309822559 0.123926 0.153374 0.980367
0.353987365961 0.842285096645 0.669978737831 0.123926 0.153374 0.980367
0.473291516304 0.881145060062 0.647530913353 0.161153 0.163690 0.973260
0.441562265158 0.913879513741 0.647240400314 0.161153 0.163690 0.973260
0.292197912931 0.952213644981 0.659174084663 0.103824 0.164897 0.980831
0.376505553722 0.976529717445 0.646136343479 0.103824 0.164897 0.980831
0.198869809508 0.945356369019 0.667470097542 0.057878 0.168910 0.983931
0.246121808887 0.845690608025 0.681811332703 0.057878 0.168910 0.983931
0.088709078729 0.873734116554 0.681934177876 0.019241 0.152794 0.988071
0.078536108136 0.777163982391 0.697068095207 0.019241 0.152794 0.988071
0.120542697608 0.906183063984 0.676325380802 0.019241 0.152794 0.988071
0.205493733287 0.839760124683 0.685040533543 0.019241 0.152794 0.988071
-0.013932511210 0.976536631584 0.667712986469 0.016978 0.152801 0.988111
0.012323014438 0.874519228935 0.683146238327 0.016978 0.152801 0.988111
0.200359821320 0.630985975266 0.704259395599 0.034720 0.043137 0.998466
0.149937540293 0.621228456497 0.706459045410 0.034720 0.043137 0.998466
0.145177409053 0.718110024929 0.702504277229 0.034720 0.043137 0.998466
0.152996689081 0.578075170517 0.708187341690 0.034720 0.043137 0.998466
0.058071237057 0.616079986095 0.709909796715 0.034650 0.040950 0.998560
0.064631611109 0.530575215816 0.713271677494 0.034650 0.040950 0.998560
0.090593397617 0.529206991196 0.712423980236 0.034650 0.040950 0.998560
-0.001529201865 0.286690354347 0.708973407745 0.023717 -0.031966 0.999207
0.008317511529 0.470201671124 0.714662313461 0.023717 -0.031966 0.999207
-0.003600195050 0.301774084568 0.709509730339 0.023717 -0.031966 0.999207
0.076085560024 0.486313164234 0.713565766811 0.023717 -0.031966 0.999207
0.224206835032 0.413679629564 0.707501769066 0.028066 -0.036382 0.998944
0.056862741709 0.241042256355 0.705918729305 0.028066 -0.036382 0.998944
0.139159828424 0.232444196939 0.703250586987 0.028066 -0.036382 0.998944
0.236488133669 0.271066308022 0.701893687248 0.028066 -0.036382 0.998944
0.249975770712 0.220773950219 0.699602544308 0.095628 -0.036273 0.994756
0.392319619656 0.267001092434 0.687665820122 0.095628 -0.036273 0.994756
0.338136017323 0.219331577420 0.691125035286 0.095628 -0.036273 0.994756
0.315951496363 0.374683529139 0.698847711086 0.095628 -0.036273 0.994756
0.400435328484 0.100403659046 0.675573468208 0.099722 -0.083675 0.991491
0.473988175392 0.021757189184 0.661540389061 0.099722 -0.083675 0.991491
0.462990760803 0.201962307096 0.677704274654 0.099722 -0.083675 0.991491
0.417951017618 -0.190699607134 0.628122746944 0.104523 -0.215342 0.970929
0.350096225739 -0.179189205170 0.637983858585 0.104523 -0.215342 0.970929
0.405651062727 -0.295870900154 0.606121599674 0.104523 -0.215342 0.970929
0.325468361378 -0.146252423525 0.647941410542 0.104523 -0.215342 0.970929
0.438108623028 0.004169891123 0.663158178329 0.081545 -0.104516 0.991175
0.409976184368 0.030527321622 0.668256282806 0.081545 -0.104516 0.991175
0.470195591450 -0.004489146173 0.659600198269 0.081545 -0.104516 0.991175
0.407547801733 0.050904031843 0.670605063438 0.081545 -0.104516 0.991175
0.246355399489 0.169588670135 0.696195304394 0.025317 -0.106771 0.993961
0.152709081769 -0.029890961945 0.677350580692 0.025317 -0.106771 0.993961
0.234867587686 0.077268384397 0.686634838581 0.025317 -0.106771 0.993961
0.149603888392 0.037229627371 0.684603273869 0.025317 -0.106771 0.993961
-0.001826753840 0.188577756286 0.703963935375 0.022971 -0.103917 0.994321
0.097579732537 0.171512782574 0.699893951416 0.022971 -0.103917 0.994321
0.151462793350 0.178708568215 0.699396133423 0.022971 -0.103917 0.994321
0.010546624660 0.026944160461 0.686888396740 0.022971 -0.103917 0.994321
0.138424411416 -0.333515524864 0.616740286350 0.024958 -0.217492 0.975743
0.177772849798 -0.186751723289 0.648357927799 0.024958 -0.217492 0.975743
0.083948381245 -0.134523749352 0.662382960320 0.024958 -0.217492 0.975743
0.170035094023 -0.244888931513 0.635631382465 0.024958 -0.217492 0.975743
0.083597376943 -0.313552796841 0.622302889824 0.015401 -0.221544 0.975029
0.083900339901 -0.268378615379 0.632574379444 0.015401 -0.221544 0.975029
0.260048240423 -0.316804230213 0.614721655846 0.050048 -0.225826 0.972881
0.210578531027 -0.221179291606 0.639542281628 0.050048 -0.225826 0.972881
0.347252249718 -0.293000370264 0.612469434738 0.094157 -0.222210 0.970442
0.284373283386 -0.196792528033 0.640612840652 0.094157 -0.222210 0.970442
0.469359934330 -0.169496461749 0.627142012119 0.159334 -0.230441 0.959953
0.577131390572 -0.107286602259 0.613833367825 0.392695 -0.189827 0.899865
0.528999984264 0.092636242509 0.658950209618 0.452516 -0.056052 0.889993
0.561726570129 0.210191369057 0.648132324219 0.481902 -0.033937 0.875568
0.513213574886 0.416062265635 0.678022027016 0.460401 -0.011941 0.887631
0.562892794609 0.367279410362 0.651788294315 0.442311 -0.022580 0.896577
0.541188836098 0.607754886150 0.661895036697 0.401638 0.032921 0.915207
0.549929201603 0.706152439117 0.654140055180 0.410595 0.086513 0.907704
0.612549483776 0.925276219845 0.596228599548 0.874150 -0.003992 0.485639
0.658169567585 1.111198306084 0.509092688560 0.885403 0.011983 0.464670
0.663782000542 1.177683591843 0.495467007160 0.909696 0.017016 0.414926
0.677887797356 1.238227844238 0.461986720562 0.909696 0.017016 0.414926
0.729067683220 1.260098457336 0.342403739691 0.931270 0.037666 0.362377
0.728588342667 1.312510848045 0.338598370552 0.928935 0.027207 0.369242
0.746206939220 1.432640671730 0.280252635479 0.939175 0.037361 0.341401
0.778654873371 1.715971231461 0.197512209415 0.839833 0.057484 0.539793
0.755837440491 1.607903480530 0.244417905807 0.842055 0.054642 0.536617
0.769421815872 1.781304121017 0.203600615263 0.838175 0.081114 0.539335
0.732669115067 1.762958884239 0.263415783644 0.839208 0.078099 0.538173
0.714377522469 1.872895359993 0.269010961056 0.813028 0.147148 0.563323
0.580724656582 -0.229843422771 0.583329081535 0.460339 -0.211426 0.862199
0.612276554108 -0.412979096174 0.507189393044 0.482703 -0.309747 0.819179
0.661484181881 -0.437867701054 0.467298686504 0.501450 -0.308463 0.808331
0.683916211128 -0.556956291199 0.401226490736 0.567700 -0.334798 0.752082
0.671842157841 -0.712194561958 0.342006564140 0.567548 -0.323165 0.757267
0.698953509331 -0.764439463615 0.299545347691 0.553246 -0.322326 0.768130
0.652463078499 1.931740522385 0.323757082224 0.286211 0.143777 0.947318
0.538683414459 1.710169792175 0.363843917847 0.066288 0.051074 0.996493
0.620472669601 1.757910251617 0.355284631252 0.075589 0.051488 0.995809
0.605605959892 1.780601620674 0.354773670435 0.082312 0.080057 0.993386
0.628395676613 1.753149628639 0.354964375496 0.064512 0.060138 0.996103
0.086684137583 1.595862030983 0.368279516697 -0.001038 0.065416 -0.997858
0.250652402639 1.666013836861 0.372785151005 -0.001038 0.065416 -0.997858
0.192193448544 1.634634971619 0.370759934187 -0.001038 0.065416 -0.997858
-0.000916616991 1.612806200981 0.369448095560 -0.001038 0.065416 -0.997858
0.127887919545 1.658965468407 0.372401058674 -0.001038 0.065416 -0.997858
0.102156817913 1.652485132217 0.371991515160 -0.001038 0.065416 -0.997858
0.773027598858 1.888995051384 0.080516286194 0.953765 0.264713 0.142333
0.749570786953 1.971085548401 -0.021865677088 0.910953 0.411185 0.033053
0.669112741947 2.055149316788 0.055477056652 0.691991 0.718104 0.073987
0.605379581451 2.093983411789 0.036199361086 0.430740 0.902314 0.017124
0.583821594715 2.103956699371 -0.022941362113 0.411062 0.911599 -0.003890
0.591116249561 2.149810314178 -0.188742905855 0.394200 0.863559 0.314440
0.634694457054 2.112627983093 -0.155913829803 0.558177 0.809282 0.183034
0.679445207119 2.076216697693 -0.146932855248 0.748865 0.646405 0.146157
0.727862358093 2.019925355911 -0.174967736006 0.797253 0.597578 0.085368
0.774776697159 1.906942725182 -0.028815507889 0.956013 0.288200 0.054593
0.788131237030 1.822777509689 0.041791737080 0.987404 0.151641 0.045145
0.792568445206 1.798260211945 0.011517082341 0.994453 0.100216 0.031937
0.798693180084 1.727299928665 0.030481714755 0.994985 0.093246 0.036201
0.804038465023 1.692810773849 -0.045760568231 0.996313 0.078969 0.033535
0.812153100967 1.608884692192 -0.084271922708 0.994368 0.074941 0.074941
0.813631236553 1.644151806831 -0.141044884920 0.994924 0.072257 0.070034
0.822621524334 1.400063991547 -0.027797996998 0.992402 0.076164 0.096626
0.833585381508 1.407526135445 -0.080536015332 0.879187 0.310212 0.361662
0.798563241959 1.589120984077 -0.295705229044 0.983828 0.077702 -0.161381
0.760852694511 1.645368218422 -0.446092784405 0.969334 0.126435 -0.210725
0.773450195789 1.640060424805 -0.393652826548 0.966404 0.116480 -0.229121
0.783385217190 1.589951634407 -0.375980794430 0.974589 0.116350 -0.191415
0.779276967049 1.681426048279 -0.342069983482 0.968409 0.102806 -0.227189
0.788168251514 1.672119736671 -0.306928783655 0.981648 0.100963 -0.161783
0.785925090313 1.747814416885 -0.275136440992 0.978125 0.094499 -0.185316
0.805579662323 1.640353918076 -0.220307737589 0.988226 0.090480 -0.123381
0.814734399319 1.633332252502 -0.153993830085 0.986112 0.084050 -0.143241
0.801759064198 1.793389320374 -0.144552230835 0.986793 0.091216 -0.133863
0.793121397495 1.832152843475 -0.085824489594 0.986467 0.144965 0.076607
0.798781514168 1.801542282104 -0.111382618546 0.991039 0.097838 0.090932
0.806801736355 1.721242666245 -0.126962706447 0.994163 0.079578 0.072853
0.764194428921 1.951104879379 -0.179135486484 0.927468 0.350377 -0.130533
0.766385734081 1.927742481232 -0.223603144288 0.900758 0.349394 -0.257991
0.767930209637 1.871972203255 -0.273252546787 0.950228 0.201974 -0.237218
0.750592231750 1.770930290222 -0.407427966595 0.910581 0.245436 -0.332572
0.749373495579 1.722988367081 -0.445685625076 0.857536 0.289936 -0.424933
0.706622600555 1.939871668816 -0.357850611210 0.776470 0.411839 -0.476951
0.738431096077 1.952630281448 -0.282854557037 0.873075 0.379399 -0.306262
0.654996991158 2.052441358566 -0.306673824787 0.563625 0.570395 -0.597476
0.672814309597 1.920448780060 -0.415626347065 0.625816 0.507737 -0.592079
0.553832530975 2.006898403168 -0.421090960503 0.391166 0.675051 -0.625536
0.620400786400 2.017071485519 -0.368344515562 0.406789 0.635919 -0.655843
0.499039024115 2.071225881577 -0.378638684750 0.209499 0.724712 -0.656431
0.400743514299 2.106341123581 -0.374488890171 0.220497 0.699022 -0.680257
0.496943295002 2.125659704208 -0.319721609354 0.233455 0.728569 -0.643961
0.551508069038 2.104330778122 -0.322008103132 0.268623 0.735931 -0.621488
0.561755657196 2.129291534424 -0.287622988224 0.315780 0.857997 -0.405122
0.657305717468 2.100518703461 -0.226007789373 0.508544 0.768502 -0.388313
0.565913438797 2.135051012039 -0.116560511291 0.331027 0.891227 0.310057
0.502494215965 2.172802209854 -0.162205994129 0.151853 0.906863 0.393116
0.475138932467 2.170444726944 -0.146232068539 0.151853 0.906863 0.393116
0.350891113281 2.202979803085 -0.238707333803 0.153247 0.915262 -0.372572
0.371950328350 2.190773725510 -0.259644657373 0.164178 0.903693 -0.395455
0.350784271955 2.162104368210 -0.315868973732 0.144493 0.799927 -0.582442
0.272791862488 2.154810190201 -0.335770547390 0.079863 0.756524 -0.649071
0.281625360250 2.109025955200 -0.389046370983 0.082818 0.765701 -0.637842
0.399221390486 2.112256765366 -0.368463099003 0.107989 0.723377 -0.681956
0.016176775098 2.104863882065 -0.410227090120 0.032367 0.769776 -0.637493
0.103821605444 2.140914440155 -0.361240774393 0.029379 0.782031 -0.622547
0.086588591337 2.139668941498 -0.363587915897 0.029379 0.782031 -0.622547
0.215876832604 2.174519062042 -0.315268635750 0.026637 0.769670 -0.637886
0.031422164291 2.175613403320 -0.321365773678 0.023682 0.784306 -0.619922
0.102429956198 2.212769508362 -0.267020702362 0.051446 0.927338 -0.370671
-0.016505867243 2.219634532928 -0.266441434622 0.051446 0.927338 -0.370671
-0.015184107237 2.231291770935 -0.211034372449 0.017588 0.979053 -0.202846
0.106257937849 2.229759693146 -0.208067849278 0.017588 0.979053 -0.202846
0.138379067183 2.213309288025 -0.128916501999 0.054407 0.957824 0.282159
0.198820769787 2.222407102585 -0.171499416232 0.054407 0.957824 0.282159
0.305404633284 2.209757804871 -0.154194578528 0.095559 0.951660 0.291912
0.416104793549 2.170770645142 -0.090265460312 0.343000 0.936297 0.075486
0.373822897673 2.139176130295 -0.080494955182 -0.023063 0.003008 0.999730
0.231889620423 2.153192043304 -0.055882286280 0.059442 0.987196 -0.148021
0.281915843487 2.148983240128 -0.062859296799 0.065817 0.989566 -0.128170
0.035638153553 2.202171802521 -0.094746917486 0.019335 0.926784 0.375096
0.801035106182 1.183498620987 0.190301761031 0.926658 -0.087675 0.365538
0.788624286652 1.150305986404 0.231989338994 0.951020 0.049785 0.305092
0.819765210152 1.215359449387 0.145850986242 0.969208 -0.071100 0.235753
0.822860062122 1.243611216545 0.127999395132 0.995297 0.067384 0.069593
0.831715822220 1.236660361290 0.025043999776 0.991987 0.071916 0.103879
0.805104434490 -0.313835233450 0.171823829412 0.946308 -0.026532 0.322174
0.819068610668 -0.840530216694 0.087353162467 0.946308 -0.026532 0.322174
0.806116163731 -0.513179063797 0.152436912060 0.946308 -0.026532 0.322174
0.803032577038 0.003270730376 0.187570169568 0.980927 -0.003450 0.194345
0.805543005466 -0.214332222939 0.171506226063 0.980927 -0.003450 0.194345
0.819220244884 0.063690453768 0.119472987950 0.973554 -0.008281 0.228306
0.810965240002 -0.258134782314 0.144142180681 0.973554 -0.008281 0.228306
0.829604148865 0.075316444039 0.075733765960 0.973554 -0.008281 0.228306
0.813136637211 -0.265910357237 0.134665980935 0.973554 -0.008281 0.228306
0.829095780849 -0.038997627795 0.074198789895 0.973554 -0.008281 0.228306
0.837307155132 0.125501126051 0.044630348682 0.973554 -0.008281 0.228306
0.811371147633 -0.100144311786 0.147524163127 0.973554 -0.008281 0.228306
0.833839714527 0.097404487431 0.058453157544 0.973554 -0.008281 0.228306
0.822140872478 -0.799517691135 0.079166397452 0.973554 -0.008281 0.228306
0.838814198971 -0.116843566298 0.002111647278 0.995963 -0.011793 0.088983
0.836510598660 -0.304501354694 0.000951409340 0.995963 -0.011793 0.088983
0.839502096176 -0.377340644598 -0.043520305306 0.995963 -0.011793 0.088983
0.840461373329 -0.301750123501 -0.043409004807 0.995963 -0.011793 0.088983
0.827942371368 -0.833362162113 0.021205954254 0.995963 -0.011793 0.088983
0.840332746506 -0.351167023182 -0.049129404128 0.995963 -0.011793 0.088983
0.835689842701 -0.205808416009 0.024586023763 0.995963 -0.011793 0.088983
0.828665673733 -0.672751307487 0.036340042949 0.995963 -0.011793 0.088983
0.834479451180 -0.551049828529 -0.011849015951 0.995963 -0.011793 0.088983
0.838070273399 -0.136972412467 0.007615715265 0.995963 -0.011793 0.088983
0.826882600784 -0.849153041840 0.030918404460 0.995963 -0.011793 0.088983
0.832302927971 -0.355974823236 0.041145808995 0.995963 -0.011793 0.088983
0.823607623577 0.654977262020 -0.378331065178 0.994934 0.007546 -0.100248
0.827231049538 0.664779365063 -0.339275449514 0.996241 0.007458 -0.086305
0.830754220486 0.278037309647 -0.335460305214 0.996241 0.007458 -0.086305
0.830332338810 0.379031121731 -0.330777257681 0.996241 0.007458 -0.086305
0.832402050495 0.631413042545 -0.284037917852 0.996039 0.007473 -0.088608
0.829927980900 0.584432184696 -0.316139340401 0.996039 0.007473 -0.088608
0.827328383923 0.829164087772 -0.323197335005 0.996039 0.007473 -0.088608
0.840298473835 0.231248259544 -0.231195822358 0.996241 0.007458 -0.086305
0.837836086750 0.263063907623 -0.256257057190 0.996241 0.007458 -0.086305
0.841593086720 0.376311302185 -0.196513116360 0.998649 0.011384 -0.050709
0.834810376167 0.864980041981 -0.216377049685 0.998649 0.011384 -0.050709
0.842686474323 0.315966039896 -0.188962966204 0.998649 0.011384 -0.050709
0.838179171085 0.585929095745 -0.215085670352 0.998649 0.011384 -0.050709
0.837925553322 0.715544760227 -0.189558550715 0.998649 0.011384 -0.050709
0.841358542442 0.358536422253 -0.114659115672 0.999831 0.006992 0.016980
0.840767681599 0.438025563955 -0.109354972839 0.999831 0.006992 0.016980
0.842437028885 0.231623440981 -0.131294146180 0.999831 0.006992 0.016980
0.841314673424 0.434213101864 -0.140969619155 0.999831 0.006992 0.016980
0.822752118111 0.610977172852 -0.391744166613 0.996223 0.009589 -0.086304
0.841453552246 0.122827976942 -0.062409613281 0.999857 -0.000993 0.016879
0.841214239597 0.188360646367 -0.043038107455 0.999857 -0.000993 0.016879
0.840611040592 -0.140009284019 -0.029660962522 0.999857 -0.000993 0.016879
0.842232286930 -0.341177582741 -0.143462076783 0.999857 -0.000993 0.016879
0.840911567211 0.076122879982 -0.032553445548 0.999857 -0.000993 0.016879
0.842785000801 -0.145088210702 -0.163247630000 0.999857 -0.000993 0.016879
0.841600000858 -0.747950077057 -0.133934542537 0.999857 -0.000993 0.016879
0.841861784458 -0.448783546686 -0.128487288952 0.999857 -0.000993 0.016879
0.842937529087 -0.154430866241 -0.173265963793 0.999857 -0.000993 0.016879
0.840347945690 0.163148328662 0.008236559108 0.999857 -0.000993 0.016879
0.841202557087 -0.644367635250 -0.102136224508 0.999857 -0.000993 0.016879
0.840198159218 0.082035072148 0.011587664485 0.999857 -0.000993 0.016879
0.842625021935 -0.149495795369 -0.153760135174 0.999857 -0.000993 0.016879
0.838128745556 -0.420834064484 -0.227394819260 0.997818 -0.005224 -0.065825
0.837873995304 -0.376530885696 -0.235013693571 0.997818 -0.005224 -0.065825
0.836191833019 -0.702758193016 -0.233203530312 0.997818 -0.005224 -0.065825
0.829882681370 -0.775708556175 -0.323324888945 0.997818 -0.005224 -0.065825
0.842080891132 -0.575445234776 -0.154070898890 0.997818 -0.005224 -0.065825
0.835598468781 -0.576777517796 -0.252867400646 0.997818 -0.005224 -0.065825
0.837962806225 -0.255655735731 -0.243838846684 0.997818 -0.005224 -0.065825
0.839484691620 -0.246549263597 -0.221384719014 0.997818 -0.005224 -0.065825
0.839307785034 -0.762115061283 -0.180660784245 0.997818 -0.005224 -0.065825
0.836681962013 -0.629026651382 -0.231935247779 0.997818 -0.005224 -0.065825
0.841999709606 -0.168389409781 -0.189593315125 0.997818 -0.005224 -0.065825
0.841634809971 -0.643348872662 -0.155157759786 0.997818 -0.005224 -0.065825
0.833747744560 -0.406323045492 -0.294986128807 0.993503 0.003250 -0.113760
0.830381333828 -0.607830107212 -0.328723460436 0.993503 0.003250 -0.113760
0.833204269409 0.157397404313 -0.312421441078 0.996111 -0.003182 -0.088048
0.835857927799 0.124272115529 -0.281527012587 0.996111 -0.003182 -0.088048
0.826786100864 -0.591025233269 -0.365036457777 0.996111 -0.003182 -0.088048
0.829522490501 -0.452120810747 -0.337796300650 0.996111 -0.003182 -0.088048
0.838314592838 0.080595344305 -0.252579480410 0.996111 -0.003182 -0.088048
0.826303362846 -0.168522819877 -0.381768435240 0.996111 -0.003182 -0.088048
0.832049131393 -0.089558675885 -0.318895757198 0.996111 -0.003182 -0.088048
0.832251906395 -0.270363360643 -0.311778783798 0.996111 -0.003182 -0.088048
0.830816686153 0.207409650087 -0.340756893158 0.996111 -0.003182 -0.088048
0.838959336281 0.120263479650 -0.246345609426 0.996111 -0.003182 -0.088048
0.784285306931 -0.919936180115 0.154952004552 0.924054 -0.157970 0.348093
0.786680042744 -1.178424715996 0.108417622745 0.898919 -0.061197 0.433820
0.376079738140 -1.156021952629 0.177194938064 0.011542 0.064007 -0.997883
0.272355467081 -1.095458149910 0.179993137717 0.011542 0.064007 -0.997883
0.328976035118 -0.931840002537 0.191274687648 0.011542 0.064007 -0.997883
0.221499457955 -0.852343738079 0.198482960463 -0.026880 0.076340 -0.996719
0.101260676980 -0.956540942192 0.193938642740 -0.026880 0.076340 -0.996719
0.210796207190 -0.858816921711 0.198291167617 -0.026880 0.076340 -0.996719
0.151480615139 -1.081719517708 0.183029949665 -0.026880 0.076340 -0.996719
0.246345251799 -0.881650090218 0.195562690496 -0.026880 0.076340 -0.996719
0.105380639434 -0.740118145943 0.179369434714 -0.015208 -0.202389 -0.979187
0.003393933410 -0.843904733658 0.202638030052 -0.015208 -0.202389 -0.979187
0.173652201891 -0.765471160412 0.183495521545 -0.015208 -0.202389 -0.979187
0.200101464987 -0.750588953495 0.179961264133 -0.015208 -0.202389 -0.979187
0.305457055569 -0.753998339176 0.178908154368 -0.015208 -0.202389 -0.979187
0.307400524616 -0.765223324299 0.181207835674 -0.015208 -0.202389 -0.979187
0.708530306816 -1.716841578484 0.090833462775 0.135226 -0.215074 0.967190
0.528396070004 -2.023344278336 0.029531527311 0.382706 -0.856827 0.345520
0.764991343021 -1.906505465508 -0.112868212163 0.966682 -0.210373 0.145841
0.632597923279 0.191550821066 -0.495743900537 -0.000979 0.002938 -0.999995
0.407643824816 -0.961772918701 -0.500020146370 -0.000979 0.002938 -0.999995
0.134213328362 -0.807036697865 -0.499439299107 -0.000979 0.002938 -0.999995
0.717051625252 0.313214719296 -0.495294243097 -0.000979 0.002938 -0.999995
0.516528546810 -0.320632278919 -0.497642576694 -0.000979 0.002938 -0.999995
0.683540463448 0.382989436388 -0.495034426451 -0.000979 0.002938 -0.999995
0.515733420849 -0.960656464100 -0.500018537045 -0.000979 0.002938 -0.999995
0.273599803448 -0.833678185940 -0.499541461468 -0.000979 0.002938 -0.999995
0.328252464533 -0.469374150038 -0.498190343380 -0.000979 0.002938 -0.999995
0.229784816504 -0.507604062557 -0.498329937458 -0.000979 0.002938 -0.999995
0.319730103016 -0.557512044907 -0.498517334461 -0.000979 0.002938 -0.999995
0.431877464056 -0.094432324171 -0.496800839901 -0.000979 0.002938 -0.999995
0.796137869358 -0.467563897371 -0.498194634914 -0.000979 0.002938 -0.999995
0.818636476994 -0.698291778564 -0.499051690102 -0.000979 0.002938 -0.999995
0.646729290485 -0.321720033884 -0.497649669647 -0.000979 0.002938 -0.999995
0.772605657578 -0.264290213585 -0.497439444065 -0.000979 0.002938 -0.999995
0.365991145372 -0.234670847654 -0.497319936752 -0.000979 0.002938 -0.999995
0.528544545174 -0.621192514896 -0.498758643866 -0.000979 0.002938 -0.999995
0.759344339371 0.398064702749 -0.494980245829 -0.000979 0.002938 -0.999995
0.528759419918 -0.667120993137 -0.498929172754 -0.000979 0.002938 -0.999995
0.783160567284 -0.583057463169 -0.498623073101 -0.000979 0.002938 -0.999995
0.413692831993 -0.247055262327 -0.497367024422 -0.000979 0.002938 -0.999995
0.158037632704 -0.780409276485 -0.499340981245 -0.000979 0.002938 -0.999995
0.733562886715 -0.475385010242 -0.498222172260 -0.000979 0.002938 -0.999995
0.637601494789 -0.685898363590 -0.499001443386 -0.000979 0.002938 -0.999995
0.519714474678 -0.593224167824 -0.498654603958 -0.000979 0.002938 -0.999995
0.240788266063 -0.670383274555 -0.498934507370 -0.000979 0.002938 -0.999995
0.162017002702 -0.796890020370 -0.499402254820 -0.000979 0.002938 -0.999995
0.654176115990 0.081742480397 -0.496152073145 -0.000979 0.002938 -0.999995
0.408462226391 -0.606317639351 -0.498700618744 -0.000979 0.002938 -0.999995
0.151707619429 -0.672395825386 -0.498939841986 -0.000979 0.002938 -0.999995
0.644773662090 0.324197739363 -0.495251744986 -0.000979 0.002938 -0.999995
0.789867520332 -0.555072486401 -0.498519331217 -0.000979 0.002938 -0.999995
0.262248396873 -0.620305716991 -0.498749107122 -0.000979 0.002938 -0.999995
0.598414361477 -0.598091661930 -0.498674511909 -0.000979 0.002938 -0.999995
0.447717428207 -0.123733915389 -0.496910005808 -0.000979 0.002938 -0.999995
0.515328645706 0.140606284142 -0.495930254459 -0.000979 0.002938 -0.999995
0.776839673519 -0.236106961966 -0.497334927320 -0.000979 0.002938 -0.999995
0.590226829052 0.267266869545 -0.495461791754 -0.000979 0.002938 -0.999995
0.650089859962 -0.508386731148 -0.498342722654 -0.000979 0.002938 -0.999995
0.419787198305 -0.910502374172 -0.499830126762 -0.000979 0.002938 -0.999995
0.289725959301 -0.889980792999 -0.499750852585 -0.000979 0.002938 -0.999995
0.430832982063 -0.595817267895 -0.498662143946 -0.000979 0.002938 -0.999995
0.496029317379 -0.130845248699 -0.496937543154 -0.000979 0.002938 -0.999995
0.424517333508 -0.736849486828 -0.499185562134 -0.000979 0.002938 -0.999995
0.494130194187 -0.468164443970 -0.498189717531 -0.000979 0.002938 -0.999995
0.458962172270 -0.185543715954 -0.497139722109 -0.000979 0.002938 -0.999995
0.586948275566 -0.493695169687 -0.498286694288 -0.000979 0.002938 -0.999995
0.688022971153 -0.745796799660 -0.499224960804 -0.000979 0.002938 -0.999995
0.759899616241 -0.072892762721 -0.496728599072 -0.000979 0.002938 -0.999995
0.761244833469 -0.579800367355 -0.498610466719 -0.000979 0.002938 -0.999995
0.788636922836 -0.236197203398 -0.497335553169 -0.000979 0.002938 -0.999995
0.727133989334 0.137030422688 -0.495948523283 -0.000979 0.002938 -0.999995
0.496128678322 -0.886883854866 -0.499744206667 -0.000979 0.002938 -0.999995
0.808200955391 0.218634471297 -0.495647490025 -0.000979 0.002938 -0.999995
0.304975867271 -0.395490288734 -0.497915506363 -0.000979 0.002938 -0.999995
0.566769480705 -0.811975598335 -0.499467790127 -0.000979 0.002938 -0.999995
0.608662784100 -0.481695026159 -0.498242676258 -0.000979 0.002938 -0.999995
0.722672581673 0.413538813591 -0.494921922684 -0.000979 0.002938 -0.999995
0.391109675169 -0.183840394020 -0.497131794691 -0.000979 0.002938 -0.999995
0.634117603302 -0.140439361334 -0.496976405382 -0.000979 0.002938 -0.999995
0.813495516777 -0.018187765032 -0.496526807547 -0.000979 0.002938 -0.999995
0.628529071808 0.163871780038 -0.495846539736 -0.000979 0.002938 -0.999995
0.441890478134 -0.304515749216 -0.497581005096 -0.000979 0.002938 -0.999995
0.205920636654 -0.945859432220 -0.499956339598 -0.000979 0.002938 -0.999995
0.677334547043 -0.174304485321 -0.497103154659 -0.000979 0.002938 -0.999995
0.398503184319 -0.566996097565 -0.498554408550 -0.000979 0.002938 -0.999995
0.411265164614 -0.878047525883 -0.499709397554 -0.000979 0.002938 -0.999995
0.328195214272 -0.728815078735 -0.499153465033 -0.000979 0.002938 -0.999995
0.477285355330 -0.189707428217 -0.497155606747 -0.000979 0.002938 -0.999995
0.631783664227 -0.086772896349 -0.496777117252 -0.000979 0.002938 -0.999995
0.309176445007 -0.646880269051 -0.498848855495 -0.000979 0.002938 -0.999995
0.369708329439 -0.790624499321 -0.499383896589 -0.000979 0.002938 -0.999995
0.741478204727 -0.148159697652 -0.497007578611 -0.000979 0.002938 -0.999995
0.817394912243 -0.780262351036 -0.499355971813 -0.000979 0.002938 -0.999995
0.663936793804 -0.519970536232 -0.498386055231 -0.000979 0.002938 -0.999995
0.465222716331 0.485004305840 -0.494648724794 -0.000979 0.002938 -0.999995
0.423843264580 0.204916715622 -0.495688349009 -0.000979 0.002938 -0.999995
-0.003089338541 -0.086935602129 -0.496758937836 -0.000979 0.002938 -0.999995
0.151497468352 -0.204245015979 -0.497200042009 -0.000979 0.002938 -0.999995
0.123154371977 -0.257770508528 -0.497398048639 -0.000979 0.002938 -0.999995
0.099864631891 0.000054338481 -0.496439039707 -0.000979 0.002938 -0.999995
0.527198374271 0.313491970301 -0.495288223028 -0.000979 0.002938 -0.999995
0.647248566151 0.747860252857 -0.493677824736 -0.000979 0.002938 -0.999995
0.469526529312 0.334549665451 -0.495208054781 -0.000979 0.002938 -0.999995
0.053502023220 0.800281703472 -0.493463337421 -0.000979 0.002938 -0.999995
0.183363914490 0.027467969805 -0.496339917183 -0.000979 0.002938 -0.999995
0.746219038963 0.699140131474 -0.493862152100 -0.000979 0.002938 -0.999995
0.036924302578 0.359872967005 -0.495099633932 -0.000979 0.002938 -0.999995
0.140000060201 -0.275849878788 -0.497465789318 -0.000979 0.002938 -0.999995
0.027253687382 0.655776500702 -0.493999540806 -0.000979 0.002938 -0.999995
0.440540313721 0.866123080254 -0.493231445551 -0.000979 0.002938 -0.999995
0.424675077200 0.113496281207 -0.496028155088 -0.000979 0.002938 -0.999995
0.305488735437 0.707589864731 -0.493816196918 -0.000979 0.002938 -0.999995
0.404128819704 0.178175419569 -0.495787084103 -0.000979 0.002938 -0.999995
0.216857939959 -0.383582174778 -0.497868746519 -0.000979 0.002938 -0.999995
0.276543498039 -0.150070101023 -0.497002840042 -0.000979 0.002938 -0.999995
0.123735547066 -0.425026416779 -0.498019695282 -0.000979 0.002938 -0.999995
0.350273579359 -0.015178304166 -0.496503919363 -0.000979 0.002938 -0.999995
0.074902124703 -0.775162041187 -0.499319404364 -0.000979 0.002938 -0.999995
0.089711338282 0.229453593493 -0.495586097240 -0.000979 0.002938 -0.999995
0.108374342322 -0.711633682251 -0.499084413052 -0.000979 0.002938 -0.999995
0.581091046333 0.677676022053 -0.493936479092 -0.000979 0.002938 -0.999995
0.088056042790 -0.385399192572 -0.497871220112 -0.000979 0.002938 -0.999995
0.274077862501 -0.127095296979 -0.496917366982 -0.000979 0.002938 -0.999995
0.354627370834 0.255427777767 -0.495498329401 -0.000979 0.002938 -0.999995
0.545841395855 0.548710465431 -0.494414627552 -0.000979 0.002938 -0.999995
0.726182937622 0.649500727654 -0.494046002626 -0.000979 0.002938 -0.999995
0.102305710316 -0.489546746016 -0.498258769512 -0.000979 0.002938 -0.999995
0.094499349594 -0.228854194283 -0.497289627790 -0.000979 0.002938 -0.999995
0.078344643116 0.442453920841 -0.494794070721 -0.000979 0.002938 -0.999995
0.497249662876 0.261991441250 -0.495478659868 -0.000979 0.002938 -0.999995
0.281844556332 -0.334354102612 -0.497687935829 -0.000979 0.002938 -0.999995
0.246688067913 0.751435101032 -0.493651270866 -0.000979 0.002938 -0.999995
0.133104756474 -0.282021284103 -0.497488498688 -0.000979 0.002938 -0.999995
0.143732726574 0.838577389717 -0.493324011564 -0.000979 0.002938 -0.999995
0.271223008633 0.231275945902 -0.495585322380 -0.000979 0.002938 -0.999995
0.035635620356 -0.273267298937 -0.497452735901 -0.000979 0.002938 -0.999995
0.164878636599 -0.430507928133 -0.498041421175 -0.000979 0.002938 -0.999995
0.240249544382 0.260789334774 -0.495474606752 -0.000979 0.002938 -0.999995
0.575038075447 0.523377895355 -0.494509756565 -0.000979 0.002938 -0.999995
0.570106625557 0.424147099257 -0.494878381491 -0.000979 0.002938 -0.999995
0.086151629686 -0.107177622616 -0.496837109327 -0.000979 0.002938 -0.999995
0.016035377979 0.170930653811 -0.495801180601 -0.000979 0.002938 -0.999995
0.213109076023 -0.438744515181 -0.498073637486 -0.000979 0.002938 -0.999995
0.357941806316 0.079684287310 -0.496151626110 -0.000979 0.002938 -0.999995
0.224190115929 0.117849029601 -0.496005356312 -0.000979 0.002938 -0.999995
0.491521209478 0.181106686592 -0.495779067278 -0.000979 0.002938 -0.999995
0.531548738480 0.372241258621 -0.495070040226 -0.000979 0.002938 -0.999995
0.277288228273 0.709253191948 -0.493809074163 -0.000979 0.002938 -0.999995
0.396517395973 -0.049274396151 -0.496632188559 -0.000979 0.002938 -0.999995
0.752078115940 0.774533689022 -0.493582159281 -0.000979 0.002938 -0.999995
0.217981725931 0.581240653992 -0.494282871485 -0.000979 0.002938 -0.999995
0.406504571438 0.076032117009 -0.496166795492 -0.000979 0.002938 -0.999995
0.304864168167 0.243830040097 -0.495539784431 -0.000979 0.002938 -0.999995
0.354846686125 0.745930433273 -0.493675321341 -0.000979 0.002938 -0.999995
0.127973973751 -0.140568420291 -0.496962606907 -0.000979 0.002938 -0.999995
0.458477884531 0.616540908813 -0.494159638882 -0.000979 0.002938 -0.999995
0.362808197737 0.211974903941 -0.495660096407 -0.000979 0.002938 -0.999995
0.478160321712 0.494181007147 -0.494615048170 -0.000979 0.002938 -0.999995
0.653791427612 0.642909646034 -0.494068086147 -0.000979 0.002938 -0.999995
0.116307437420 0.840465128422 -0.493316084146 -0.000979 0.002938 -0.999995
0.068590879440 0.150177434087 -0.495880037546 -0.000979 0.002938 -0.999995
0.020853102207 0.315445661545 -0.495264232159 -0.000979 0.002938 -0.999995
0.020900666714 -0.299287557602 -0.497548967600 -0.000979 0.002938 -0.999995
0.061736226082 0.820796787739 -0.493387371302 -0.000979 0.002938 -0.999995
0.710793316364 0.686822235584 -0.493906766176 -0.000979 0.002938 -0.999995
0.475485831499 0.356466621161 -0.495126813650 -0.000979 0.002938 -0.999995
0.575164377689 0.308305442333 -0.495309084654 -0.000979 0.002938 -0.999995
0.208728939295 -0.366701155901 -0.497805744410 -0.000979 0.002938 -0.999995
0.105414405465 -0.417720735073 -0.497991919518 -0.000979 0.002938 -0.999995
0.194467097521 0.480115354061 -0.494657963514 -0.000979 0.002938 -0.999995
0.443132728338 0.754898250103 -0.493644893169 -0.000979 0.002938 -0.999995
0.075699344277 -0.797188818455 -0.499401301146 -0.000979 0.002938 -0.999995
0.516152203083 0.939099669456 0.630765140057 0.125488 0.167732 0.977813
0.332863122225 1.671373009682 0.388377785683 0.183068 0.437898 0.880189
0.214882731438 1.061115622520 0.644879281521 0.060978 0.247644 0.966930
0.049262918532 1.067524552345 0.650682866573 0.017991 0.241085 0.970337
0.415871858597 1.016703248024 0.632491171360 0.174693 0.261362 0.949301
0.436383545399 1.002560496330 0.632541537285 0.176080 0.218445 0.959832
0.585563719273 1.358117222786 0.473203241825 0.281851 0.378313 0.881725
0.595821261406 1.437511205673 0.435611397028 0.262446 0.388420 0.883319
0.786066472530 1.017214536667 0.235395312309 0.623407 -0.018050 0.781689
0.779948711395 0.800535082817 0.235460132360 0.638603 -0.015304 0.769384
0.597672164440 0.647621691227 0.619020104408 0.851222 -0.006745 0.524763
0.582625865936 0.456505984068 0.639401912689 0.846941 -0.012235 0.531547
0.627989411354 0.309545516968 0.554646134377 0.869345 -0.048220 0.491848
0.675754725933 0.273557573557 0.466753125191 0.875542 0.017484 0.482826
0.740845143795 -0.714920103550 0.275284051895 0.923954 -0.048907 0.379363
0.765396535397 -0.810812830925 0.202720269561 0.938373 -0.029444 0.344369
0.660705029964 0.255608558655 0.493841767311 0.876858 -0.012048 0.480598
0.773470461369 0.206333830953 0.252480655909 0.881158 -0.227348 0.414575
0.800287723541 -0.078638091683 0.195861428976 0.578933 -0.026378 0.814948
0.787083923817 -0.465427011251 0.187834829092 0.597924 -0.040799 0.800514
0.780284523964 -0.548338651657 0.189284548163 0.659924 -0.038154 0.750363
0.825440347195 -0.139658898115 -0.392250627279 0.995906 -0.003189 -0.090344
0.736262440681 0.254275202751 0.341737747192 0.903354 -0.011800 0.428733
0.763533294201 0.280586928129 0.268336832523 0.913554 0.217239 0.343841
0.789266288280 0.301293611526 0.215947583318 0.584538 -0.017965 0.811167
0.792529642582 0.612181961536 0.221093535423 0.635186 -0.023732 0.771995
0.720626890659 1.019863724709 0.376888573170 0.564172 0.523754 0.638272
0.695195317268 0.948552548885 0.433900117874 0.929340 -0.098751 0.355774
0.690000295639 0.929648935795 0.445655703545 0.917112 0.006449 0.398576
0.647799789906 -1.024007916451 0.199325188994 -0.329637 0.504806 -0.797816
0.535245180130 -1.081962227821 0.204835921526 -0.259838 0.515007 -0.816855
0.524607598782 -1.095219135284 0.197552323341 -0.229952 0.621026 -0.749299
0.370940446854 -1.110464930534 0.226484686136 -0.162228 0.626170 -0.762623
0.393945813179 -1.153930306435 0.184681266546 -0.123896 0.691132 -0.712030
0.086267814040 -1.145214676857 0.234596326947 -0.067894 0.677495 -0.732388
0.093554422259 -1.133611202240 0.244653433561 -0.067894 0.677495 -0.732388
0.013205224648 -1.146458387375 0.239189401269 -0.041138 0.716368 -0.696509
0.768552005291 -1.872153878212 -0.079846464097 0.970887 -0.211393 0.112658
0.764629662037 -1.886733293533 -0.076639838517 0.948841 -0.268591 0.166013
0.723094940186 -1.938863635063 -0.026768174022 0.835619 -0.495239 0.237653
0.706605672836 -1.965297222137 -0.061201468110 0.461261 -0.826491 0.322725
0.494086533785 -2.054192543030 -0.008270788938 0.397563 -0.846576 0.353909
0.493428945541 -2.075131893158 -0.054720371962 0.429937 -0.813524 0.391578
0.663193702698 -1.989392757416 -0.060690913349 0.464464 -0.823440 0.325912
0.464689582586 -1.995820403099 -0.032056342810 0.519720 -0.553359 -0.650911
0.754968523979 -1.890967607498 -0.110367670655 0.020933 0.000997 0.999780
0.761224150658 -1.826299309731 -0.095533207059 0.840077 -0.542465 -0.001353
0.610473990440 -1.966127038002 0.011679099873 0.420751 -0.724352 -0.546152
0.585676312447 -1.959124803543 -0.009123519063 0.319192 -0.704815 -0.633524
0.515646457672 -2.018253564835 0.015900064260 0.362101 -0.634086 -0.683240
0.521825671196 -2.029786825180 -0.082890041173 0.160303 -0.483851 0.860343
0.533399462700 -1.999951958656 -0.070342957973 0.199980 -0.439957 0.875469
0.674754917622 -1.964481234550 -0.088919952512 0.262410 -0.464972 0.845543
0.724192798138 -1.963539958000 -0.083350948989 0.997132 0.009517 0.075076
0.721794545650 -1.880550503731 -0.061476781964 0.997132 0.009517 0.075076
0.341633856297 -1.260656833649 -0.045645203441 0.003002 0.023017 -0.999731
0.803308904171 -1.305038809776 -0.045303389430 0.003002 0.023017 -0.999731
0.666573166847 -1.326129674911 -0.046162150800 0.003002 0.023017 -0.999731
0.248107850552 -1.267037034035 -0.046054568142 0.003002 0.023017 -0.999731
0.096979066730 -1.366108417511 -0.050311185420 0.005093 0.039723 -0.999198
0.429583072662 -1.318014502525 -0.046762272716 0.005093 0.039723 -0.999198
0.570989191532 -1.336161375046 -0.046752672642 0.005093 0.039723 -0.999198
