-0.052470698953 -1.909607529640 -0.342025339603 0.000978 -0.999999 0.000978
0.138354778290 -1.909607529640 -0.338555067778 0.000978 -0.999999 0.000978
-0.282123982906 -1.894311904907 -0.339924216270 -0.004907 0.000981 0.999987
0.002832338214 -1.893232584000 -0.357136547565 0.004907 -0.000981 -0.999987
0.158161476254 -1.901168227196 -0.356425821781 0.004907 0.000981 -0.999987
0.107582151890 -1.897912740707 -0.349938601255 -0.004907 0.000981 0.999987
0.097046658397 -1.905216217041 -0.368382692337 0.004907 -0.000981 -0.999987
0.253893971443 -1.904465079308 -0.363106727600 0.999999 0.000978 0.000978
0.160875022411 -1.902098178864 -0.361371815205 -0.004907 0.000981 0.999987
0.243494734168 -1.901421666145 -0.379896372557 0.004907 0.000981 -0.999987
0.225096866488 -1.909607529640 -0.374170154333 0.000978 -0.999999 0.000978
-0.143639430404 -1.899068951607 -0.374948620796 -0.004907 0.000981 0.999987
0.251764684916 -1.900930047035 -0.379492402077 0.999999 0.000978 0.000978
0.232476934791 -1.893798351288 -0.385017365217 -0.004907 0.000981 0.999987
-0.130649924278 -1.897547125816 -0.386678665876 -0.004907 0.000981 0.999987
0.162127763033 -1.892203807831 -0.397136271000 -0.004907 0.000981 0.999987
0.126339778304 -1.895890474319 -0.415696144104 0.004907 0.000981 -0.999987
0.086023159325 -1.909607529640 -0.411830782890 0.000978 -0.999999 0.000978
0.194186925888 -1.889237046242 -0.408666521311 -0.004907 0.000981 0.999987
0.181271001697 -1.890330791473 -0.428350567818 0.004907 0.000981 -0.999987
0.210818558931 -1.887429118156 -0.422825068235 0.000978 0.999999 0.000978
-0.058970794082 -1.895579338074 -0.441239148378 0.004907 0.000981 -0.999987
0.185823991895 -1.905980229378 -0.440119504929 0.004907 -0.000981 -0.999987
0.153118640184 -1.901787161827 -0.433549821377 -0.004907 0.000981 0.999987
0.087988153100 -1.887429118156 -0.435546427965 0.000978 0.999999 0.000978
-0.248678788543 -1.900469303131 -0.435388147831 -0.004907 0.000981 0.999987
-0.184048622847 -1.889398455620 -0.453608691692 0.004907 0.000981 -0.999987
0.112518489361 -1.898811340332 -0.452251970768 0.004907 -0.000981 -0.999987
0.217890858650 -1.887429118156 -0.450654774904 0.000978 0.999999 0.000978
-0.262950241566 -1.909607529640 -0.448445349932 0.000978 -0.999999 0.000978
-0.074487522244 -1.895711660385 -0.464784145355 0.004907 -0.000981 -0.999987
0.235940635204 -1.898475646973 -0.463364094496 0.004907 0.000981 -0.999987
-0.273567676544 -1.892887592316 -0.465694874525 -0.004907 0.000981 0.999987
0.169419586658 -1.899307131767 -0.463668406010 -0.004907 0.000981 0.999987
-0.024355173111 -1.887429118156 -0.459970772266 0.000978 0.999999 0.000978
-0.140227109194 -1.889226198196 -0.458366096020 -0.004907 0.000981 0.999987
-0.174598485231 -1.902005910873 -0.458523362875 -0.004907 0.000981 0.999987
0.179713681340 -1.889992594719 -0.471041947603 0.004907 0.000981 -0.999987
0.230581596494 -1.898259758949 -0.470809221268 0.004907 -0.000981 -0.999987
-0.022941339761 -1.887429118156 -0.471756100655 0.000978 0.999999 0.000978
-0.092119693756 -1.905587673187 -0.477048993111 0.004907 0.000981 -0.999987
-0.058847844601 -1.890748381615 -0.470177710056 -0.004907 0.000981 0.999987
0.048590779305 -1.903808951378 -0.459844738245 0.004907 0.000981 -0.999987
-0.006883829832 -1.909607529640 -0.460157841444 0.000978 0.999999 0.000978
-0.163762435317 -1.891379714012 -0.482447326183 -0.004907 0.000981 0.999987
0.083084776998 -1.887429118156 -0.461152315140 0.000978 -0.999999 0.000978
-0.094382777810 -1.899018168449 -0.482129812241 -0.004907 0.000981 0.999987
-0.290250331163 -1.892379045486 -0.480251789093 -0.999999 0.000978 -0.000978
-0.108002603054 -1.891683340073 -0.484035462141 0.004907 0.000981 -0.999987
0.092934727669 -1.896301746368 -0.483116000891 0.004907 0.000981 -0.999987
0.260706037283 -1.837020516396 -0.378120779991 0.061278 0.998107 -0.005193
-0.036639690399 -1.837425470352 -0.482973635197 0.003067 0.998936 0.046010
0.356089979410 -0.965040564537 -0.217176109552 -0.889672 -0.291573 0.351383
0.358460187912 -1.005773425102 -0.245020106435 -0.889672 -0.291573 0.351383
0.376330107450 -0.998086571693 -0.255017280579 0.318391 0.606074 -0.728905
0.370530903339 -0.961116313934 -0.199985668063 0.000978 0.999999 0.000978
0.386746883392 -1.185081362724 -0.487954646349 0.087951 0.029317 0.995693
0.346226274967 -1.167052865028 -0.519888639450 -0.999999 0.000978 0.000978
0.068941272795 1.473887562752 -0.388026922941 -0.004907 0.000981 0.999987
-0.020366139710 1.362000465393 -0.388491719961 -0.004907 0.000981 0.999987
0.012390255928 1.465989947319 -0.388321250677 -0.004907 0.000981 0.999987
-0.065898574889 1.502382159233 -0.388728708029 -0.004907 0.000981 0.999987
-0.018978275359 1.378691673279 -0.388484507799 -0.004907 0.000981 0.999987
0.081868611276 1.537973403931 -0.443892687559 0.998739 0.001024 0.050193
0.081400223076 1.430259585381 -0.434927284718 0.998945 -0.001020 0.045917
0.082232885063 1.315836310387 -0.456201195717 0.998945 -0.001020 0.045917
-0.082613706589 1.322434544563 -0.404776096344 -0.999686 0.001001 0.025017
-0.082481309772 1.503782033920 -0.399552881718 -0.999686 0.001001 0.025017
-0.082429811358 1.522697448730 -0.397500425577 -0.999575 -0.001005 0.029133
-0.036898992956 1.355568647385 -0.474200665951 -0.126333 0.025714 -0.991655
0.027140062302 1.439732313156 -0.473080605268 0.138535 0.025905 -0.990019
-0.035883471370 1.419815063477 -0.472595512867 -0.126333 0.025714 -0.991655
0.058768142015 1.357015013695 -0.470913738012 0.138535 0.025905 -0.990019
0.058801699430 1.375368952751 -0.470413208008 0.138535 0.025905 -0.990019
-0.049049966037 1.554052352905 -0.423312395811 0.016879 0.999857 -0.000993
-0.067589871585 1.284043073654 -0.493807584047 -0.999575 0.001005 0.029133
-0.068835400045 1.320471763611 -0.537998616695 -0.999575 0.001005 0.029133
0.041781492531 1.250983834267 -0.544125080109 0.173397 -0.001133 -0.984851
-0.016869960353 1.327135920525 -0.548727095127 -0.155503 -0.001119 -0.987835
0.063228756189 1.299414873123 -0.491442590952 0.998739 0.001024 0.050193
0.064029306173 1.263756275177 -0.507079303265 0.998739 0.001024 0.050193
0.043089028448 1.335477590561 -0.544059157372 0.173397 -0.001133 -0.984851
0.032627411187 -0.806617259979 -0.601638615131 0.288787 0.013518 -0.957298
0.069162353873 -0.618895947933 -0.583768486977 0.450893 0.009256 -0.892530
0.066171288490 -0.781047999859 -0.585686922073 0.563126 -0.001357 -0.826370
0.073847778141 -0.718701660633 -0.579130113125 0.766502 -0.006905 -0.642205
0.086029201746 -0.627928733826 -0.546439826488 0.999736 -0.022971 0.000999
0.085472501814 -0.653277397156 -0.525292396545 0.999736 -0.022971 0.000999
0.083515085280 -0.742406189442 -0.522885382175 0.999736 -0.022971 0.000999
-0.074133753777 -0.713355302811 -0.579960763454 -0.847731 -0.009495 -0.530341
-0.061030719429 -0.569961726665 -0.587965726852 -0.450890 0.001315 -0.892578
0.017316376790 -1.017081975937 -0.585560917854 0.001334 -0.500299 -0.865851
-0.043214429170 -0.837661087513 -0.599383711815 -0.300571 0.013606 -0.953663
-0.080208502710 -0.958912611008 -0.520848453045 -0.999736 -0.022971 0.000999
-0.031880892813 -1.030418992043 -0.521760702133 -0.587928 -0.808912 0.001364
0.036415398121 -1.026072263718 -0.518456757069 0.587928 -0.808912 0.001364
-0.081002056599 -0.804719567299 -0.508249938488 -0.883069 -0.017367 0.468922
-0.088554203510 -0.578893542290 -0.548349320889 -0.999736 -0.022971 0.000999
-0.046797327697 -0.499049812555 -0.572086930275 -0.461293 0.632391 -0.622326
-0.063157670200 -0.503575980663 -0.525879144669 -0.587928 0.808912 0.001364
-0.060753673315 -0.888110399246 -0.485948652029 -0.476155 0.001326 0.879361
-0.053852770478 -0.733286380768 -0.482514679432 -0.481358 0.001326 0.876523
-0.047578632832 -0.688118517399 -0.479485929012 -0.306605 0.003694 0.951830
-0.059663958848 -0.531862974167 -0.491358160973 -0.474921 0.153436 0.866549
0.021853016689 -0.520395278931 -0.480892866850 0.168292 0.231898 0.958071
0.054466813803 -0.702668190002 -0.483648508787 0.476155 0.001326 0.879361
0.015938594937 -0.533857643604 -0.598159492016 0.186031 0.253925 -0.949165
-0.033815439790 -0.498142898083 -0.580689251423 -0.274508 0.379511 -0.883525
0.039462249726 -1.005292773247 -0.472388654947 0.591733 -0.745680 -0.306290
0.042550783604 -1.040342926979 -0.382835596800 0.623672 -0.717142 -0.311030
0.038757219911 -1.079576373100 -0.325948923826 0.537327 -0.402584 -0.741084
0.073375537992 -1.086315393448 -0.297108471394 0.537327 -0.402584 -0.741084
0.064888745546 -1.234478831291 -0.190315365791 0.907896 0.200632 0.368066
0.073011204600 -1.324303865433 -0.161260336637 0.907896 0.200632 0.368066
0.049768168479 -1.165698766708 -0.188877329230 0.920223 0.182348 0.346321
0.047143228352 -1.123805522919 -0.203772425652 0.920223 0.182348 0.346321
-0.020528370515 -1.286924839020 -0.109749965370 -0.042044 0.462481 0.885632
0.019713347778 -1.214714646339 -0.145481467247 -0.042044 0.462481 0.885632
0.014537125826 -1.054296135902 -0.229384511709 -0.033754 0.460409 0.887065
-0.030834898353 -1.043334960938 -0.236858159304 -0.033754 0.460409 0.887065
0.028147548437 -0.941796600819 -0.333339810371 -0.043999 0.956656 0.287877
0.064777217805 -0.951515614986 -0.461444735527 0.904712 0.408172 0.122031
0.064607501030 -0.965287744999 -0.423695176840 0.943095 0.308087 0.125118
-0.044180575758 -0.952969968319 -0.307174026966 -0.041489 0.956759 0.287908
-0.055133517832 -0.936077296734 -0.436969548464 -0.966652 0.245120 0.074164
-0.063783310354 -0.959430992603 -0.455832123756 -0.941381 0.311993 0.128309
-0.059091914445 -1.038340210915 -0.366082191467 -0.552451 -0.770229 -0.318660
-0.045905988663 -0.994903266430 -0.492629051208 -0.517999 -0.784215 -0.341591
-0.015615803190 -1.124561190605 -0.318124383688 -0.459733 -0.401661 -0.792031
-0.007522362284 -1.234974861145 -0.266804784536 -0.459733 -0.401661 -0.792031
0.012503169477 -1.203052282333 -0.280685037374 0.607388 -0.358539 -0.708893
-0.019009443000 -1.339066863060 -0.205406799912 -0.539658 -0.401873 -0.739775
-0.065121039748 -1.059699892998 -0.283684223890 -0.954671 0.142072 0.261572
-0.070006847382 -1.328168869019 -0.157236307859 -0.946010 0.149796 0.287447
-0.234986335039 -1.266724824905 -0.480557292700 0.001230 -0.308835 -0.951115
0.138581082225 -1.248575925827 -0.486454218626 0.001230 -0.308835 -0.951115
-0.284830361605 -1.287693977356 -0.457654327154 0.001364 -0.808912 -0.587928
-0.241296634078 -1.227352261543 -0.485881894827 0.001230 0.308835 -0.951115
0.027116060257 -1.222891449928 -0.484432488680 0.001230 0.308835 -0.951115
0.134959995747 -1.191051483154 -0.405978173018 0.001364 0.808912 0.587928
-0.139626383781 -1.184564828873 -0.418516159058 0.000978 0.999999 0.000978
-0.089849561453 -1.184564828873 -0.445200711489 0.000978 0.999999 0.000978
-0.213047415018 -1.185559153557 -0.451548039913 0.001364 0.808912 -0.587928
-0.117929995060 -1.202388525009 -0.474711418152 0.001364 0.808912 -0.587928
-0.305678486824 -1.256788730621 -0.435121029615 -0.999917 0.012857 0.000989
-0.212885692716 -1.293124794960 -0.425146043301 0.000978 -0.999999 0.000978
-0.056069329381 -1.291626334190 -0.452241867781 0.001364 -0.808912 -0.587928
0.168204650283 -1.254911422729 -0.380689859390 0.001230 -0.308835 0.951115
-0.225889742374 -1.209988594055 -0.384845525026 0.001230 0.308835 0.951115
-0.057578414679 -1.212694168091 -0.383966416121 0.001230 0.308835 0.951115
-0.292067706585 -1.195202708244 -0.400264531374 0.001364 0.808912 0.587928
-0.177362829447 -1.252215981483 -0.379814058542 0.001230 -0.308835 0.951115
-0.111366927624 -1.275835394859 -0.391109377146 0.001364 -0.808912 0.587928
-0.240858271718 -1.274404525757 -0.389139920473 0.001364 -0.808912 0.587928
0.106935083866 -1.287781238556 -0.407551407814 0.001364 -0.808912 0.587928
0.192800968885 -1.293124794960 -0.422540605068 0.000978 -0.999999 0.000978
0.294764369726 -1.255396008492 -0.480579793453 0.999999 -0.000978 -0.000978
0.167795583606 -1.487069845200 -0.246333867311 0.001230 0.308835 -0.951115
0.164994806051 -1.458223462105 -0.231124565005 -0.001364 0.808912 -0.587928
0.139765501022 -1.337208986282 -0.105644270778 0.000978 0.999999 0.000978
0.180371403694 -1.346458196640 -0.332342892885 0.001294 -0.415362 -0.909655
0.201551765203 -1.474490642548 -0.096112400293 -0.026083 -0.286908 -0.957603
0.310497164726 -1.362084627151 -0.021090695634 0.393754 0.374929 -0.839277
0.169748246670 -1.485174536705 -0.063411399722 0.242016 -0.256006 0.935890
0.266554772854 -1.606837511063 -0.068086795509 0.573049 -0.818038 -0.049279
0.256187528372 -1.612918376923 -0.083360217512 0.087909 -0.974432 0.206773
0.293051213026 -1.538900256157 0.005263849162 0.001193 0.967197 -0.254023
0.268854975700 -1.561306595802 -0.070252373815 0.444436 0.790287 -0.421810
0.275171965361 -1.568475961685 -0.075096540153 0.563958 0.700373 -0.437525
0.266215384007 -1.591515183449 -0.099166035652 0.906581 -0.072254 -0.415800
-0.329773783684 -1.417601704597 -0.238133281469 -0.693261 -0.308655 -0.651246
-0.418136060238 -1.390725493431 -0.106590315700 0.122459 0.983306 -0.134583
-0.404595732689 -1.521781444550 -0.176199093461 0.200132 -0.954994 -0.218937
-0.282840281725 -1.494041919708 -0.282845973969 0.109310 -0.988488 -0.104608
0.532373011112 -1.195231437683 -0.525389432907 0.167679 0.977506 0.127933
0.476044416428 -1.186019897461 -0.518671274185 0.171914 0.982196 0.075738
0.396596431732 -1.212254047394 -0.510217487812 0.025067 0.001003 0.999685
0.373157590628 -1.275062084198 -0.509532034397 0.025067 0.001003 0.999685
0.499966233969 -1.229861617088 -0.512816369534 0.025067 0.001003 0.999685
0.535973846912 -1.300322771072 -0.511253416538 0.011352 0.341822 0.939696
0.401991248131 -1.300981402397 -0.526014745235 0.000978 0.000978 -0.999999
0.741755485535 -1.243737578392 -0.526014745235 0.000978 0.000978 -0.999999
0.634296059608 -1.245815992355 -0.526014745235 0.000978 0.000978 -0.999999
0.382756769657 -1.242290854454 -0.526014745235 0.000978 0.000978 -0.999999
0.689674019814 -1.280809164047 -0.349984496832 0.204554 -0.978855 0.001156
0.695125401020 -1.213699340820 -0.381726145744 0.002938 0.000979 -0.999995
0.761241197586 -1.267601132393 -0.352112799883 -0.002938 -0.000979 0.999995
0.694118916988 -1.212990999222 -0.352362185717 -0.002938 -0.000979 0.999995
0.663638651371 -1.199216365814 -0.363310158253 -0.027126 0.999632 0.001005
0.646932184696 -1.248206615448 -0.372627437115 -0.999131 -0.001016 0.041673
0.292153179646 -1.068793296814 -0.506502270699 0.132140 0.988130 0.078349
0.304399669170 -1.111578106880 -0.510988414288 0.999995 -0.002938 -0.000979
0.304112106562 -1.192597746849 -0.523839354515 0.999995 -0.002938 0.000979
0.257051527500 -1.245962262154 -0.530891358852 -0.024048 -0.998502 0.049141
0.168751925230 -1.058194637299 -0.533009290695 0.000978 0.000978 -0.999999
0.198668539524 -1.213313937187 -0.533009290695 0.000978 0.000978 -0.999999
0.121904931962 -1.059391021729 -0.496463000774 -0.999856 -0.016913 -0.000995
0.215201526880 -1.057656884193 -0.516857504845 0.136743 0.989374 0.049411
0.191683471203 -1.098750114441 -0.497937560081 0.087863 -0.001059 0.996132
0.203249111772 -1.204212307930 -0.498842298985 0.090344 0.001063 0.995910
0.046970367432 -1.100505709648 -0.533009290695 0.000978 0.000978 -0.999999
0.091132938862 -1.073056936264 -0.491910934448 0.000978 -0.000978 0.999999
0.107082173228 -1.242201328278 -0.517407298088 0.009150 -0.999395 0.033550
0.003241582541 -1.243443608284 -0.528794288635 0.009132 -0.999463 0.031455
0.086577385664 -1.215411901474 -0.533009290695 0.000978 0.000978 -0.999999
0.634713947773 -1.272933244705 -0.211996048689 0.924466 0.001275 0.381263
0.756432294846 -1.282470583916 -0.410706967115 0.000985 0.999960 0.008867
0.758048415184 -1.174996018410 -0.411632537842 0.000985 0.999960 -0.008867
0.765047252178 -1.176457047462 -0.430117934942 0.000978 0.000978 0.999999
-0.699521839619 -1.223225593567 -0.530948996544 -0.167679 0.977506 0.127933
-0.449568212032 -1.181460142136 -0.518135666847 -0.171914 0.982196 0.075738
-0.304212927818 -1.228755474091 -0.522728681564 0.998835 -0.048149 0.003073
-0.372674822807 -1.312519311905 -0.509504079819 -0.039241 -0.997986 0.049846
-0.303025543690 -1.185125946999 -0.507881164551 -0.025067 0.001003 0.999685
-0.526689171791 -1.285699009895 -0.513414323330 -0.025067 0.001003 0.999685
-0.426071584225 -1.249624967575 -0.510912001133 -0.025067 0.001003 0.999685
-0.736219584942 -1.245667815208 -0.518761157990 -0.025017 0.001001 0.999686
-0.707898914814 -1.300642490387 -0.528449296951 -0.038096 -0.995934 0.081634
-0.535667121410 -1.280794858932 -0.526014745235 0.000978 0.000978 -0.999999
-0.698613166809 -1.241765379906 -0.526014745235 0.000978 0.000978 -0.999999
-0.353198051453 -1.226801514626 -0.526014745235 0.000978 0.000978 -0.999999
-0.422076791525 -1.254871129990 -0.526014745235 0.000978 0.000978 -0.999999
-0.542808294296 -1.209265112877 -0.526014745235 0.000978 0.000978 -0.999999
-0.648079931736 -1.219473361969 -0.328789114952 0.999513 0.031203 0.001007
-0.667284905910 -1.268060922623 -0.328754067421 0.000978 0.000978 0.999999
-0.705995023251 -1.201964855194 -0.381685703993 -0.002938 0.000979 -0.999995
-0.755643844604 -1.285074830055 -0.381501287222 -0.002938 0.000979 -0.999995
-0.647638916969 -1.232634544373 -0.355387449265 0.999131 -0.001016 0.041673
-0.664517998695 -1.237057447433 -0.352472275496 0.002938 -0.000979 0.999995
-0.766459107399 -1.287562727928 -0.352093458176 0.002938 -0.000979 0.999995
-0.771146774292 -1.262310981750 -0.379074901342 -0.999941 0.000987 -0.010858
-0.650294125080 -1.244395613670 -0.349283337593 -0.999999 0.000978 0.000978
-0.123843893409 -1.167994499207 -0.500585913658 0.999856 -0.016913 -0.000995
-0.124568901956 -1.209751009941 -0.519241809845 0.999856 -0.016913 0.000995
-0.136336892843 -1.241860985756 -0.489828646183 0.019514 -0.999303 0.031838
-0.128221407533 -1.239204764366 -0.488502442837 -0.091814 0.333988 0.938095
-0.263486802578 -1.234578371048 -0.503423213959 -0.092108 0.340398 0.935759
-0.215197652578 -1.229587435722 -0.499871015549 -0.090344 0.001063 0.995910
-0.137267127633 -1.148859381676 -0.493006646633 -0.090344 0.001063 0.995910
-0.261623501778 -1.187473058701 -0.504114151001 -0.087863 -0.001059 0.996132
-0.297936409712 -1.071991205215 -0.503661453724 -0.032463 -0.370075 0.928434
-0.170233964920 -1.243754982948 -0.526946544647 0.024048 -0.998502 0.049141
-0.304276347160 -1.145882368088 -0.504912376404 -0.999995 -0.002938 0.000979
-0.283501863480 -1.117110013962 -0.533009290695 0.000978 0.000978 -0.999999
-0.274882316589 -1.126166820526 -0.533009290695 0.000978 0.000978 -0.999999
-0.268738627434 -1.087160110474 -0.533009290695 0.000978 0.000978 -0.999999
-0.127997875214 -1.091401815414 -0.533009290695 0.000978 0.000978 -0.999999
-0.057106945664 -1.042050838470 -0.515753984451 -0.041446 0.997891 0.049948
-0.049223419279 -1.079325437546 -0.491880953312 -0.000978 -0.000978 0.999999
-0.103738702834 -1.055919885635 -0.491656392813 0.014126 -0.371132 0.928473
-0.002391304122 -1.091244101524 -0.533009290695 0.000978 0.000978 -0.999999
-0.126295283437 -1.182990670204 -0.520276725292 -0.041530 0.997774 0.052178
-0.039840087295 -1.188872098923 -0.490976929665 0.003822 -0.370729 0.928733
-0.111488908529 -1.223417758942 -0.533009290695 0.000978 0.000978 -0.999999
-0.618400990963 -1.278020501137 -0.234102606773 0.381263 0.001275 -0.924466
-0.735941708088 -1.277083754539 -0.518766343594 0.993536 0.001081 0.113516
-0.769517838955 -1.178722500801 -0.432190418243 -0.994066 0.001077 -0.108776
0.454282671213 1.816004395485 -0.460039913654 0.980397 -0.003456 0.197001
0.432038575411 1.894027352333 -0.429266244173 0.000978 0.999999 0.000978
0.337188690901 1.894027352333 -0.498234838247 0.000978 0.999999 0.000978
0.381955802441 1.894027352333 -0.517588317394 0.000978 0.999999 0.000978
0.461307793856 1.844811797142 -0.507020354271 0.970622 0.003555 -0.240582
0.297997534275 1.808059096336 -0.564663529396 0.000989 0.012857 -0.999917
0.329287141562 1.874642848969 -0.563800632954 0.000989 0.012857 -0.999917
0.112009882927 1.891351461411 -0.563584208488 0.000989 0.012857 -0.999917
0.153631806374 1.852862596512 -0.564082920551 0.000989 0.012857 -0.999917
0.111909955740 1.880491733551 -0.563724935055 0.000989 0.012857 -0.999917
0.084504745901 1.748410701752 -0.565414369106 -0.770352 0.006915 -0.637581
0.061388410628 1.828068614006 -0.472924321890 -0.995277 -0.001067 0.097074
0.073788441718 1.881009817123 -0.436106741428 -0.596220 -0.009639 0.802763
0.338401079178 1.894027352333 -0.436936974525 0.000978 0.999999 0.000978
0.250646561384 1.894027352333 -0.470011413097 0.000978 0.999999 0.000978
0.138334423304 1.853003382683 -0.428480803967 -0.000989 -0.012857 0.999917
0.274529874325 1.883912086487 -0.428080230951 -0.000989 -0.012857 0.999917
0.248455271125 1.820976018906 -0.428895801306 -0.000989 -0.012857 0.999917
0.224950760603 1.787203669548 -0.429333448410 0.000989 -0.012857 0.999917
0.258980751038 1.789624571800 -0.429302066565 0.000989 -0.012857 0.999917
0.320248484612 1.894027352333 -0.526988327503 0.000978 0.999999 0.000978
0.427389502525 1.744520068169 -0.485944569111 0.000978 -0.999999 0.000978
0.148631200194 1.744520068169 -0.451194703579 0.000978 -0.999999 0.000978
0.118664324284 1.744520068169 -0.446503877640 0.000978 -0.999999 0.000978
0.072964161634 1.744520068169 -0.508050322533 0.000978 -0.999999 0.000978
0.170072689652 1.744520068169 -0.547713279724 0.000978 -0.999999 0.000978
0.463540315628 1.744520068169 -0.504290044308 0.000978 -0.999999 0.000978
0.124291867018 1.398667335510 -0.581565678120 0.964435 -0.119750 0.235636
0.144222140312 1.606172204018 -0.546195864677 0.476715 -0.198756 0.856294
0.120082676411 1.589416503906 -0.539741396904 0.001125 -0.165311 0.986241
0.129247277975 1.743173480034 -0.513816833496 0.001125 -0.165311 0.986241
0.075843080878 1.481431007385 -0.599703371525 -0.492084 0.200144 -0.847228
0.115792095661 1.726835489273 -0.564954042435 -0.492084 0.200144 -0.847228
0.088027998805 1.438575744629 -0.614050745964 0.001125 0.165311 -0.986241
0.114834792912 1.599097132683 -0.586985528469 0.001125 0.165311 -0.986241
0.138878166676 1.637919425964 -0.575989067554 0.499612 0.086335 -0.861936
0.067378349602 1.168908238411 -0.554227054119 0.000978 0.000978 0.999999
0.060577832162 1.266999483109 -0.557104289532 0.001028 0.054502 0.998513
0.034719206393 1.221847653389 -0.565032124519 -0.482128 0.115882 0.868403
0.060615554452 1.377793073654 -0.571215867996 -0.482128 0.115882 0.868403
0.054997555912 1.391172766685 -0.594657123089 -0.963664 0.119974 -0.238658
0.082576885819 1.235493421555 -0.602899909019 0.499098 -0.116504 -0.858678
0.077267661691 1.086254596710 -0.585341811180 0.957722 -0.162932 -0.237112
0.056742429733 0.352099180222 -0.573878049850 0.970825 -0.027807 -0.238172
0.067409433424 0.846673130989 -0.566544532776 0.971163 -0.025272 0.237074
0.039443448186 0.260338455439 -0.553378283978 0.489933 -0.006675 0.871734
0.067713126540 1.059731602669 -0.562680900097 0.484725 -0.006677 0.874641
0.054667316377 0.825291693211 -0.557301580906 0.484725 -0.006677 0.874641
0.022136075422 0.465737074614 -0.550148069859 0.000983 0.006883 0.999976
0.030715135857 0.763953566551 -0.552130281925 0.000983 0.006883 0.999976
0.045150376856 0.944096326828 -0.553327679634 0.000983 0.006883 0.999976
0.018253898248 0.850143730640 -0.554748237133 -0.489226 0.017520 0.871981
0.012264164165 0.904205143452 -0.559217154980 -0.486026 0.017502 0.873769
0.020910369232 1.164034605026 -0.579852223396 -0.957722 0.162932 -0.237112
0.013446148485 1.091328620911 -0.592508733273 -0.500633 0.083204 -0.861652
0.053720559925 0.477462768555 -0.589287698269 0.501999 -0.020296 -0.864630
0.053231079131 0.305182516575 -0.582830369473 0.970963 -0.027742 -0.237615
0.049789808691 0.670249879360 -0.595824539661 0.505198 -0.020316 -0.862764
0.029266804457 0.568042874336 -0.599704384804 0.000983 -0.006883 -0.999976
0.023214103654 0.350637972355 -0.598259329796 0.000983 -0.006883 -0.999976
0.020064415410 0.464064717293 -0.599013268948 0.000983 -0.006883 -0.999976
0.011543012224 1.043047308922 -0.593933105469 -0.502609 0.006701 -0.864488
-0.005429924931 0.387719541788 -0.589575648308 -0.505777 0.006708 -0.862638
-0.015022548847 0.210577711463 -0.584425866604 -0.971219 0.022866 -0.237088
-0.001742976485 0.778787314892 -0.570416748524 -0.970963 0.027742 0.237615
0.077753849328 -0.185968324542 -0.550308346748 0.291939 -0.001222 0.956436
0.090962976217 0.011253371835 -0.554186940193 0.291258 -0.001219 0.956644
0.111104756594 0.116525776684 -0.587994933128 0.994035 -0.003238 -0.109009
0.106865279377 -0.084660053253 -0.621580839157 0.994267 -0.003239 -0.106876
0.092809423804 -0.042028963566 -0.624860942364 0.083307 -0.001055 -0.996523
0.070738002658 0.018479108810 -0.626735270023 0.085581 -0.001057 -0.996331
0.027957037091 0.000425174832 -0.627274096012 0.000978 -0.000978 -0.999999
0.032799568027 0.065255150199 -0.627274096012 0.000978 -0.000978 -0.999999
0.015084541403 -0.202719181776 -0.627274096012 0.000978 0.000978 -0.999999
-0.033218614757 -0.147618651390 -0.627274155617 0.000978 0.000978 -0.999999
-0.080723315477 0.022749170661 -0.624580621719 -0.063217 -0.001036 -0.997999
-0.083204321563 0.082898147404 -0.611508965492 -0.997987 -0.003115 -0.063348
-0.084047488868 -0.187141880393 -0.588756263256 -0.997987 -0.003115 -0.063348
-0.082959935069 -0.188826769590 -0.576902508736 -0.993508 -0.001083 0.113760
-0.062403321266 -0.002566948533 -0.553794980049 -0.297786 -0.001225 0.954632
0.011370889843 -0.035430535674 -0.546123623848 -0.000978 -0.000978 0.999999
0.041712604463 -0.122067630291 -0.546123564243 -0.000978 0.000978 0.999999
0.031676668674 -0.117096260190 -0.546123623848 -0.000978 0.000978 0.999999
0.008136706427 -0.229400962591 -0.548607885838 0.000978 -0.999999 0.000978
-0.077316328883 -0.281652718782 -0.578090071678 -0.854193 0.467160 0.228289
0.013282071799 -0.227252215147 -0.600440740585 0.494328 -0.234156 -0.837144
-0.017302598804 -0.307513237000 -0.585269391537 0.876724 -0.431687 -0.212135
-0.004366100300 -0.276217401028 -0.574538230896 0.874319 -0.437902 0.209302
-0.247813194990 -0.762403607368 -0.570177853107 0.462081 -0.204871 0.862850
-0.179424703121 -0.572438001633 -0.561977088451 0.457631 -0.201238 0.866070
-0.202907994390 -0.610616028309 -0.561208248138 0.000978 0.000978 0.999999
-0.155408397317 -0.467597216368 -0.561794817448 -0.445567 0.240153 0.862436
-0.124627627432 -0.394279986620 -0.604981601238 -0.457169 0.244532 -0.855103
-0.082701615989 -0.378598451614 -0.610178589821 -0.000978 -0.000978 -0.999999
-0.095851033926 -0.416217356920 -0.608103394508 0.458015 -0.248028 -0.853642
-0.119093261659 -0.489047467709 -0.599463999271 0.454420 -0.247728 -0.855648
-0.264549106359 -0.814415752888 -0.589526236057 0.890716 -0.394396 -0.226002
-0.296003401279 -0.910178124905 -0.566738247871 0.960332 -0.008520 0.278728
-0.300076335669 -0.889473319054 -0.562190234661 0.486998 0.325194 0.810606
-0.329870164394 -0.840209484100 -0.563811421394 -0.464428 0.204587 0.861656
-0.310648679733 -0.794224977493 -0.606685161591 -0.479512 0.208941 -0.852298
-0.203527152538 -0.546013772488 -0.605613946915 -0.472424 0.208467 -0.856363
-0.316428661346 -0.840428352356 -0.610003292561 -0.000978 -0.000978 -0.999999
-0.302039444447 -0.947658360004 -0.553980350494 0.961320 -0.216988 -0.169645
-0.349250763655 -1.021238088608 -0.489472925663 -0.090447 -0.834120 -0.544116
-0.322077363729 -1.227287650108 -0.265123248100 -0.009709 -0.667169 -0.744843
-0.355060786009 -1.119978666306 -0.354303032160 -0.548821 -0.599482 -0.582595
-0.226033821702 -1.358138918877 -0.190745577216 0.834599 0.297960 -0.463319
-0.260651081800 -1.305806636810 -0.214115649462 0.512118 -0.004032 -0.858906
-0.300578296185 -1.199877381325 -0.279473096132 0.532838 -0.516029 -0.670670
-0.313744366169 -1.159537553787 -0.261773705482 0.532518 0.606901 0.589996
-0.309183627367 -1.214224457741 -0.211495414376 0.009709 0.667169 0.744843
-0.336910873652 -1.051226973534 -0.369715005159 0.073226 0.799744 0.595859
0.434645712376 1.928113341331 -0.514890491962 0.977080 -0.130692 -0.168033
0.371148735285 1.946266770363 -0.525985658169 -0.979318 -0.124730 -0.159309
0.301953971386 1.976906657219 -0.532525956631 0.824283 -0.464940 -0.323094
0.312403231859 1.930963397026 -0.544897377491 -0.185825 -0.817326 -0.545388
0.290984839201 1.891170740128 -0.486977756023 -0.979315 -0.001156 0.202338
0.353554606438 1.923189878464 -0.487049162388 0.823457 0.169491 0.541472
-0.562884926796 -1.932464122772 -0.164234906435 -0.556887 0.001355 -0.830587
0.745606958866 -1.847514152527 -0.155997008085 0.981019 0.001147 0.193909
0.727652907372 -1.838598251343 -0.156122297049 -0.981019 0.001147 0.193909
-0.547189831734 -1.956656098366 -0.163444757462 0.771085 -0.514597 -0.374991
-0.600535809994 1.974717140198 0.187882795930 -0.885403 -0.011983 -0.464670
-0.599208950996 1.979079365730 0.183057337999 -0.966060 -0.025583 -0.257048
-0.599414646626 1.949757575989 0.138820439577 -0.930132 -0.056731 0.362817
-0.614524483681 1.983429193497 0.207168027759 -0.739521 -0.139504 -0.658519
-0.663166403770 1.936930060387 0.094715677202 0.050156 -0.043753 0.997783
-0.741946518421 1.900449633598 0.161135151982 -0.997567 0.050361 -0.048218
-0.596267104149 1.965693712234 0.204873710871 0.891390 0.014613 0.453001
-0.584839224815 1.977244138718 0.167887002230 0.997896 0.043665 0.047925
0.656916022301 1.965246081352 0.236304059625 0.448944 0.891024 0.067273
0.603466153145 1.973831415176 0.193671554327 0.891965 -0.011928 -0.451947
0.740167319775 1.928192973137 0.168654620647 0.985927 0.019467 0.166039
0.711282670498 1.910860300064 0.221913427114 0.554953 -0.015073 0.831745
0.616714596748 1.918355584145 0.095386803150 -0.531176 0.060265 -0.845116
0.581898808479 1.923922538757 0.156446814537 -0.997664 0.043842 0.052396
0.640658497810 1.898144245148 0.234918355942 -0.254188 -0.038067 0.966405
-0.743741154671 1.920222520828 0.178807288408 -0.090153 0.995927 0.001061
-0.772152543068 1.864896297455 0.155673429370 -0.601130 0.243277 -0.761222
-0.778369724751 1.839808106422 0.165969207883 -0.573915 0.231744 0.785440
-0.772185444832 1.864979624748 0.140078827739 -0.573357 0.242154 0.782703
-0.788293778896 1.831768631935 0.111173778772 0.908224 -0.418483 0.001296
0.765787184238 1.876489520073 0.203865885735 0.891275 0.328049 0.313070
-0.766625285149 -1.045629501343 -0.061494227499 -0.001358 -0.566240 -0.824239
-0.735974788666 -1.051216602325 -0.057642683387 -0.001358 -0.566240 -0.824239
-0.793368220329 -1.030294656754 -0.072065450251 -0.001358 -0.566240 -0.824239
-0.618290483952 -1.019552946091 -0.079470299184 -0.001358 -0.566240 -0.824239
-0.661350250244 -0.985302090645 -0.105174764991 -0.001370 -0.790530 -0.612421
-0.797989130020 -0.957963407040 -0.140438392758 -0.001370 -0.790530 -0.612421
-0.793757319450 -0.974010527134 -0.119739480317 -0.001370 -0.790530 -0.612421
-0.715536773205 -0.925787568092 -0.181941300631 0.001370 -0.790530 -0.612421
-0.722025036812 -0.909584820271 -0.202840924263 0.001370 -0.790530 -0.612421
-0.702592849731 -0.931310415268 -0.174817532301 0.001370 -0.790530 -0.612421
-0.621426582336 -0.896733045578 -0.224755331874 0.001203 -0.963362 -0.268202
-0.755620837212 -0.885802745819 -0.263896226883 0.001203 -0.963362 -0.268202
-0.753783702850 -0.897194802761 -0.223101854324 0.001203 -0.963362 -0.268202
-0.648571312428 -0.866503834724 -0.333004653454 0.001203 -0.963362 -0.268202
-0.592034697533 -0.868745803833 -0.324976235628 0.001203 -0.963362 -0.268202
-0.615876376629 -0.866724193096 -0.332215607166 0.001203 -0.963362 -0.268202
-0.808726668358 -0.855253815651 -0.381426692009 0.000989 -0.999917 -0.012857
-0.699937820435 -0.855144739151 -0.389563232660 0.000989 -0.999917 -0.012857
-0.797016382217 -0.854593515396 -0.430681526661 0.000989 -0.999917 -0.012857
-0.720823585987 -0.853157222271 -0.537815690041 0.000989 -0.999917 -0.012857
-0.666996598244 -0.854054570198 -0.470881074667 0.000989 -0.999917 -0.012857
-0.601642906666 -0.854295611382 -0.452900826931 0.000989 -0.999917 -0.012857
-0.589617490768 -0.914695382118 -0.355053931475 -0.999999 0.000978 0.000978
-0.589617490768 -1.072937130928 -0.331629514694 -0.999999 0.000978 0.000978
-0.589617490768 -0.923323452473 -0.227342724800 -0.999999 0.000978 0.000978
-0.589617490768 -1.162857770920 -0.284592032433 -0.999999 0.000978 0.000978
-0.589617490768 -1.015803575516 -0.301823109388 -0.999999 0.000978 0.000978
-0.589617490768 -0.971112728119 -0.307386219501 -0.999999 0.000978 0.000978
-0.589617550373 -1.510534048080 -0.324670225382 -0.999999 0.000978 0.000978
-0.589617490768 -1.286542654037 -0.272264003754 -0.999999 0.000978 0.000978
-0.589617490768 -1.277978062630 -0.258167654276 -0.999999 0.000978 0.000978
-0.589617550373 -1.521892666817 -0.332485705614 -0.999999 0.000978 0.000978
-0.589617490768 -1.565850734711 -0.216177210212 -0.999999 0.000978 0.000978
-0.869413673878 -1.597671389580 -0.231918394566 -0.001201 0.964151 -0.265352
-0.745338797569 -1.613311052322 -0.288735300303 -0.001201 0.964151 -0.265352
-0.908090710640 -1.579551696777 -0.194544032216 -0.001365 0.806665 -0.591008
-0.890511035919 -1.542152166367 -0.143318101764 -0.001365 0.806665 -0.591008
-0.658278942108 -1.522542715073 -0.116458959877 0.001365 0.806665 -0.591008
-0.883176207542 -1.518683433533 -0.111172981560 0.001365 0.806665 -0.591008
-0.825611650944 -1.443988084793 -0.062896504998 0.001344 0.525521 -0.850780
-0.836942374706 -1.413480401039 -0.043987423182 0.001344 0.525521 -0.850780
-0.671797037125 -1.423393487930 -0.050131671131 0.001344 0.525521 -0.850780
-0.628564774990 -1.417979717255 -0.046776127070 0.001344 0.525521 -0.850780
-0.608311057091 -1.505937814713 -0.101293809712 0.001344 0.525521 -0.850780
-0.589617490768 -1.083260297775 -0.098367311060 -0.999999 0.000978 0.000978
-0.589617490768 -1.141212463379 -0.083700403571 -0.999999 0.000978 0.000978
-0.589617490768 -1.275777578354 -0.113744556904 -0.999999 0.000978 0.000978
-0.589617490768 -1.376293420792 -0.133887931705 -0.999999 0.000978 0.000978
-0.589617490768 -1.441882252693 -0.139282822609 -0.999999 0.000978 0.000978
-0.589617490768 -0.994576454163 -0.148336410522 -0.999999 0.000978 0.000978
-0.589617490768 -1.128206968307 -0.175610497594 -0.999999 0.000978 0.000978
-0.589617490768 -1.184191107750 -0.186889797449 -0.999999 0.000978 0.000978
-0.589617490768 -1.357457280159 -0.208089500666 -0.999999 0.000978 0.000978
-0.589617490768 -1.059746026993 -0.076552204788 -0.999999 0.000978 0.000978
-0.843867301941 -1.601737618446 -0.246690422297 0.001201 0.964151 -0.265352
-0.834990322590 -1.619295001030 -0.310474693775 0.001201 0.964151 -0.265352
-0.771557688713 -1.636157155037 -0.430617481470 0.000987 0.999941 -0.010858
-0.754967987537 -1.635853767395 -0.403380900621 0.000987 0.999941 -0.010858
-0.698419630527 -1.636093020439 -0.424853920937 0.000987 0.999941 -0.010858
-0.830651164055 -1.636295676231 -0.443060249090 0.000987 0.999941 -0.010858
-0.868199825287 -1.636709570885 -0.480236887932 0.000987 0.999941 -0.010858
-0.819436073303 -1.635975003242 -0.414268910885 0.000987 0.999941 -0.010858
0.801006913185 -1.029147267342 -0.072856381536 -0.001358 -0.566240 -0.824239
0.748653650284 -1.095342278481 -0.027224350721 -0.001358 -0.566240 -0.824239
0.704536139965 -1.039137482643 -0.065969578922 0.001358 -0.566240 -0.824239
0.762507200241 -0.998960673809 -0.093665808439 0.001358 -0.566240 -0.824239
0.589617311954 -1.095867395401 -0.057959862053 0.999999 -0.000978 0.000978
0.589617252350 -1.411073684692 -0.056938584894 0.999999 -0.000978 0.000978
0.589617252350 -1.377707839012 -0.066202975810 0.999999 -0.000978 0.000978
0.639891862869 -1.443312883377 -0.062477946281 0.001344 0.525521 -0.850780
0.795572221279 -1.409207582474 -0.041338995099 0.001344 0.525521 -0.850780
0.833918094635 -1.481154918671 -0.085932806134 0.001344 0.525521 -0.850780
0.746226191521 -1.493904829025 -0.093835502863 0.001344 0.525521 -0.850780
0.598490893841 -1.565791606903 -0.175696983933 0.001365 0.806665 -0.591008
0.624762415886 -1.576768875122 -0.190732419491 0.001365 0.806665 -0.591008
0.631860136986 -1.585216164589 -0.202302590013 0.001365 0.806665 -0.591008
0.794476807117 -1.555139899254 -0.161107063293 0.001365 0.806665 -0.591008
0.680247724056 -1.594166517258 -0.219185844064 0.001201 0.964151 -0.265352
0.604888021946 -1.612973213196 -0.287507951260 0.001201 0.964151 -0.265352
0.687309265137 -1.601108551025 -0.244405075908 0.001201 0.964151 -0.265352
0.806841790676 -1.631908535957 -0.356297135353 0.001201 0.964151 -0.265352
0.800876021385 -1.621939182281 -0.320079803467 0.001201 0.964151 -0.265352
0.859195470810 -1.616611599922 -0.300725728273 0.001201 0.964151 -0.265352
0.699756324291 -1.636271119118 -0.440840542316 0.000987 0.999941 -0.010858
0.824771821499 -1.635872602463 -0.405041038990 0.000987 0.999941 -0.010858
0.765135943890 -1.636756420135 -0.484432309866 0.000987 0.999941 -0.010858
0.896186530590 -1.636623144150 -0.472446799278 0.000987 0.999941 -0.010858
0.589617252350 -1.590218901634 -0.261086791754 0.999999 -0.000978 0.000978
0.589617311954 -1.161465883255 -0.215116366744 0.999999 -0.000978 0.000978
0.589617311954 -1.505365371704 -0.283559113741 0.999999 -0.000978 0.000978
0.589617311954 -1.246246218681 -0.225536987185 0.999999 -0.000978 0.000978
0.589617311954 -1.292036056519 -0.275579243898 0.999999 -0.000978 0.000978
0.589617311954 -0.941857159138 -0.206078976393 0.999999 -0.000978 -0.000978
0.589617311954 -1.007385492325 -0.201815277338 0.999999 -0.000978 -0.000978
0.589617252350 -1.333297967911 -0.212294682860 0.999999 -0.000978 -0.000978
0.589617252350 -1.286339998245 -0.190196976066 0.999999 -0.000978 -0.000978
0.722177147865 -0.916011750698 -0.194551125169 0.001370 -0.790530 -0.612421
0.745499730110 -0.935659050941 -0.169208452106 0.001370 -0.790530 -0.612421
0.649987399578 -0.943281590939 -0.159376308322 0.001370 -0.790530 -0.612421
0.637971341610 -0.895446777344 -0.229362010956 0.001203 -0.963362 -0.268202
0.817220151424 -0.881705164909 -0.278569906950 0.001203 -0.963362 -0.268202
0.669757604599 -0.892040073872 -0.241561383009 0.001203 -0.963362 -0.268202
0.868591487408 -0.856017053127 -0.370557665825 0.001203 -0.963362 -0.268202
0.820681929588 -0.865879654884 -0.335240155458 0.001203 -0.963362 -0.268202
0.589617311954 -0.922138333321 -0.283035039902 0.999999 -0.000978 -0.000978
0.589617252350 -1.378833055496 -0.329093933105 0.999999 -0.000978 -0.000978
0.589617311954 -0.966415047646 -0.331443548203 0.999999 -0.000978 -0.000978
0.589617311954 -1.166993975639 -0.367799997330 0.999999 -0.000978 -0.000978
0.589617311954 -1.096911907196 -0.334362804890 0.999999 -0.000978 -0.000978
0.589617252350 -1.617286562920 -0.366458833218 0.999999 -0.000978 -0.000978
0.725092768669 -0.854337394238 -0.449789732695 0.000989 -0.999917 -0.012857
0.843497395515 -0.854201257229 -0.459945350885 0.000989 -0.999917 -0.012857
0.790867209435 -0.854950428009 -0.404065310955 0.000989 -0.999917 -0.012857
0.714080512524 -0.853084623814 -0.543236196041 0.000989 -0.999917 -0.012857
0.617106974125 -0.854873716831 -0.409787446260 0.000989 -0.999917 -0.012857
0.617920339108 -0.853310644627 -0.526378750801 0.000989 -0.999917 -0.012857
0.866585552692 -0.956652998924 -0.142128676176 0.001370 -0.790530 -0.612421
0.675865769386 -0.973732352257 -0.120098337531 0.001370 -0.790530 -0.612421
0.589617311954 -1.304441690445 -0.152097061276 0.999999 -0.000978 0.000978
0.589617252350 -1.377585887909 -0.107775665820 0.999999 -0.000978 0.000978
0.589617252350 -1.449509263039 -0.115050226450 0.999999 -0.000978 0.000978
0.588725566864 1.276730418205 -0.253833174706 0.999999 -0.000978 0.000978
0.588725626469 1.504454851151 -0.326313972473 0.999999 -0.000978 0.000978
0.588725566864 1.325691103935 -0.249472558498 0.999999 -0.000978 0.000978
0.588725626469 1.322903275490 -0.286331802607 0.999999 -0.000978 0.000978
0.588725626469 1.578427672386 -0.304910659790 0.999999 -0.000978 0.000978
0.588725566864 1.192938685417 -0.253693729639 0.999999 -0.000978 0.000978
0.588725566864 1.464270710945 -0.247766435146 0.999999 -0.000978 -0.000978
0.588725626469 1.594531774521 -0.222396269441 0.999999 -0.000978 -0.000978
0.588725626469 1.735605716705 -0.263078272343 0.999999 -0.000978 -0.000978
0.588725566864 1.425697088242 -0.216724723577 0.999999 -0.000978 0.000978
0.588725566864 1.193023204803 -0.198039576411 0.999999 -0.000978 0.000978
0.588725566864 1.388482809067 -0.160485357046 0.999999 -0.000978 0.000978
0.588725626469 1.329668998718 -0.178183823824 0.999999 -0.000978 0.000978
0.588725626469 1.798528313637 -0.183387666941 0.999999 -0.000978 -0.000978
0.588725626469 1.657303094864 -0.129328668118 0.999999 -0.000978 -0.000978
0.588725626469 1.765679597855 -0.138418644667 0.999999 -0.000978 -0.000978
0.588725566864 1.452967882156 -0.106179475784 0.999999 -0.000978 0.000978
0.588725626469 1.711172223091 -0.098409891129 0.999999 -0.000978 0.000978
0.588725626469 1.702413439751 -0.083084270358 0.999999 -0.000978 -0.000978
0.588753998280 1.600015163422 -0.330130636692 0.999995 -0.000979 0.002938
0.588809788227 1.469726204872 -0.363609552383 0.999995 -0.000979 0.002938
0.588833510876 1.555636405945 -0.366887599230 0.999995 -0.000979 0.002938
0.588879466057 1.600176095963 -0.384377956390 0.999995 -0.000979 0.002938
0.588806211948 1.639903068542 -0.347748339176 0.999995 -0.000979 0.002938
0.588817834854 1.762457251549 -0.343397200108 0.999995 -0.000979 0.002938
0.006171720568 1.000768661499 0.023027645424 0.001052 -0.081042 0.996710
0.010291369632 1.044974684715 -0.054918993264 -0.001065 0.094759 -0.995500
0.753638684750 0.090234190226 0.196882486343 -0.810370 -0.029190 0.585190
0.763097047806 -0.194735348225 0.198063120246 -0.924226 -0.027298 0.380869
-0.777768492699 0.070339292288 0.216830849648 0.070344 -0.040042 0.996719
-0.791469335556 -0.025477893651 0.211048573256 -0.248992 -0.038023 0.967759
-0.808180570602 -0.693292856216 0.180213034153 -0.248992 -0.038023 0.967759
0.718562662601 0.981103479862 0.268505185843 -0.257057 -0.063951 0.964278
0.710668325424 1.345052123070 0.289903491735 -0.177819 -0.060864 0.982179
0.717500329018 0.873749971390 0.260152220726 -0.419421 -0.066510 0.905352
0.751587629318 -0.675025820732 0.148923501372 -0.753069 0.035322 0.656993
0.794537246227 -0.780924618244 0.071860387921 -0.585192 -0.809727 -0.043504
0.785966038704 -0.144743248820 0.207731723785 0.248992 -0.038023 0.967759
0.794274210930 -0.355343222618 0.197223588824 0.248992 -0.038023 0.967759
0.777034521103 0.111450910568 0.218436017632 -0.070344 -0.040042 0.996719
0.774323582649 -0.118570156395 0.208979323506 0.025987 -0.038460 0.998922
-0.766420781612 0.420715093613 0.219678878784 0.936985 -0.333776 -0.103216
-0.749287903309 0.649644136429 0.252813339233 -0.048115 -0.050253 0.997577
-0.734940946102 0.798468649387 0.260741740465 0.177819 -0.060864 0.982179
-0.739591956139 0.568996608257 0.246949911118 0.257057 -0.063951 0.964278
-0.692410707474 1.328771591187 0.281943559647 0.419421 -0.066510 0.905352
-0.692950904369 1.182747006416 0.264190554619 0.863348 -0.071363 0.499538
0.733149528503 0.546329200268 0.242839962244 -0.863348 -0.071363 0.499538
-0.768447458744 -0.765568256378 0.169423684478 0.325263 -0.918475 0.224962
-0.764153003693 0.006035536528 0.212662026286 0.231763 -0.040043 0.971948
0.784998118877 0.328454643488 0.184006869793 -0.756671 0.271259 -0.594867
0.792737960815 0.345249414444 0.217769145966 0.726206 -0.001383 0.687475
0.813288092613 0.090925827622 0.195735827088 0.726206 -0.001383 0.687475
0.616254627705 -0.274653077126 0.556335806847 0.194454 0.375944 -0.906010
0.727038383484 -0.652912378311 0.343217283487 0.195853 0.655412 -0.729436
0.714658856392 -0.678945958614 0.310806900263 0.195756 0.735241 -0.648923
0.595002651215 -0.079940482974 0.643058538437 0.621683 -0.100932 0.776738
0.590219438076 -0.010350892320 0.654376983643 0.616856 -0.073333 0.783652
0.774797022343 -0.774852871895 0.255682855844 0.887991 -0.039196 0.458187
0.704546034336 -0.777441859245 0.346906185150 0.278214 -0.447295 0.850014
0.712015748024 -0.721604585648 0.374415606260 0.278895 -0.454553 0.845931
0.691657423973 -0.707237660885 0.390167325735 0.346900 -0.451445 0.822106
0.608414530754 -0.312900036573 0.591446280479 0.453579 -0.244235 0.857097
0.550028622150 -0.018567260355 0.684142410755 0.587662 -0.061185 0.806790
0.578084528446 0.113984800875 0.672033190727 0.583998 -0.037813 0.810874
0.523670136929 0.144898310304 0.715211570263 0.398197 -0.091681 0.912707
0.545913517475 0.289314925671 0.699436008930 0.654082 0.004149 0.756412
0.538483798504 0.166284158826 0.664377272129 0.195410 0.084800 -0.977049
0.430353999138 -0.168336600065 0.662396430969 0.070184 -0.276908 0.958330
0.531011044979 -0.122483052313 0.668254613876 0.070184 -0.276908 0.958330
0.433238029480 -0.098985962570 0.680509448051 0.045585 -0.250103 0.967146
0.497823536396 -0.038346748799 0.691187560558 0.046261 -0.188601 0.980964
0.366925299168 -0.022891558707 0.702225446701 0.073489 -0.230433 0.970309
0.481182157993 0.042502433062 0.708239376545 0.073651 -0.136781 0.987860
0.359169840813 0.142023488879 0.731474697590 0.076481 -0.140019 0.987191
0.494284778833 0.147333353758 0.721721231937 0.075441 -0.047014 0.996041
0.528280496597 0.447177201509 0.714824795723 0.694514 -0.004159 0.719467
0.550676524639 0.492111682892 0.691547155380 0.699902 0.021039 0.713929
0.546102106571 0.472159504890 0.683147490025 0.187129 0.019759 -0.982137
-0.524719417095 -0.087161727250 0.678972721100 -0.070184 -0.276908 0.958330
-0.379352480173 -0.103736296296 0.681827902794 -0.045585 -0.250103 0.967146
-0.499572157860 -0.062498051673 0.686480104923 -0.046261 -0.188601 0.980964
-0.450172156096 0.031152462587 0.708780527115 -0.073489 -0.230433 0.970309
-0.439571350813 0.043210897595 0.711447358131 -0.073651 -0.136781 0.987860
-0.365592300892 0.112907379866 0.726856768131 -0.076481 -0.140019 0.987191
-0.486679732800 0.270309984684 0.728147804737 -0.075441 -0.047014 0.996041
-0.394434690475 0.217077493668 0.732814788818 -0.080471 -0.051810 0.995410
-0.382140904665 0.239060789347 0.734957158566 -0.080471 -0.051810 0.995410
-0.449541687965 0.315545469522 0.733348906040 -0.081634 -0.038096 0.995934
-0.464275658131 0.424788236618 0.736356079578 -0.084329 -0.042712 0.995522
-0.478213250637 0.438646733761 0.735753118992 -0.084329 -0.042712 0.995522
-0.492474824190 0.559217154980 0.736077785492 -0.084011 -0.007444 0.996437
-0.450193405151 0.575865864754 0.739875257015 -0.088983 -0.011793 0.995963
-0.440606981516 0.617273330688 0.740982711315 -0.088608 0.007473 0.996039
-0.339948534966 0.687936246395 0.749737322330 -0.092844 0.003202 0.995675
-0.446738362312 0.755784392357 0.739675641060 -0.092647 -0.003195 0.995694
-0.377408593893 0.816835463047 0.746230542660 -0.090344 -0.001063 0.995910
-0.220776095986 0.790600657463 0.756475210190 -0.052667 0.005163 0.998599
-0.145475029945 0.768539190292 0.759663760662 -0.035582 0.007116 0.999341
-0.037185534835 0.837341308594 0.763152956963 -0.035510 0.005073 0.999356
-0.180116012692 0.896746933460 0.757636010647 -0.035654 0.007131 0.999339
-0.071835227311 0.954053759575 0.761310279369 -0.039643 0.003049 0.999209
-0.192002356052 1.052005290985 0.755327761173 -0.040372 0.021739 0.998948
-0.114370167255 1.068652987480 0.758026659489 -0.040372 0.021739 0.998948
-0.066578030586 1.116825819016 0.758803069592 -0.038303 0.023810 0.998982
-0.154224187136 1.147489428520 0.754670500755 -0.038303 0.023810 0.998982
-0.167778789997 1.225589394569 0.751187264919 -0.038848 0.038848 0.998490
-0.036971710622 1.155448079109 0.758975982666 -0.038848 0.038848 0.998490
-0.054749593139 1.266000032425 0.753393709660 -0.032612 0.047340 0.998346
-0.070971652865 1.305114984512 0.750816345215 -0.033336 0.072048 0.996844
-0.158162429929 1.395747065544 0.741383969784 -0.031187 0.072053 0.996913
-0.170773312449 1.494261741638 0.732492744923 -0.031561 0.085976 0.995797
-0.038867391646 1.483256578445 0.737166523933 -0.027308 0.095031 0.995100
-0.083947882056 1.546763658524 0.730021357536 -0.027142 0.090111 0.995562
-0.003199229948 1.539947152138 0.733174622059 -0.033468 0.076654 0.996496
