0.641375124454 1.050740242004 -0.274914026260 0.001304 0.900850 -0.434129
0.776992917061 1.050327897072 -0.275086373091 0.999268 0.035871 0.013324
0.774000108242 1.072029590607 -0.035734288394 0.997847 0.064140 0.013669
0.773082673550 1.072212219238 0.022136200219 0.989321 0.141981 0.032940
0.766581773758 1.091485500336 0.055217571557 0.060076 -0.856437 0.512744
0.753445565701 1.258044958115 0.139887303114 0.998023 0.011520 0.061787
0.768596708775 1.139881491661 -0.081929236650 0.998023 0.011520 0.061787
0.779335558414 0.935533404350 -0.281927078962 0.999999 0.000978 0.000978
0.779335558414 0.728473544121 -0.250642091036 0.999999 0.000978 0.000978
0.779335558414 0.856395781040 -0.331111460924 0.999999 0.000978 0.000978
0.779335558414 0.834824919701 -0.334279388189 0.999999 0.000978 0.000978
0.779335558414 0.689009726048 -0.320939064026 0.999999 0.000978 0.000978
0.779335558414 0.611244082451 -0.266276031733 0.999999 0.000978 0.000978
0.427877664566 1.078434348106 -0.217274904251 0.001304 0.900850 -0.434129
0.389065802097 1.084197282791 -0.205280795693 0.001304 0.900850 -0.434129
0.494405418634 1.087470531464 -0.198468148708 0.001304 0.900850 -0.434129
0.187672495842 1.053456544876 -0.269260704517 0.001304 0.900850 -0.434129
0.280868142843 1.080486536026 -0.213006883860 0.001304 0.900850 -0.434129
0.146366134286 1.076090693474 -0.222172260284 0.001304 0.900850 -0.434129
0.429008424282 1.131344079971 -0.107327938080 0.001304 0.900850 -0.434129
0.143171966076 1.107879877090 -0.156140297651 0.001304 0.900850 -0.434129
0.212293535471 1.097048640251 -0.178621470928 0.001304 0.900850 -0.434129
0.358942717314 1.135326504707 -0.099073424935 0.001304 0.900850 -0.434129
0.365197420120 1.091921806335 -0.189232304692 0.001304 0.900850 -0.434129
0.035069592297 1.104645490646 -0.162886261940 0.001304 0.900850 -0.434129
0.255086153746 1.140789985657 -0.087751097977 0.001304 0.900850 -0.434129
0.265812784433 1.203922867775 0.043391466141 0.001304 0.900850 -0.434129
0.458502590656 1.179252982140 -0.007804043591 0.001304 0.900850 -0.434129
0.637683331966 1.230998635292 0.099727265537 0.001304 0.900850 -0.434129
0.320745974779 1.159317016602 -0.049249961972 0.001304 0.900850 -0.434129
0.214575380087 1.197627067566 0.030300870538 0.001304 0.900850 -0.434129
0.308250725269 1.187475085258 0.009236872196 0.001304 0.900850 -0.434129
0.519908189774 1.181700944901 -0.002703845501 0.001304 0.900850 -0.434129
0.470114409924 1.186336040497 0.006911806762 0.001304 0.900850 -0.434129
0.514693737030 1.237486720085 0.113173380494 0.001304 0.900850 -0.434129
0.521919012070 1.184652566910 0.003427900374 0.001304 0.900850 -0.434129
0.460459470749 1.240794062614 0.120029538870 0.001304 0.900850 -0.434129
0.532116413116 1.238920807838 0.116156481206 0.001304 0.900850 -0.434129
0.528223454952 1.190987706184 0.016589082778 0.001304 0.900850 -0.434129
0.192175149918 1.155620694160 -0.056960463524 0.001304 0.900850 -0.434129
0.321767449379 1.175776362419 -0.015060245991 0.001304 0.900850 -0.434129
0.235927104950 1.180505275726 -0.005259215832 0.001304 0.900850 -0.434129
0.390365600586 1.260385632515 0.160760119557 -0.001304 0.900850 -0.434129
0.149619907141 1.226340651512 0.090037800372 -0.001304 0.900850 -0.434129
0.213165193796 1.227985739708 0.093425810337 -0.001304 0.900850 -0.434129
0.013180792332 1.202584385872 0.040670625865 -0.001304 0.900850 -0.434129
0.422292798758 1.294501900673 0.231642931700 0.001304 0.900850 -0.434129
0.292876034975 1.282656192780 0.207038626075 0.001304 0.900850 -0.434129
0.517824172974 1.296235084534 0.235242620111 0.001304 0.900850 -0.434129
0.289959847927 1.258805155754 0.157499015331 0.001304 0.900850 -0.434129
0.363795965910 1.282311558723 0.206322908401 0.001304 0.900850 -0.434129
0.401563912630 1.283320069313 0.208417624235 0.001304 0.900850 -0.434129
0.103990443051 1.290961384773 0.224289014935 0.001304 0.900850 -0.434129
0.112650588155 -2.085996389389 -0.283431887627 0.000978 -0.999999 0.000978
0.014048621990 -2.085996389389 -0.296869039536 0.000978 -0.999999 0.000978
0.116060763597 -2.086999893188 -0.268525868654 0.000978 -0.999999 0.000978
0.010512304492 -2.086999893188 -0.249851733446 0.000978 -0.999999 0.000978
0.081202618778 2.035852909088 0.050776250660 0.001042 0.997558 0.069839
0.181222423911 2.034193038940 0.074514217675 0.001042 0.997558 0.069839
0.199973762035 2.036571264267 0.040505226701 0.001042 0.997558 0.069839
0.138141930103 1.482895612717 0.233327955008 0.000978 0.000978 0.999999
0.100631773472 1.830047607422 0.233327955008 0.000978 0.000978 0.999999
0.127408742905 1.603932499886 0.233327955008 0.000978 0.000978 0.999999
0.504173696041 1.367374777794 0.233327955008 0.000978 0.000978 0.999999
0.649443328381 1.330100536346 0.233327955008 0.000978 0.000978 0.999999
0.351525038481 1.598431706429 0.233327955008 0.000978 0.000978 0.999999
0.213975787163 1.709877848625 0.233327955008 0.000978 0.000978 0.999999
0.435680985451 1.414720654488 0.233327955008 0.000978 0.000978 0.999999
0.205321341753 1.435311555862 0.233327955008 0.000978 0.000978 0.999999
0.169198885560 1.696938753128 0.233327955008 0.000978 0.000978 0.999999
0.128895580769 1.328599929810 0.233327955008 0.000978 0.000978 0.999999
0.636271953583 1.354256868362 0.233327955008 0.000978 0.000978 0.999999
0.012167960405 1.702389597893 0.233327955008 0.000978 0.000978 0.999999
0.098087340593 1.559296965599 0.233327955008 0.000978 0.000978 0.999999
0.041158020496 1.768022894859 0.233327955008 0.000978 0.000978 0.999999
0.096062183380 1.315746188164 0.233327955008 0.000978 0.000978 0.999999
0.026855766773 1.318020343781 0.233327955008 0.000978 0.000978 0.999999
0.452538549900 1.447815418243 0.233327955008 0.000978 0.000978 0.999999
0.003500297666 1.832935571671 0.233327955008 0.000978 0.000978 0.999999
0.175187408924 1.322132110596 0.233327955008 0.000978 0.000978 0.999999
0.614685714245 1.331661701202 0.233327955008 0.000978 0.000978 0.999999
0.019137859344 1.495474576950 0.233327955008 0.000978 0.000978 0.999999
0.025290906429 1.635861396790 0.233327955008 0.000978 0.000978 0.999999
0.132074207067 1.704302668571 0.233327955008 0.000978 0.000978 0.999999
0.225315272808 1.556046247482 0.233327955008 0.000978 0.000978 0.999999
0.201043874025 1.744228720665 0.233327955008 0.000978 0.000978 0.999999
0.196621209383 1.914981365204 0.233327955008 0.000978 0.000978 0.999999
0.354717493057 1.805010676384 0.233327955008 0.000978 0.000978 0.999999
0.425377845764 1.600503206253 0.233327955008 0.000978 0.000978 0.999999
0.142452239990 1.919120311737 0.233327955008 0.000978 0.000978 0.999999
0.480723947287 1.656990170479 0.233327955008 0.000978 0.000978 0.999999
0.384263634682 1.731214880943 0.233327955008 0.000978 0.000978 0.999999
0.197664290667 1.820044040680 0.233327955008 0.000978 0.000978 0.999999
0.331681907177 1.762494564056 0.233327955008 0.000978 0.000978 0.999999
0.205068513751 1.832704067230 0.233327955008 0.000978 0.000978 0.999999
0.645284891129 1.629829883575 0.233327955008 0.000978 0.000978 0.999999
0.398428976536 1.794816374779 0.233327955008 0.000978 0.000978 0.999999
0.657079339027 1.798990368843 0.233327955008 0.000978 0.000978 0.999999
0.512888967991 1.865288615227 0.233327955008 0.000978 0.000978 0.999999
0.435091972351 1.881506443024 0.233327955008 0.000978 0.000978 0.999999
0.738405108452 1.688323736191 0.233327955008 0.000978 0.000978 0.999999
0.551439642906 1.651618003845 0.233327955008 0.000978 0.000978 0.999999
0.553847014904 1.802815079689 0.233327955008 0.000978 0.000978 0.999999
0.644075095654 1.820825457573 0.233327955008 0.000978 0.000978 0.999999
0.646557629108 1.457014203072 0.233327955008 0.000978 0.000978 0.999999
0.736324906349 1.624140381813 0.233327955008 0.000978 0.000978 0.999999
0.621673226357 1.798976182938 0.233327955008 0.000978 0.000978 0.999999
0.195228576660 -0.901795446873 -0.478329181671 0.001024 -0.050193 -0.998739
0.116678223014 -1.404741287231 -0.452999204397 0.001024 -0.050193 -0.998739
0.062821462750 -1.330396413803 -0.456743448973 0.001024 -0.050193 -0.998739
0.224875003099 -1.289960145950 -0.458779960871 0.001024 -0.050193 -0.998739
0.038093447685 -1.170369148254 -0.464802950621 0.001024 -0.050193 -0.998739
0.265700459480 -0.963463127613 -0.475223392248 0.001024 -0.050193 -0.998739
0.449554562569 -0.800267577171 -0.483442455530 0.001024 -0.050193 -0.998739
0.136560350657 -1.405482292175 -0.452961891890 0.001024 -0.050193 -0.998739
0.231673702598 -0.971628069878 -0.474812179804 0.001024 -0.050193 -0.998739
0.160626232624 -0.792281091213 -0.483844667673 0.001024 -0.050193 -0.998739
0.185097098351 -0.867227435112 -0.480070143938 0.001024 -0.050193 -0.998739
0.069419622421 -1.341818809509 -0.456168174744 0.001024 -0.050193 -0.998739
0.282435387373 -1.091803669930 -0.468759745359 0.001024 -0.050193 -0.998739
0.157281398773 -0.880928158760 -0.479380130768 0.001024 -0.050193 -0.998739
0.038018658757 -1.301372170448 -0.458205193281 0.001024 -0.050193 -0.998739
0.026737868786 -1.193668842316 -0.463629484177 0.001024 -0.050193 -0.998739
0.195388048887 -0.981555700302 -0.474312186241 0.001024 -0.050193 -0.998739
0.092198364437 -1.338700771332 -0.456325203180 0.001024 -0.050193 -0.998739
0.037323851138 -1.544594526291 -0.445955753326 0.001024 -0.050193 -0.998739
0.298763483763 -1.117582201958 -0.467461466789 0.001024 -0.050193 -0.998739
0.110322475433 -0.837624728680 -0.481561034918 0.001024 -0.050193 -0.998739
0.067318007350 -1.181257605553 -0.464254558086 0.001024 -0.050193 -0.998739
0.195990115404 -0.921337068081 -0.477345019579 0.001024 -0.050193 -0.998739
0.070702284575 -0.831595301628 -0.481864690781 0.001024 -0.050193 -0.998739
0.201438993216 -1.420307755470 -0.452215224504 0.001024 -0.050193 -0.998739
0.414077520370 -1.360571861267 -0.455223709345 0.001024 -0.050193 -0.998739
0.447285234928 -1.046282291412 -0.471052348614 0.001024 -0.050193 -0.998739
0.198883056641 -1.526968717575 -0.446843445301 0.001024 -0.050193 -0.998739
0.233915954828 -1.437331557274 -0.451357841492 0.001024 -0.050193 -0.998739
0.360476255417 -1.419327855110 -0.452264577150 0.001024 -0.050193 -0.998739
0.455630153418 -0.947533905506 -0.476025640965 0.001024 -0.050193 -0.998739
0.390994310379 -1.654672741890 -0.440411835909 0.001024 -0.050193 -0.998739
0.516062021255 -0.954687952995 -0.475665330887 0.001024 -0.050193 -0.998739
0.525790393353 -1.103653073311 -0.468162983656 0.001024 -0.050193 -0.998739
0.319253504276 -1.432931065559 -0.451579481363 0.001024 -0.050193 -0.998739
0.483436346054 -1.244870424271 -0.461050808430 0.001024 -0.050193 -0.998739
0.486482977867 -1.423955559731 -0.452031493187 0.001024 -0.050193 -0.998739
0.275961071253 -1.296334505081 -0.458458930254 0.001024 -0.050193 -0.998739
0.521568417549 -0.887673676014 -0.479040414095 0.001024 -0.050193 -0.998739
0.238881051540 -1.606067299843 -0.442859768867 0.001024 -0.050193 -0.998739
0.465468764305 -1.524673461914 -0.446959018707 0.001024 -0.050193 -0.998739
0.466878473759 -1.129707217216 -0.466850817204 0.001024 -0.050193 -0.998739
0.274977803230 -1.656689047813 -0.440310299397 0.001024 -0.050193 -0.998739
0.358178853989 -1.594993472099 -0.443417489529 0.001024 -0.050193 -0.998739
0.522415518761 -1.373777031898 -0.454558670521 0.001024 -0.050193 -0.998739
0.303412497044 -1.282169461250 -0.459172308445 0.001024 -0.050193 -0.998739
0.178207591176 -1.642563939095 -0.441021680832 0.001024 -0.050193 -0.998739
0.087497189641 -1.633957386017 -0.441455125809 0.001024 -0.050193 -0.998739
0.529890239239 -1.039168715477 -0.437717318535 0.999999 0.000978 0.000978
0.529890239239 -1.599030137062 -0.284393280745 0.999999 0.000978 0.000978
0.529890239239 -1.258833765984 -0.313344359398 0.999999 0.000978 0.000978
0.529890239239 -1.324773550034 -0.448494940996 0.999999 0.000978 0.000978
0.529890239239 -1.264494538307 -0.458083659410 0.999999 0.000978 0.000978
0.529890239239 -1.354237318039 -0.177467778325 0.999999 0.000978 0.000978
0.529890239239 -1.409126758575 -0.403387308121 0.999999 0.000978 0.000978
0.529890239239 -1.554158687592 -0.340366214514 0.999999 0.000978 0.000978
0.529890239239 -1.119464635849 -0.463249891996 0.999999 0.000978 0.000978
0.529890239239 -0.910169661045 -0.461863487959 0.999999 0.000978 0.000978
0.529890239239 -1.541435956955 -0.332570433617 0.999999 0.000978 0.000978
0.529890239239 -1.433818817139 -0.162838310003 0.999999 0.000978 0.000978
0.529890239239 -1.397188782692 -0.292184799910 0.999999 0.000978 0.000978
0.529890239239 -1.671123743057 -0.438611894846 0.999999 0.000978 0.000978
0.529890239239 -1.667981266975 -0.365242600441 0.999999 0.000978 0.000978
0.529890239239 -0.872094511986 -0.445388555527 0.999999 0.000978 0.000978
0.529890239239 -1.557729721069 -0.091374672949 0.999999 0.000978 0.000978
0.529890239239 -1.287083268166 -0.414352864027 0.999999 0.000978 0.000978
0.529890239239 -1.542978763580 -0.230640143156 0.999999 0.000978 0.000978
0.529890239239 -1.572822570801 -0.159730136395 0.999999 0.000978 0.000978
0.529890239239 -1.040170073509 -0.094746418297 0.999999 0.000978 0.000978
0.529890239239 -0.993812561035 -0.261026293039 0.999999 0.000978 0.000978
0.529890239239 -1.466055870056 -0.054295778275 0.999999 0.000978 0.000978
0.529890239239 -1.134513497353 -0.042981542647 0.999999 0.000978 0.000978
0.529890239239 -1.058403253555 -0.325535595417 0.999999 0.000978 0.000978
0.529890239239 -0.987652599812 -0.352478027344 0.999999 0.000978 0.000978
0.529890239239 -0.838667035103 -0.270429998636 0.999999 0.000978 0.000978
0.529890239239 -1.211066007614 -0.080030016601 0.999999 0.000978 0.000978
0.529890239239 -1.429623007774 -0.040006704628 0.999999 0.000978 0.000978
0.529890239239 -1.006875157356 -0.051759973168 0.999999 0.000978 0.000978
0.529890239239 -0.861330389977 -0.235224723816 0.999999 0.000978 0.000978
0.529890239239 -0.914586722851 -0.232109442353 0.999999 0.000978 0.000978
0.529890239239 -1.478928804398 -0.075896553695 0.999999 0.000978 0.000978
0.529890239239 -1.125585675240 -0.282032966614 0.999999 0.000978 0.000978
0.529890239239 -1.063488364220 -0.070105008781 0.999999 0.000978 0.000978
0.529890239239 -1.477879643440 -0.085821099579 0.999999 0.000978 0.000978
0.529890239239 -1.117664456367 -0.273726224899 0.999999 0.000978 0.000978
0.529890239239 -0.826267242432 -0.029614755884 0.999999 0.000978 0.000978
0.529890239239 -0.871366679668 -0.167122796178 0.999999 0.000978 0.000978
0.529890239239 -0.953818798065 -0.316420018673 0.999999 0.000978 0.000978
0.529890239239 1.211743116379 -0.195028573275 0.999999 0.000978 0.000978
0.529890239239 1.612129330635 -0.310717999935 0.999999 0.000978 0.000978
0.529890239239 1.259729385376 -0.341877162457 0.999999 0.000978 0.000978
0.529890239239 1.673284292221 -0.370903223753 0.999999 0.000978 0.000978
0.529890239239 1.190923810005 -0.346138328314 0.999999 0.000978 0.000978
0.529890239239 1.479460358620 -0.283515363932 0.999999 0.000978 0.000978
0.529890239239 1.201231002808 -0.386390745640 0.999999 0.000978 0.000978
0.529890239239 1.279850363731 -0.236122414470 0.999999 0.000978 0.000978
0.529890239239 1.322308778763 -0.282106637955 0.999999 0.000978 0.000978
0.529890239239 1.197430133820 -0.289485454559 0.999999 0.000978 0.000978
0.529890239239 1.394254446030 -0.204482182860 0.999999 0.000978 0.000978
0.529890239239 0.987619638443 -0.378598362207 0.999999 0.000978 0.000978
0.529890239239 1.072484254837 -0.181766748428 0.999999 0.000978 0.000978
0.529890239239 1.147250413895 -0.230273962021 0.999999 0.000978 0.000978
0.529890239239 1.647415161133 -0.369047939777 0.999999 0.000978 0.000978
0.529890239239 1.377346873283 -0.278095722198 0.999999 0.000978 0.000978
0.529890239239 1.685165882111 -0.360461950302 0.999999 0.000978 0.000978
0.529890239239 1.201044678688 -0.106455117464 0.999999 0.000978 0.000978
0.529890239239 1.372986793518 -0.330608695745 0.999999 0.000978 0.000978
0.529890239239 1.085411787033 -0.449842214584 0.999999 0.000978 0.000978
0.529890239239 1.768836736679 -0.159199163318 0.999999 0.000978 0.000978
0.529890239239 1.637404441833 -0.081664413214 0.999999 0.000978 0.000978
0.529890239239 1.787291526794 -0.193075999618 0.999999 0.000978 0.000978
0.529890239239 1.445738673210 -0.072849713266 0.999999 0.000978 0.000978
0.529890239239 1.640866756439 -0.211134076118 0.999999 0.000978 0.000978
0.529890239239 1.542358279228 -0.179324522614 0.999999 0.000978 0.000978
0.529890239239 1.272056698799 -0.064589612186 0.999999 0.000978 0.000978
0.529890239239 1.426948070526 -0.132193148136 0.999999 0.000978 0.000978
0.529890239239 1.504887223244 -0.030055839568 0.999999 0.000978 0.000978
0.529890239239 1.791896581650 -0.149005159736 0.999999 0.000978 0.000978
0.529890239239 1.726511478424 -0.097501114011 0.999999 0.000978 0.000978
0.529890239239 1.305961251259 -0.023275308311 0.999999 0.000978 0.000978
0.529890239239 1.490723252296 -0.184250548482 0.999999 0.000978 0.000978
0.529890239239 1.436705827713 0.012499168515 0.999999 0.000978 0.000978
0.837333142757 0.656669735909 -0.255126148462 -0.796070 -0.015229 0.605013
-0.676613211632 1.259614467621 -0.577928185463 0.001368 0.603278 0.797530
-0.710661172867 1.418430089951 -0.630325555801 0.001100 -0.135260 0.990809
-0.802223801613 1.440419673920 -0.627312839031 0.001100 -0.135260 0.990809
-0.790918707848 1.520626425743 -0.587609589100 0.001371 -0.615457 0.788169
-0.643731713295 1.501325130463 -0.602637588978 0.001371 -0.615457 0.788169
-0.821757495403 1.481046795845 -0.612712442875 0.001282 -0.393609 0.919277
-0.685184180737 1.540701746941 -0.570192992687 0.001368 -0.797530 0.603278
-0.723291575909 1.568988442421 -0.532569527626 0.001272 -0.926978 0.375114
-0.782276034355 1.583131790161 -0.497707545757 0.001272 -0.926978 0.375114
-0.738540887833 1.552279591560 -0.315156370401 0.001371 -0.788169 -0.615457
-0.837615907192 1.563497543335 -0.329541206360 0.001371 -0.788169 -0.615457
-0.703075349331 1.498618483543 -0.265876859426 0.001368 -0.603278 -0.797530
-0.747156858444 1.519804358482 -0.281959563494 0.001368 -0.603278 -0.797530
-0.697280943394 1.492426276207 -0.261976897717 0.001272 -0.375114 -0.926978
-0.697512507439 1.406724214554 -0.238158300519 0.001091 -0.125512 -0.992091
-0.640251874924 1.435495376587 -0.241805747151 0.001091 -0.125512 -0.992091
-0.671457290649 1.354739785194 -0.242589861155 0.001100 0.135260 -0.990809
-0.773427605629 1.344207406044 -0.244034200907 0.001100 0.135260 -0.990809
-0.681330323219 1.322416186333 -0.253030687571 0.001280 0.390517 -0.920595
-0.739622831345 1.249501705170 -0.303699970245 0.001368 0.797530 -0.603278
-0.726128757000 1.232228636742 -0.326465040445 0.001368 0.797530 -0.603278
-0.661073744297 1.217707276344 -0.516877532005 0.001280 0.920595 0.390517
-0.733876347542 1.229996442795 -0.541277706623 0.001371 0.788169 0.615457
-0.770170450211 1.252655625343 -0.570342361927 0.001371 0.788169 0.615457
-0.675274074078 1.359729409218 -0.737073421478 0.451755 -0.111877 -0.885100
-0.740571439266 1.435146331787 -0.748687505722 -0.001100 0.135260 -0.990809
-0.853543639183 1.448744893074 -0.655381619930 -0.999999 -0.000978 0.000978
-0.719374835491 1.614585042000 -0.666100442410 -0.001371 0.615457 -0.788169
-0.853569746017 1.547786712646 -0.620486736298 -0.999999 -0.000979 0.000979
-0.853585600853 1.594971060753 -0.584967434406 -0.999999 -0.000979 0.000979
-0.853630125523 1.618221402168 -0.592766761780 -0.999999 0.000978 0.000978
-0.801121175289 1.670948624611 -0.580687165260 -0.453070 0.825629 -0.336250
-0.810424983501 1.686053156853 -0.530820310116 -0.453070 0.825629 -0.336250
-0.824742496014 1.687121152878 -0.369026064873 -0.453578 0.882984 0.120859
-0.853630125523 1.652608752251 -0.457967996597 -0.999999 0.000978 0.000978
-0.853630125523 1.673430442810 -0.493015706539 -0.999999 0.000978 0.000978
-0.650467038155 1.623001217842 -0.251448571682 0.451284 0.704402 0.547869
-0.691790878773 1.637428522110 -0.235886678100 0.451284 0.704402 0.547869
-0.853613674641 1.578312039375 -0.234228193760 -0.999999 -0.000978 -0.000978
-0.853573381901 1.522770285606 -0.223300307989 -0.999999 -0.000979 -0.000979
-0.853559672832 1.465169191360 -0.208299636841 -0.999999 -0.000979 -0.000979
-0.853512942791 1.302189826965 -0.252120316029 -0.999999 0.000979 -0.000979
-0.853531122208 1.300570964813 -0.240178003907 -0.999999 0.000979 -0.000979
-0.853537142277 1.254078984261 -0.265779435635 -0.999999 0.000979 -0.000979
-0.837550580502 1.286024451256 -0.703772842884 -0.453070 -0.336250 -0.825629
-0.748332083225 1.271731615067 -0.725565314293 -0.001272 -0.375114 -0.926978
-0.675419211388 1.292082548141 -0.720803141594 0.451891 -0.335376 -0.826630
-0.801129043102 1.237131714821 -0.702206254005 -0.453439 -0.539808 -0.709225
-0.853420615196 1.235233426094 -0.667341232300 -0.453439 -0.539808 -0.709225
-0.853605508804 1.225837707520 -0.630566716194 -0.999999 0.000978 0.000978
-0.853630125523 1.188093781471 -0.318210572004 -0.999999 0.000978 0.000978
-0.731038331985 1.133448481560 -0.612058043480 -0.001371 -0.788169 -0.615457
-0.665081620216 1.146605491638 -0.600789725780 0.451284 -0.704402 -0.547869
-0.663366854191 1.109294772148 -0.521268486977 0.450948 -0.821199 -0.349682
-0.656892418861 1.109751582146 -0.511637985706 0.451315 -0.884121 -0.121015
-0.689746201038 1.083282232285 -0.441020429134 0.451315 -0.884121 -0.121015
-0.664553105831 1.116426825523 -0.331449985504 0.451891 -0.826630 0.335376
-0.669278621674 1.126215815544 -0.300966113806 0.451891 -0.826630 0.335376
-0.707575917244 1.152035713196 -0.234251201153 -0.001368 -0.797530 0.603278
-0.740473926067 1.178527355194 -0.204010888934 -0.001371 -0.615457 0.788169
-0.690524697304 1.136857986450 -0.261585146189 0.450794 -0.710292 0.540620
-0.663903236389 1.254592657089 -0.171342283487 0.452122 -0.350593 0.820165
-0.704425871372 1.265901207924 -0.147044137120 -0.001283 -0.391439 0.920203
-0.741046905518 1.275160193443 -0.143119290471 -0.001283 -0.391439 0.920203
-0.650188744068 1.408106923103 -0.142735943198 0.451755 0.111877 0.885100
-0.693664193153 1.459131240845 -0.127006098628 0.451755 0.111877 0.885100
-0.736308932304 1.407803177834 -0.117640979588 -0.001091 0.125512 0.992091
-0.757543563843 1.463185071945 -0.124676324427 -0.001091 0.125512 0.992091
-0.853591680527 1.197071552277 -0.279731720686 -0.999987 0.004907 -0.000981
-0.813426434994 1.184321522713 -0.216354250908 -0.453930 -0.547044 0.703342
-0.728741049767 1.216063499451 -0.174742817879 -0.001371 -0.615457 0.788169
-0.829468011856 1.113452553749 -0.349125057459 -0.453070 -0.825629 0.336250
-0.822737634182 1.099513649940 -0.462021678686 -0.453578 -0.882984 -0.120859
-0.775679111481 1.113943457603 -0.578497171402 -0.001283 -0.920203 -0.391439
-0.751298487186 1.116672158241 -0.584936738014 -0.001283 -0.920203 -0.391439
-0.778722703457 1.089067220688 -0.518533766270 -0.001100 -0.990809 -0.135260
-0.754328012466 1.079907298088 -0.451741725206 -0.001100 -0.990809 -0.135260
-0.702264428139 1.086567044258 -0.364415228367 -0.001091 -0.992091 0.125512
-0.746510744095 1.095789551735 -0.335584104061 -0.001272 -0.926978 0.375114
-0.743394494057 1.651827812195 -0.248205617070 -0.001371 0.788169 0.615457
-0.687260270119 1.705004811287 -0.468659818172 0.451755 0.885100 -0.111877
-0.779025673866 1.640300989151 -0.636808753014 -0.001371 0.796531 -0.604596
-0.686563193798 1.640952229500 -0.625346541405 0.450794 0.710292 -0.540620
-0.684506058693 1.606904983521 -0.662604987621 0.451284 0.547869 -0.704402
-0.777690589428 1.713052153587 -0.453315645456 -0.001091 0.992091 -0.125512
-0.750873625278 1.705401062965 -0.362217128277 -0.001100 0.990809 0.135260
-0.838142335415 1.297396302223 -0.456705451012 -0.001106 -0.989771 -0.142660
-0.862843751907 1.321936249733 -0.443912565708 -0.999999 0.000978 -0.000978
-0.756800532341 1.303296208382 -0.395702660084 -0.001272 -0.926978 0.375114
-0.857681989670 1.327190756798 -0.362453162670 -0.001381 -0.708486 0.705724
-0.699872255325 1.302014946938 -0.409776210785 0.999976 -0.006883 -0.000983
-0.754714012146 1.362605690956 -0.339731037617 -0.001263 -0.359825 0.933019
-0.699899315834 1.387429714203 -0.388527989388 0.999999 0.000978 -0.000978
-0.862833976746 1.383654117584 -0.354098469019 -0.999999 -0.000978 0.000978
-0.771522641182 1.419939279556 -0.335837125778 0.001081 0.113516 0.993536
-0.710627734661 1.466565370560 -0.360859721899 0.001368 0.603278 0.797530
-0.851510107517 1.459140300751 -0.514843106270 0.001371 0.618487 -0.785794
-0.862793803215 1.447027087212 -0.420701891184 -0.999999 0.000979 0.000979
-0.862806081772 1.418079137802 -0.412288546562 -0.999999 0.000978 -0.000978
-0.862832248211 1.474624395370 -0.390255182981 -0.999999 0.000978 0.000978
-0.857988834381 1.492634415627 -0.467976957560 0.001270 0.928213 -0.372047
-0.764224290848 1.498235821724 -0.429733484983 0.001106 0.989771 0.142660
-0.747529923916 1.497024655342 -0.448541700840 0.001083 0.993261 -0.115898
-0.835398733616 1.382639288902 -0.623487353325 0.000989 0.999917 -0.012857
-0.832792162895 1.383472323418 -0.554443240166 0.000989 0.999917 -0.012857
-0.814196109772 1.369743466377 -0.592855989933 0.000987 -0.999941 -0.010858
-0.860797822475 1.413790225983 -0.554893732071 -0.994921 0.018485 -0.098948
-0.838609397411 1.528762459755 -0.321070313454 -0.001381 -0.708486 0.705724
-0.853598594666 1.409311890602 -0.287366628647 -0.000983 -0.999987 0.004916
-0.860505998135 1.420437455177 -0.313166022301 -0.994921 0.018485 0.098948
-0.856847465038 1.379639267921 -0.275460302830 -0.994921 -0.018485 0.098948
-0.861031889915 1.368564844131 -0.325167328119 -0.000979 -0.999995 0.002938
-0.820077776909 1.285053372383 -0.305294960737 -0.001381 -0.705724 -0.708486
-0.857933938503 1.321962952614 -0.342076718807 -0.001381 -0.705724 -0.708486
-0.845009505749 1.277850747108 -0.280447632074 0.001381 0.688930 0.724826
-0.851609706879 1.260307669640 -0.319902867079 0.001380 0.686096 0.727510
-0.840188682079 1.245232343674 -0.323121786118 -0.001381 -0.702951 -0.711237
-0.859912276268 1.267238020897 -0.412855058908 -0.994943 -0.098735 0.018445
-0.856006562710 1.267301201820 -0.408230543137 0.001001 -0.025017 0.999686
-0.858092188835 1.294062852859 -0.448126524687 0.001003 -0.027071 0.999633
-0.815620064735 1.261039376259 -0.561672508717 -0.001379 0.743362 -0.668888
-0.781786918640 -1.366435408592 -0.576690793037 0.001368 0.603278 0.797530
-0.838895142078 -1.270629048347 -0.627914786339 0.001091 0.125512 0.992091
-0.747056841850 -1.304331064224 -0.616134107113 0.001272 0.375114 0.926978
-0.779104232788 -1.189136862755 -0.628016650677 0.001100 -0.135260 0.990809
-0.804740905762 -1.123449444771 -0.602914154530 0.001371 -0.615457 0.788169
-0.710430979729 -1.073894977570 -0.557244598866 0.001368 -0.797530 0.603278
-0.832829892635 -1.052264451981 -0.345927715302 0.001280 -0.920595 -0.390517
-0.751350045204 -1.040658354759 -0.373198807240 0.001280 -0.920595 -0.390517
-0.718095302582 -1.036493420601 -0.385543793440 0.001100 -0.990809 -0.135260
-0.843989431858 -1.030001997948 -0.432855755091 0.001100 -0.990809 -0.135260
-0.638434350491 -1.030831694603 -0.444062083960 0.001091 -0.992091 0.125512
-0.681197047234 -1.066911220551 -0.321860969067 0.001371 -0.788169 -0.615457
-0.810646831989 -1.087233304977 -0.295801639557 0.001371 -0.788169 -0.615457
-0.766440331936 -1.155729770660 -0.252341628075 0.001272 -0.375114 -0.926978
-0.699169874191 -1.184855699539 -0.242321491241 0.001091 -0.125512 -0.992091
-0.643578350544 -1.269985079765 -0.242631733418 0.001100 0.135260 -0.990809
-0.765405178070 -1.259799003601 -0.241234898567 0.001100 0.135260 -0.990809
-0.734104752541 -1.285546302795 -0.246017277241 0.001280 0.390517 -0.920595
-0.794399440289 -1.353930234909 -0.284059733152 0.001371 0.615457 -0.788169
-0.737640023232 -1.376703381538 -0.306053400040 0.001368 0.797530 -0.603278
-0.739112973213 -1.399458646774 -0.336043655872 0.001368 0.797530 -0.603278
-0.767050623894 -1.413124084473 -0.368982404470 0.001272 0.926978 -0.375114
-0.802739858627 -1.422192692757 -0.403965055943 0.001091 0.992091 -0.125512
-0.756204128265 -1.423465490341 -0.414012223482 0.001091 0.992091 -0.125512
-0.661024749279 -1.421377658844 -0.469793975353 0.001100 0.990809 0.135260
-0.849155008793 -1.405041933060 -0.520801544189 0.001280 0.920595 0.390517
-0.707926988602 -1.409497022629 -0.510333716869 0.001280 0.920595 0.390517
-0.701165616512 -1.376132011414 -0.564739048481 0.001371 0.788169 0.615457
-0.707424402237 -1.251872062683 -0.750957727432 -0.001091 -0.125512 -0.992091
-0.720182240009 -1.156557559967 -0.744213819504 -0.001100 0.135260 -0.990809
-0.853625297546 -1.106728553772 -0.686977446079 -0.999999 -0.000979 0.000979
-0.813876450062 -1.131975650787 -0.723198294640 -0.454641 0.350089 -0.818987
-0.784334003925 -1.126211404800 -0.735425710678 -0.001283 0.391439 -0.920203
-0.727066159248 -1.100130915642 -0.724330484867 -0.001282 0.393609 -0.919277
-0.696154117584 -1.046360373497 -0.692554712296 0.451284 0.547869 -0.704402
-0.729806482792 -1.048912167549 -0.696541130543 -0.001371 0.615457 -0.788169
-0.853594243526 -1.033466935158 -0.606562852859 -0.999999 -0.000979 0.000979
-0.853630125523 -1.023239254951 -0.590114057064 -0.999999 0.000978 0.000978
-0.800486147404 -0.916491031647 -0.430127471685 -0.453578 0.882984 0.120859
-0.853545069695 -0.979423105717 -0.297740817070 -0.452122 0.820165 0.350593
-0.663368284702 -1.006657719612 -0.234084680676 0.451284 0.704402 0.547869
-0.663906872272 -1.022085905075 -0.216886401176 0.450794 0.540620 0.710292
-0.709768831730 -1.014954090118 -0.199807286263 -0.001368 0.603278 0.797530
-0.818786501884 -1.054848074913 -0.189661309123 -0.453439 0.539808 0.709225
-0.850654780865 -1.071244716644 -0.197590962052 -0.453439 0.539808 0.709225
-0.853521347046 -1.355596661568 -0.271230071783 -0.999999 0.000979 -0.000979
-0.853592574596 -1.376629948616 -0.641477942467 -0.999999 0.000979 0.000979
-0.720092892647 -1.413659095764 -0.691034436226 -0.001368 -0.603278 -0.797530
-0.812994360924 -1.398247718811 -0.686298429966 -0.453439 -0.539808 -0.709225
-0.853571355343 -1.393477201462 -0.593543291092 -0.999999 0.000978 0.000978
-0.853630125523 -1.438626885414 -0.367577135563 -0.999999 0.000978 0.000978
-0.724161744118 -1.423718810081 -0.186717495322 -0.001371 -0.615457 0.788169
-0.695462763309 -1.453432440758 -0.212471693754 0.450794 -0.710292 0.540620
-0.737456500530 -1.387322425842 -0.159337922931 -0.001283 -0.391439 0.920203
-0.814844965935 -1.337934732437 -0.153534680605 -0.454641 -0.350089 0.818987
-0.686996102333 -1.186495780945 -0.127721294761 0.451755 0.111877 0.885100
-0.765396118164 -1.185689091682 -0.121577203274 -0.001091 0.125512 0.992091
-0.706350266933 -1.074656724930 -0.156166076660 -0.001272 0.375114 0.926978
-0.853531599045 -1.123736739159 -0.242633968592 -0.999999 -0.000979 -0.000979
-0.828228652477 -1.266568779945 -0.142513915896 -0.453578 -0.120859 0.882984
-0.830797672272 -1.417544245720 -0.209994837642 -0.453930 -0.547044 0.703342
-0.840494692326 -1.497875809669 -0.331763863564 -0.453070 -0.825629 0.336250
-0.808917343616 -1.535469412804 -0.436723709106 -0.453578 -0.882984 -0.120859
-0.764983117580 -1.516284823418 -0.564882278442 -0.001283 -0.920203 -0.391439
-0.701518476009 -1.535665512085 -0.516575038433 -0.001100 -0.990809 -0.135260
-0.789352655411 -1.538876414299 -0.485207736492 -0.453578 -0.882984 -0.120859
-0.776983201504 -1.534637689590 -0.350451499224 -0.001272 -0.926978 0.375114
-0.853630125523 -1.469962596893 -0.415973186493 -0.999999 0.000978 0.000978
-0.751865983009 -0.999428510666 -0.213771760464 -0.001371 0.788169 0.615457
-0.851492524147 -1.001875877380 -0.263835728168 -0.453930 0.703342 0.547044
-0.746654987335 -0.928774535656 -0.538485407829 -0.001272 0.926978 -0.375114
-0.711604058743 -0.926156401634 -0.532079815865 -0.001272 0.926978 -0.375114
-0.705105006695 -0.979101300240 -0.630241692066 -0.001371 0.796531 -0.604596
-0.678017377853 -0.971345782280 -0.602228403091 0.453439 0.709225 -0.539808
-0.661655664444 -1.039116144180 -0.664766609669 0.451284 0.547869 -0.704402
-0.740688681602 -0.912636339664 -0.463478833437 -0.001091 0.992091 -0.125512
-0.842673599720 -1.299000024796 -0.508313417435 -0.001367 -0.600218 -0.799835
-0.862848937511 -1.305894255638 -0.431953281164 -0.999999 0.000978 -0.000978
-0.846162736416 -1.325206279755 -0.405869513750 -0.001272 -0.926978 0.375114
-0.765830695629 -1.300093531609 -0.365323007107 -0.001381 -0.708486 0.705724
-0.774157643318 -1.279608488083 -0.522850811481 -0.001367 -0.600218 -0.799835
-0.862833559513 -1.268286824226 -0.451761573553 -0.999999 0.000978 0.000978
-0.699898838997 -1.242825746536 -0.427245229483 0.999999 0.000978 -0.000978
-0.752725362778 -1.261544108391 -0.530703902245 -0.001270 -0.372047 -0.928213
-0.862832188606 -1.245667099953 -0.357300430536 -0.999999 -0.000978 0.000978
-0.862837433815 -1.220761418343 -0.479437857866 -0.999999 -0.000978 -0.000978
-0.699902534485 -1.212087154388 -0.427100419998 0.999999 -0.000978 0.000978
-0.862813472748 -1.208396434784 -0.398280411959 -0.999999 0.000978 -0.000978
-0.750002324581 -1.128683328629 -0.412303417921 0.001106 0.989771 0.142660
-0.837828695774 -1.127905011177 -0.453059881926 0.001083 0.993261 -0.115898
-0.855556964874 -1.127919912338 -0.417528182268 0.001106 0.989771 0.142660
-0.761938631535 -1.127847313881 -0.452469646931 0.001083 0.993261 -0.115898
-0.841332614422 -1.241702318192 -0.617077589035 0.000989 0.999917 -0.012857
-0.852660179138 -1.241181731224 -0.573928236961 0.000989 0.999917 -0.012857
-0.860435247421 -1.150903582573 -0.534430503845 -0.994927 0.056568 -0.083188
-0.838949322701 -1.116576790810 -0.581895232201 0.001381 -0.688930 -0.724826
-0.845507144928 -1.083226799965 -0.408807843924 -0.000995 0.018902 0.999821
-0.815613150597 -1.089648842812 -0.408677458763 -0.000995 0.018902 0.999821
-0.815108895302 -1.158021211624 -0.346508622169 0.001381 0.724826 -0.688930
-0.809792101383 -1.134046316147 -0.301873594522 -0.001381 -0.708486 0.705724
-0.819982230663 -1.214878678322 -0.245387613773 -0.000983 -0.999987 0.004916
-0.852924168110 -1.203900575638 -0.236732944846 -0.994915 0.009701 0.100246
-0.823464930058 -1.242917656898 -0.252463310957 0.000995 0.999821 0.018902
-0.827707886696 -1.255603075027 -0.252216935158 -0.000979 -0.999995 0.002938
-0.811782538891 -1.255624651909 -0.256940156221 -0.000979 -0.999995 0.002938
-0.811782121658 -1.342326402664 -0.302304923534 -0.001381 -0.705724 -0.708486
-0.815530598164 -1.342195510864 -0.284763067961 0.001381 0.688930 0.724826
-0.813201487064 -1.328185915947 -0.354039013386 0.001380 0.686096 0.727510
-0.851737499237 -1.346329927444 -0.407981067896 0.001001 -0.025017 0.999686
-0.814285159111 -1.372658729553 -0.462777823210 -0.000981 0.004907 -0.999987
-0.834982156754 -1.350867271423 -0.590206682682 0.001377 -0.758770 0.651358
-0.813799977303 -1.319895386696 -0.554224193096 0.001377 -0.758770 0.651358
-0.846115112305 -0.496742188931 0.279583454132 0.043054 -0.093836 0.994656
-0.973558962345 -0.438148677349 0.262605369091 -0.897269 -0.009223 0.441388
-0.989396393299 -0.426703661680 0.229915827513 -0.908962 -0.035828 0.415336
-0.976118087769 -0.421720832586 0.206529080868 -0.863789 -0.009404 -0.503765
-0.842280328274 -0.535280466080 0.253942310810 0.017367 -0.883069 0.468922
-0.894671440125 -0.455050796270 0.234278112650 0.356245 0.934350 0.008874
-0.933801412582 -0.440195620060 0.236047372222 0.355410 0.934689 0.006324
-0.888475239277 -0.457206875086 0.204705968499 0.350962 0.936320 -0.011403
-0.828836381435 0.974767506123 0.145496666431 0.945084 -0.008762 0.326711
-0.829158365726 0.984915494919 0.157805919647 0.940205 0.039872 -0.338268
-0.827605247498 1.049252986908 0.165858447552 -0.948265 0.018790 0.316923
-0.824071586132 1.083843469620 0.154114425182 -0.923951 0.235629 -0.301319
-0.474723547697 0.398164540529 0.327664107084 0.000978 -0.999999 0.000978
-0.363416731358 0.398164540529 0.305357038975 0.000978 -0.999999 0.000978
-0.410430580378 0.448555588722 0.286864072084 0.000978 0.000978 -0.999999
-0.263991266489 0.467766880989 0.398021459579 0.997710 0.001040 0.067624
-0.270225673914 0.480302453041 0.364323407412 0.000978 0.999999 0.000978
-0.438769727945 0.480302453041 0.307229757309 0.000978 0.999999 0.000978
-0.263327330351 0.480302453041 0.323263794184 0.000978 0.999999 0.000978
-0.478084027767 0.446595698595 0.302085101604 -0.694569 0.001381 -0.719425
-0.499404817820 0.453658550978 0.322689503431 -0.694569 0.001381 -0.719425
-0.495537400246 0.454141497612 0.432007491589 -0.997400 0.001044 0.072063
-0.475945383310 0.480302453041 0.472724705935 0.000978 0.999999 0.000978
-0.389522850513 0.437090337276 0.337339878082 0.001186 0.245605 0.969369
-0.501793026924 0.480302453041 0.330045402050 0.000978 0.999999 0.000978
-0.450620770454 0.462955385447 0.435714721680 0.975077 0.209734 -0.072364
-0.413504213095 0.435518950224 0.454660922289 0.001170 0.223492 -0.974705
-0.419364452362 0.468744874001 0.462274700403 0.001170 0.223492 -0.974705
-0.309314221144 0.479602396488 0.425664842129 -0.968544 0.239960 -0.065896
-0.318355172873 0.423423856497 0.350597918034 -0.967374 0.245267 -0.063496
-0.352241367102 0.403046548367 0.459081858397 0.001376 -0.766300 -0.642481
-0.343801051378 0.402490049601 0.503632068634 0.000978 0.000978 0.999999
-0.286997556686 0.433733940125 0.481440842152 0.665988 0.001379 0.745961
-0.268319606781 0.419851571321 0.461791515350 0.997710 0.001040 0.067624
-0.378288358450 1.209954380989 0.306582123041 0.000978 -0.999999 0.000978
-0.400600850582 1.248170852661 0.286864072084 0.000978 0.000978 -0.999999
-0.302528113127 1.249562025070 0.286864072084 0.000978 0.000978 -0.999999
-0.261130273342 1.291140198708 0.324578642845 0.674661 0.001380 -0.738126
-0.261697113514 1.242747306824 0.364221155643 0.997710 0.001040 0.067624
-0.388579577208 1.292092323303 0.308449834585 0.000978 0.999999 0.000978
-0.488906979561 1.221709609032 0.312544405460 -0.694569 0.001381 -0.719425
-0.496652662754 1.240072727203 0.416738390923 -0.997400 0.001044 0.072063
-0.489973068237 1.292092323303 0.428578704596 0.000978 0.999999 0.000978
-0.459141969681 1.209954380989 0.466297090054 0.000978 -0.999999 0.000978
-0.429282188416 1.259955883026 0.334537386894 0.001186 0.245605 0.969369
-0.321741074324 1.290887951851 0.326710730791 0.001186 0.245605 0.969369
-0.472398847342 1.292092323303 0.348155766726 0.000978 0.999999 0.000978
-0.447215914726 1.256144165993 0.427883207798 0.975077 0.209734 -0.072364
-0.355201274157 1.252985119820 0.455961704254 0.001170 0.223492 -0.974705
-0.309001982212 1.288563132286 0.410759270191 -0.968544 0.239960 -0.065896
-0.392387360334 1.211483836174 0.463093131781 0.001376 -0.766300 -0.642481
-0.328541010618 1.209954380989 0.477221876383 0.000978 -0.999999 0.000978
-0.339778751135 1.209954380989 0.491449505091 0.000978 -0.999999 0.000978
-0.376314580441 1.248719573021 0.503632068634 0.000978 0.000978 0.999999
-0.267190784216 1.265355110168 0.445160567760 0.997710 0.001040 0.067624
-0.296604603529 1.209954380989 0.425557851791 0.000978 -0.999999 0.000978
-0.444024413824 1.226347565651 0.388221830130 0.976908 0.199294 -0.077028
-0.011993946508 -0.255008518696 0.664430618286 -0.013940 -0.343439 0.939071
-0.079426459968 1.598663330078 0.595372915268 -0.014420 0.423416 0.905821
-0.085480138659 2.031736850739 0.155208930373 -0.019467 0.985927 0.166039
-0.208816394210 2.027689695358 0.144087821245 -0.055523 0.984062 0.168933
-0.199572309852 2.022344350815 0.175932154059 -0.071547 0.978623 0.192814
-0.105843544006 1.049209594727 -0.340723872185 0.001156 0.978855 -0.204554
-0.668977797031 1.031180381775 -0.426538348198 0.001156 0.978855 -0.204554
-0.084703221917 1.040964126587 -0.379970490932 0.001156 0.978855 -0.204554
-0.300533950329 1.038542985916 -0.391494184732 0.001156 0.978855 -0.204554
-0.354065626860 1.046884179115 -0.351792156696 0.001156 0.978855 -0.204554
-0.323075085878 1.050470352173 -0.334722876549 0.001156 0.978855 -0.204554
-0.588185608387 1.051420450211 -0.330200970173 0.001156 0.978855 -0.204554
-0.679645299911 1.037183642387 -0.397964417934 0.001156 0.978855 -0.204554
-0.125522613525 1.056116580963 -0.319178640842 0.001333 0.867668 -0.497143
-0.468377977610 1.071449160576 -0.292488157749 0.001333 0.867668 -0.497143
-0.779691219330 1.066303610802 -0.301445245743 0.001333 0.867668 -0.497143
-0.778620243073 1.056215286255 -0.319006770849 0.001333 0.867668 -0.497143
-0.493769884109 1.074023008347 -0.288007795811 0.001333 0.867668 -0.497143
-0.804681479931 1.080229401588 -0.277203887701 0.001333 0.867668 -0.497143
-0.066764861345 1.094664692879 -0.252075314522 0.001333 0.867668 -0.497143
-0.341541767120 1.105982065201 -0.232374608517 0.001333 0.867668 -0.497143
-0.417822659016 1.106332898140 -0.231763824821 0.001333 0.867668 -0.497143
-0.323214799166 1.108484387398 -0.228018701077 0.001333 0.867668 -0.497143
-0.593151807785 1.108157396317 -0.228587716818 0.001333 0.867668 -0.497143
-0.337899208069 1.121923923492 -0.213221967220 0.001378 0.660161 -0.751123
-0.835692286491 1.174356222153 -0.167108386755 0.001378 0.660161 -0.751123
-0.621485114098 1.141765236855 -0.195771813393 0.001378 0.660161 -0.751123
-0.790325701237 1.183040738106 -0.159470468760 0.001378 0.660161 -0.751123
-0.795578777790 1.148021817207 -0.190269231796 0.001378 0.660161 -0.751123
-0.191459879279 1.172795653343 -0.168480977416 0.001378 0.660161 -0.751123
-0.324270755053 1.155819416046 -0.183411359787 0.001378 0.660161 -0.751123
-0.129992216825 1.165117502213 -0.175233781338 0.001378 0.660161 -0.751123
-0.206173941493 1.181236743927 -0.161057129502 0.001378 0.660161 -0.751123
-0.116162553430 1.127600669861 -0.208229437470 0.001378 0.660161 -0.751123
-0.758056938648 1.259077310562 -0.120028182864 0.001270 0.372047 -0.928213
-0.461346566677 1.244382143021 -0.125912919641 0.001270 0.372047 -0.928213
-0.777888298035 1.209596991539 -0.139842882752 0.001270 0.372047 -0.928213
-0.227891623974 1.224088668823 -0.134039580822 0.001270 0.372047 -0.928213
-0.731161594391 1.232785582542 -0.130556851625 0.001270 0.372047 -0.928213
-0.630603730679 1.245548605919 -0.125445827842 0.001270 0.372047 -0.928213
-0.267975568771 1.284035086632 -0.110033661127 0.001270 0.372047 -0.928213
-0.309990137815 1.254645943642 -0.121802739799 0.001270 0.372047 -0.928213
-0.159747213125 1.311481952667 -0.099042423069 0.001270 0.372047 -0.928213
-0.823313236237 1.319557309151 -0.095808550715 0.001270 0.372047 -0.928213
-0.520910143852 1.289409637451 -0.107881389558 0.001270 0.372047 -0.928213
-0.405726373196 1.363871216774 -0.093718826771 0.001003 0.027071 -0.999633
-0.700962781906 1.342636466026 -0.094272784889 0.001003 0.027071 -0.999633
-0.710949122906 1.423642396927 -0.092159539461 0.001003 0.027071 -0.999633
-0.430293619633 1.337174534798 -0.094415277243 0.001003 0.027071 -0.999633
-0.792099893093 1.409883856773 -0.092518471181 0.001003 0.027071 -0.999633
-0.810531973839 1.358705759048 -0.093853577971 0.001003 0.027071 -0.999633
-0.299046278000 1.369546055794 -0.093570783734 0.001003 0.027071 -0.999633
-0.206402570009 1.364085793495 -0.093713223934 0.001003 0.027071 -0.999633
-0.246532157063 1.388153314590 -0.093085363507 0.001003 0.027071 -0.999633
-0.351887851954 1.387170791626 -0.093110993505 0.001003 0.027071 -0.999633
-0.752074301243 1.439505219460 -0.091745719314 0.001003 0.027071 -0.999633
-0.088055387139 1.389290809631 -0.093055687845 0.001003 0.027071 -0.999633
-0.649790227413 1.479560613632 -0.100625678897 0.001232 -0.311788 -0.950151
-0.538334369659 1.490990161896 -0.104359902442 0.001232 -0.311788 -0.950151
-0.290879786015 1.452230095863 -0.091696389019 0.001232 -0.311788 -0.950151
-0.091151535511 1.462062358856 -0.094908714294 0.001232 -0.311788 -0.950151
-0.533959388733 1.469334125519 -0.097284525633 0.001232 -0.311788 -0.950151
-0.221068784595 1.508568525314 -0.110102996230 0.001232 -0.311788 -0.950151
-0.612814128399 1.560754299164 -0.127152904868 0.001232 -0.311788 -0.950151
-0.190046429634 1.498388290405 -0.106776982546 0.001232 -0.311788 -0.950151
-0.150108128786 1.532301902771 -0.117857046425 0.001232 -0.311788 -0.950151
-0.179833948612 1.532866477966 -0.118041522801 0.001232 -0.311788 -0.950151
-0.724138915539 1.591641545296 -0.148182407022 0.001368 -0.603278 -0.797530
-0.730916619301 1.640423178673 -0.185065522790 0.001368 -0.603278 -0.797530
-0.748759865761 1.625819921494 -0.174024224281 0.001368 -0.603278 -0.797530
-0.670611619949 1.630526065826 -0.177582517266 0.001368 -0.603278 -0.797530
-0.767885684967 1.598420262337 -0.153307676315 0.001368 -0.603278 -0.797530
-0.274016976357 1.691204309464 -0.236800462008 0.001374 -0.773712 -0.633537
-0.615714490414 1.678989887238 -0.221916794777 0.001374 -0.773712 -0.633537
-0.063534438610 1.696806550026 -0.244270354509 0.001322 -0.881656 -0.471891
-0.804987072945 1.724074125290 -0.295078814030 0.001322 -0.881656 -0.471891
-0.245636284351 1.697376847267 -0.245333060622 0.001322 -0.881656 -0.471891
-0.843710422516 1.712858438492 -0.274180293083 0.001322 -0.881656 -0.471891
-0.729078948498 1.503980636597 0.324226558208 -0.885182 0.022766 0.464687
-0.741065621376 1.154399871826 0.310412317514 -0.904368 0.003915 0.426736
-0.733096539974 1.130882263184 0.327585697174 -0.903860 0.009156 0.427731
-0.769970595837 0.886161684990 0.247954949737 -0.895728 -0.003934 0.444585
-0.784285187721 0.211293980479 0.213524207473 -0.882646 -0.009319 0.469946
-0.799914836884 -0.584983587265 0.170973330736 -0.989785 0.012302 0.142037
-0.780523002148 0.475990831852 0.223847657442 -0.875279 -0.003997 0.483602
-0.725574612617 0.869140386581 -0.444944173098 0.001057 0.083483 -0.996509
-0.607019066811 0.883741676807 -0.443656265736 0.001057 0.083483 -0.996509
-0.409849077463 0.827459871769 -0.448337495327 0.001057 0.083483 -0.996509
-0.384102940559 0.887369632721 -0.443252563477 0.001057 0.083483 -0.996509
-0.576549887657 0.902558624744 -0.442049473524 0.001057 0.083483 -0.996509
-0.273380100727 0.828070044518 -0.448226779699 0.001057 0.083483 -0.996509
-0.330692827702 0.810397505760 -0.449658423662 -0.001046 0.074296 -0.997236
-0.799594759941 0.845612406731 -0.446916610003 -0.001046 0.074296 -0.997236
-0.514928758144 0.812882006168 -0.449431568384 -0.001046 0.074296 -0.997236
-0.297988891602 0.669245421886 -0.454449295998 -0.001005 0.029133 -0.999575
-0.323428153992 0.668738663197 -0.454458743334 -0.001005 0.029133 -0.999575
-0.062516212463 0.718156039715 -0.453045934439 -0.001005 0.029133 -0.999575
-0.014356075786 0.771331965923 -0.451474487782 -0.001005 0.029133 -0.999575
-0.570284247398 0.796353280544 -0.450607717037 -0.001005 0.029133 -0.999575
-0.242396220565 0.690972745419 -0.453815102577 -0.001005 0.029133 -0.999575
-0.369749516249 0.703286290169 -0.453420728445 -0.001005 0.029133 -0.999575
-0.250437736511 0.753057956696 -0.451966196299 -0.001005 0.029133 -0.999575
-0.095738485456 0.688761472702 -0.453913182020 -0.001005 0.029133 -0.999575
-0.671773850918 0.668187320232 -0.454328805208 -0.001005 0.029133 -0.999575
-0.461696207523 0.677407145500 -0.454150825739 -0.001005 0.029133 -0.999575
-0.219173520803 0.609054982662 -0.456233680248 -0.001005 0.029133 -0.999575
-0.656492292881 0.695374727249 -0.453547745943 -0.001005 0.029133 -0.999575
-0.760717093945 0.723427176476 -0.452690899372 -0.001005 0.029133 -0.999575
-0.357733398676 0.605307340622 -0.456283479929 -0.001005 0.029133 -0.999575
-0.721194207668 0.610636532307 -0.455974936485 -0.001005 0.029133 -0.999575
-0.664095699787 0.710866391659 -0.453095734119 -0.001005 0.029133 -0.999575
-0.685794591904 0.692740201950 -0.453611612320 -0.001005 0.029133 -0.999575
-0.155894815922 0.151768699288 -0.457171589136 -0.000978 0.000978 -0.999999
-0.759276926517 0.569391429424 -0.456785649061 -0.000978 0.000978 -0.999999
-0.724454820156 0.556557118893 -0.456804394722 -0.000978 0.000978 -0.999999
-0.081448532641 0.173762917519 -0.457196354866 -0.000978 0.000978 -0.999999
-0.026396945119 0.331018745899 -0.457170724869 -0.000978 0.000978 -0.999999
-0.393808156252 0.305571198463 -0.457022815943 -0.000978 0.000978 -0.999999
-0.090428151190 0.440204918385 -0.457109570503 -0.000978 0.000978 -0.999999
-0.266411930323 0.021944446489 -0.457165151834 -0.000978 0.000978 -0.999999
