0.482039242983 -0.963520646095 0.156374484301 0.993007 -0.110582 0.041329
0.323673456907 -0.959475100040 0.207015737891 0.045129 -0.153902 0.987055
0.247910425067 -0.936302363873 0.238671064377 0.113366 -0.778842 0.616890
0.248106211424 -1.258748412132 0.133028492332 -0.014682 -0.152465 0.988200
0.288899004459 -1.215213298798 0.141324490309 0.001145 -0.191268 0.981537
0.156192764640 -1.181048035622 0.148013129830 0.001145 -0.191268 0.981537
0.071592710912 -1.264521598816 0.131687268615 0.001145 -0.191268 0.981537
0.075563982129 -1.266373038292 0.131324917078 0.001145 -0.191268 0.981537
0.555486857891 -0.979030013084 0.157987296581 -0.196558 -0.980491 0.001149
0.508871436119 -0.927356541157 0.093748554587 -0.981019 -0.193909 0.001147
0.506729900837 -0.916532516479 0.080641746521 -0.981019 -0.193909 -0.001147
0.509056568146 -0.901997625828 0.116208747029 -0.980491 0.196558 0.001149
-0.591730713844 -0.926353454590 0.180394172668 0.000978 0.000978 0.999999
-0.527933239937 -0.962659955025 0.106441855431 0.553762 -0.832674 0.001354
-0.510054647923 -0.897638738155 0.129022553563 0.981019 0.193909 0.001147
-0.532602846622 -0.883291482925 0.180394172668 0.000978 0.000978 0.999999
-0.587389767170 -0.938432753086 0.172354787588 -0.556887 -0.830587 0.001355
-0.546814680099 -0.914071321487 0.165566906333 0.980491 -0.196558 0.001149
0.653743624687 0.596768975258 0.232872530818 -0.024284 0.936839 -0.348918
0.597619771957 0.641661226749 0.346974015236 0.048215 0.934327 -0.353142
0.186292216182 -1.013065338135 -0.448068916798 0.001201 0.964151 -0.265352
0.129647791386 -0.979251086712 -0.324533373117 0.001201 0.964151 -0.265352
0.011861710809 -0.955275595188 -0.236973389983 0.001201 0.964151 -0.265352
0.180553019047 -1.001561284065 -0.406034916639 0.001201 0.964151 -0.265352
0.131278127432 -0.984181404114 -0.342548191547 0.001201 0.964151 -0.265352
0.002244038973 -0.980656743050 -0.329720467329 0.001201 0.964151 -0.265352
0.205436974764 -0.981478452682 -0.332641661167 0.001201 0.964151 -0.265352
-0.110312856734 -0.978520035744 -0.322690308094 0.001201 0.964763 -0.263117
-0.242968663573 -0.999568104744 -0.400536149740 0.001201 0.964763 -0.263117
-0.085263930261 -0.979316949844 -0.325425744057 0.001201 0.964763 -0.263117
-0.279690653086 -1.011768341064 -0.445374876261 0.001201 0.964763 -0.263117
-0.038310252130 -0.976243853569 -0.313865125179 0.001201 0.964763 -0.263117
-0.128221333027 -0.961034357548 -0.258923709393 0.001201 0.964763 -0.263117
-0.342369675636 -0.956047356129 -0.241431072354 0.001199 0.964929 -0.262509
-0.202268168330 -0.965305626392 -0.274888962507 0.001199 0.964929 -0.262509
-0.262007474899 -0.961703896523 -0.261892646551 0.001199 0.964929 -0.262509
-0.373459428549 -0.997937858105 -0.395306468010 0.001199 0.964929 -0.262509
-0.308874219656 -0.975832164288 -0.313926011324 0.001199 0.964929 -0.262509
-0.348632663488 -0.964899718761 -0.273947238922 0.001199 0.964929 -0.262509
-0.576774597168 0.662796258926 0.397489786148 -0.045503 0.934770 -0.352327
0.005004113540 -0.172460585833 0.556429982185 -0.001156 -0.978855 -0.204554
-0.562389194965 -0.196055218577 0.489456921816 -0.160303 -0.483851 0.860343
-0.627434074879 -0.399151086807 0.357725113630 -0.105025 -0.525127 0.844519
-0.664886355400 -0.569678902626 0.254693716764 -0.404514 -0.398168 0.823305
-0.546159505844 0.139043316245 0.536685645580 -0.023435 0.019359 -0.999538
-0.533576607704 0.327088236809 0.538063287735 -0.082069 0.011724 -0.996558
0.500732362270 1.214583039284 0.387142598629 -0.093369 0.303778 0.948157
0.026932552457 0.906554639339 0.521320223808 0.001369 0.795211 0.606331
-0.245800063014 0.902092576027 0.522256195545 -0.041208 0.726120 0.686332
-0.475414812565 1.516672968864 0.285293579102 0.209969 0.305794 0.928656
0.583905935287 -0.189986497164 0.489724606276 0.160303 -0.483851 0.860343
0.639357447624 -0.362939715385 0.379667341709 0.105025 -0.525127 0.844519
0.647255957127 -0.522772550583 0.286903858185 0.401855 -0.398678 0.824359
0.536852896214 0.585185170174 0.510754406452 -0.056003 -0.122293 -0.990913
0.376291424036 -1.008331656456 -0.430650025606 0.001199 0.964929 -0.262509
0.333841741085 -1.000233888626 -0.401085942984 0.001199 0.964929 -0.262509
0.150515660644 -0.938732862473 -0.176032483578 0.001199 0.964929 -0.262509
0.207926169038 -0.948284804821 -0.210877969861 0.001199 0.964929 -0.262509
0.290833294392 -0.944723844528 -0.197496727109 0.001199 0.964929 -0.262509
0.261767864227 -0.943913698196 -0.194631919265 0.001199 0.964929 -0.262509
0.629883110523 0.599950194359 0.242177695036 -0.934230 -0.092485 -0.344472
0.597314178944 0.580359101295 0.330472618341 -0.934587 -0.029649 -0.354498
0.634088277817 0.564927399158 0.109244644642 -0.997273 0.059169 0.044108
0.631080508232 0.530614137650 0.035829931498 -0.999658 0.007047 0.025168
0.625520110130 0.591764330864 -0.129321411252 -0.999003 0.007172 0.044059
0.625996053219 0.496975421906 -0.183749511838 -0.999324 -0.029785 0.021568
0.624153256416 0.573185563087 -0.162685528398 -0.999324 -0.029785 0.021568
0.666413068771 -0.678469777107 -0.305392652750 -0.998487 -0.047148 -0.028289
0.662910282612 -0.671112179756 -0.264596343040 -0.962979 -0.251935 -0.095914
0.654621601105 -0.677540302277 -0.121360763907 -0.967198 -0.252472 -0.028052
0.620525240898 -0.615011930466 0.041121274233 -0.920929 -0.383160 -0.071254
0.616676628590 -0.597523987293 0.053442969918 -0.894243 -0.265455 0.360366
0.645276784897 -0.720328986645 -0.376417845488 -0.498561 0.866770 -0.012094
0.590784311295 -0.751475930214 -0.353520035744 -0.498561 0.866770 -0.012094
0.574592232704 -0.762184202671 -0.459939301014 -0.498561 0.866770 -0.012094
0.551520705223 -0.774839162827 -0.408770382404 -0.498561 0.866770 -0.012094
0.591288447380 -0.751926958561 -0.411326169968 -0.498561 0.866770 -0.012094
0.591041266918 -0.758425056934 -0.012784868479 -0.647052 0.760819 0.049773
0.597240149975 -0.751273870468 -0.041917771101 -0.647052 0.760819 0.049773
0.511227309704 -0.801711499691 -0.395943343639 -0.647052 0.760819 0.049773
0.504400193691 -0.816226005554 -0.260683029890 -0.647052 0.760819 0.049773
0.486277103424 -0.847687065601 -0.405113101006 -0.916264 0.399800 0.024906
0.460632622242 -0.909164369106 -0.360731720924 -0.916264 0.399800 0.024906
0.455106526613 -0.916907012463 -0.436630070210 -0.916264 0.399800 0.024906
0.489795327187 -0.845953881741 -0.307174026966 -0.916264 0.399800 0.024906
0.492214053869 -0.840833246708 -0.300836712122 -0.916264 0.399800 0.024906
-0.659859716892 -0.711245179176 -0.431282967329 0.501742 0.864933 -0.012106
-0.645684361458 -0.713671803474 0.019370146096 0.501742 0.864933 -0.012106
-0.540513753891 -0.779791593552 -0.381612867117 0.501742 0.864933 -0.012106
-0.632229149342 -0.726027727127 -0.335184246302 0.501742 0.864933 -0.012106
-0.616309404373 -0.733079850674 -0.165802240372 0.501742 0.864933 -0.012106
-0.561709463596 -0.772340238094 -0.167779579759 0.650101 0.758215 0.049789
-0.592808425426 -0.747119486332 -0.146658301353 0.650101 0.758215 0.049789
-0.519812464714 -0.812365829945 -0.102406606078 0.650101 0.758215 0.049789
-0.562300860882 -0.777090132236 -0.086246095598 0.650101 0.758215 0.049789
-0.451674431562 -0.925767838955 -0.420458793640 0.916264 0.399800 0.024906
-0.475081652403 -0.880841314793 -0.283290088177 0.916264 0.399800 0.024906
-0.477700591087 -0.879002571106 -0.218687012792 0.916264 0.399800 0.024906
-0.458429574966 -0.914087116718 -0.361022293568 0.916264 0.399800 0.024906
-0.481846570969 -0.864251077175 -0.171909660101 0.702413 0.687043 -0.185978
-0.423103868961 -0.941842019558 -0.236367046833 0.702413 0.687043 -0.185978
-0.622535288334 0.515625774860 -0.186141550541 0.999228 -0.027785 0.027785
-0.624951779842 0.490068852901 -0.124534629285 0.999228 -0.027785 0.027785
-0.627169311047 0.534077286720 0.013460496441 0.999991 -0.002944 -0.002944
-0.628717601299 0.587409496307 0.040932487696 0.990568 0.128808 0.046736
-0.638437986374 0.523591518402 0.209050074220 0.899859 0.101530 0.424199
-0.630039393902 0.574738919735 0.238012775779 0.934512 -0.032225 -0.354470
-0.531348407269 0.679508686066 0.480046629906 0.933593 -0.089743 -0.346916
-0.672155559063 0.703777909279 0.223552018404 0.111840 -0.029898 0.993276
-0.649815797806 0.805860280991 0.225856631994 -0.054751 -0.048310 0.997331
-0.616783320904 1.002380013466 0.237047821283 -0.054751 -0.048310 0.997331
-0.609239697456 0.816639602184 0.181685492396 0.988187 -0.107181 0.109537
-0.594420433044 0.963838875294 0.193086609244 0.988187 -0.107181 0.109537
-0.613756597042 0.800429821014 0.206236034632 0.988187 -0.107181 0.109537
-0.636478662491 0.772534549236 0.133156597614 0.829183 -0.146326 -0.539486
-0.627880811691 0.848019659519 -0.036185637116 0.782218 -0.561875 0.269133
-0.613656342030 0.723534762859 -0.160171195865 0.996895 -0.067897 0.039876
-0.629928529263 0.823986649513 -0.073092035949 0.863339 -0.386271 0.324714
-0.628452062607 0.660181581974 0.153816759586 0.990330 -0.138624 -0.005545
-0.614998102188 0.682363808155 -0.196214437485 0.996895 -0.067897 0.039876
-0.616208493710 0.666005671024 -0.193675234914 0.996895 -0.067897 0.039876
-0.597796857357 0.885013639927 -0.003225505352 0.989979 -0.141108 -0.005555
-0.597291290760 0.891582965851 -0.065659284592 0.990330 -0.138624 -0.005545
-0.591925680637 0.923901796341 0.047924969345 0.989628 -0.142659 -0.016850
-0.586308419704 0.957609415054 0.085153445601 0.989261 -0.145182 -0.016882
0.576249599457 1.138084888458 0.156427890062 -0.974459 -0.179803 0.134538
0.569319009781 1.122965931892 0.085510954261 -0.974459 -0.179803 0.134538
0.596276640892 0.945732772350 0.080137334764 -0.993140 -0.104364 0.052743
0.609487593174 0.809373795986 -0.195709496737 -0.997039 -0.065751 0.039882
0.615494787693 0.730552852154 -0.175318285823 -0.997039 -0.065751 0.039882
0.639760315418 0.646263480186 0.038974314928 -0.981387 0.182889 0.058572
0.635771930218 0.662697613239 -0.079612344503 -0.981387 0.182889 0.058572
0.638082981110 0.687401473522 -0.102028608322 -0.977803 0.176771 0.112491
0.617275536060 0.732918262482 -0.126989737153 -0.997039 -0.065751 0.039882
0.645192801952 0.699881911278 -0.043576858938 -0.960797 0.269631 0.064559
0.654986917973 0.708514332771 0.111696816981 -0.976644 0.168387 -0.133462
0.614350497723 0.834087014198 0.148220524192 -0.437794 -0.036148 -0.898348
0.613140761852 0.858100950718 0.227722540498 -0.993140 -0.104364 0.052743
0.609523534775 0.870930850506 0.184226289392 -0.993140 -0.104364 0.052743
0.624492228031 0.733618319035 0.197072356939 -0.993140 -0.104364 0.052743
0.622534811497 0.964975118637 0.237923502922 -0.078759 -0.061010 0.995025
0.653746604919 0.642693042755 0.219380989671 -0.111840 -0.029898 0.993276
0.534619987011 1.267087221146 0.301379084587 -0.843198 -0.380143 -0.380143
0.481421917677 1.125836730003 0.412212491035 -0.669919 -0.251813 -0.698426
0.498693227768 1.244564771652 0.352750569582 -0.669919 -0.251813 -0.698426
0.557635366917 1.117638826370 0.347041219473 -0.153712 -0.379343 -0.912399
0.541899800301 0.766064345837 0.467936873436 -0.115875 -0.299677 -0.946978
0.478455156088 0.865777134895 0.484692990780 -0.629323 -0.212882 -0.747418
0.534515440464 0.945387184620 0.414673686028 -0.629323 -0.212882 -0.747418
-0.656331777573 -0.545023620129 0.242902815342 0.934369 0.006339 -0.356252
-0.639796733856 -0.453143507242 0.287791907787 0.909842 0.066244 -0.409632
-0.677831470966 -0.518748104572 0.214957222342 0.193488 0.499469 -0.844448
-0.632638514042 -0.210162654519 0.401324510574 0.253800 0.445289 -0.858664
-0.576042115688 -0.134258106351 0.455828160048 0.207511 0.452344 -0.867366
-0.584414362907 -0.202712103724 0.428645044565 0.857575 0.045572 -0.512336
-0.555209875107 0.039516258985 0.522822141647 -0.023213 0.265113 -0.963938
-0.575046420097 0.606439650059 0.438979655504 0.083397 -0.938551 0.334913
-0.657054364681 0.551465213299 0.303749501705 0.072211 -0.941374 0.329546
-0.532337129116 0.945995271206 0.413906097412 0.627021 -0.216268 -0.748380
-0.469548106194 0.936506867409 0.469320476055 0.627021 -0.216268 -0.748380
-0.542396664619 1.009844779968 0.391188979149 -0.018700 -0.307932 -0.951224
-0.561944603920 0.901401579380 0.426628053188 0.169815 -0.273063 -0.946889
-0.650803565979 0.950442016125 0.232005089521 -0.102839 -0.034280 0.994107
-0.520041942596 1.291076540947 0.287390917540 0.827714 -0.255276 -0.499723
-0.458385765553 1.502229332924 0.143278881907 0.942816 -0.321324 0.088596
-0.448718011379 1.522509455681 0.114210158587 0.942816 -0.321324 0.088596
-0.530058741570 1.312988638878 0.217955887318 0.942816 -0.321324 0.088596
-0.482262760401 1.446811079979 0.195766329765 0.942816 -0.321324 0.088596
-0.546404957771 1.254871129990 0.198462516069 0.943268 -0.288031 0.165174
-0.545958340168 1.191310644150 0.085531383753 0.943268 -0.288031 0.165174
-0.550562441349 1.208925724030 0.142214909196 0.943268 -0.288031 0.165174
-0.564442336559 1.146225333214 0.111953660846 0.943268 -0.288031 0.165174
0.471236258745 1.470454216003 0.123152233660 -0.943268 -0.288031 0.165174
0.557507693768 1.157307624817 0.071991220117 -0.943268 -0.288031 0.165174
0.542246937752 1.221356749535 0.095975682139 -0.943268 -0.288031 0.165174
0.565661311150 1.180754661560 0.158674389124 -0.943268 -0.288031 0.165174
0.450016647577 1.539727330208 0.144397258759 -0.943108 -0.320525 0.088375
0.471910625696 1.505599856377 0.253852844238 -0.943108 -0.320525 0.088375
0.538759708405 1.302844405174 0.233333602548 -0.943108 -0.320525 0.088375
0.542664766312 1.271062731743 0.266330897808 -0.828685 -0.254624 -0.498446
0.489342689514 1.370293974876 0.304261893034 -0.828685 -0.254624 -0.498446
0.541842222214 1.255670309067 0.280727505684 -0.761388 -0.561786 0.323550
-0.496321797371 0.979960739613 0.439914017916 0.796723 0.594241 0.110045
-0.532785832882 1.052399992943 0.383512824774 0.689567 -0.230903 -0.686426
-0.505769848824 1.235800385475 0.345698058605 0.667629 -0.255317 -0.699346
-0.505403459072 1.133445501328 0.383288592100 0.667629 -0.255317 -0.699346
-0.365111857653 1.592075228691 0.271178185940 -0.029847 -0.107227 0.993786
-0.403170764446 1.574584007263 0.268114417791 -0.032000 -0.102621 0.994206
-0.338148057461 1.579324245453 0.270265907049 -0.010514 -0.209119 0.977834
-0.195633366704 1.576525092125 0.224548667669 0.061278 -0.998107 -0.005193
-0.105210497975 1.582325339317 0.184691488743 0.061278 -0.998107 -0.005193
-0.281020671129 1.571054220200 0.260688453913 0.061278 -0.998107 -0.005193
-0.207510560751 1.575757026672 0.231223359704 0.061278 -0.998107 -0.005193
-0.416729509830 1.564337849617 0.133222848177 0.057491 -0.998254 -0.013589
-0.380030453205 1.564986824989 0.239258393645 0.057491 -0.998254 -0.013589
-0.318610191345 1.570617675781 0.096292868257 0.057491 -0.998254 -0.013589
-0.299973249435 1.570775747299 0.162233442068 0.057491 -0.998254 -0.013589
0.081698641181 1.583779692650 0.217854186893 -0.063479 -0.997970 -0.005203
0.156041085720 1.579232573509 0.163352817297 -0.063479 -0.997970 -0.005203
0.164463371038 1.578288078308 0.257321685553 -0.063479 -0.997970 -0.005203
0.067828796804 1.584580421448 0.239111810923 -0.063479 -0.997970 -0.005203
0.386644184589 1.565006852150 0.174582600594 -0.059699 -0.998124 -0.013616
0.428780436516 1.562034249306 0.203793168068 -0.059699 -0.998124 -0.013616
0.436622202396 1.563164830208 0.090536423028 -0.059699 -0.998124 -0.013616
0.222683399916 1.574972748756 0.173784583807 -0.059699 -0.998124 -0.013616
0.237070649862 1.593201637268 0.274399966002 0.010514 -0.209119 0.977834
0.504474878311 0.987357139587 0.428061306477 -0.795334 0.596134 0.109853
0.504645049572 1.058048605919 0.413115411997 -0.689700 -0.220516 -0.689700
-0.577782332897 1.141410589218 0.217922419310 0.988187 -0.107181 0.109537
-0.576021015644 1.152819871902 0.213325381279 0.988187 -0.107181 0.109537
-0.571807980537 1.113007187843 0.136704489589 0.988187 -0.107181 0.109537
-0.630573868752 0.831554770470 0.126994505525 0.844552 -0.086876 -0.528379
-0.597534358501 0.911198556423 0.089112311602 0.358109 -0.931612 0.062107
-0.596367180347 0.920768380165 0.168378114700 0.988187 -0.107181 0.109537
-0.600925266743 -0.315731942654 0.395415604115 0.873508 0.006668 -0.486764
0.665082514286 -0.618015050888 0.219533696771 -0.934369 0.006339 -0.356252
0.674185454845 -0.617828488350 0.195709303021 -0.934369 0.006339 -0.356252
0.627067863941 -0.397295653820 0.326546907425 -0.909375 0.066407 -0.410642
0.631221890450 -0.313301205635 0.347772717476 -0.193488 0.499469 -0.844448
0.697154462337 -0.505229830742 0.219458088279 -0.193488 0.499469 -0.844448
0.690650522709 -0.416654646397 0.272672921419 -0.262410 0.464972 -0.845543
0.596973657608 -0.129790157080 0.454085826874 -0.207230 0.454714 -0.866193
0.579797029495 -0.218191415071 0.436879962683 -0.856730 0.048442 -0.513485
0.592578768730 -0.314572751522 0.411972939968 -0.873993 0.009369 -0.485849
0.553382277489 -0.081676565111 0.493647307158 -0.854507 0.042794 -0.517674
0.635653376579 0.549367070198 0.295575171709 -0.091746 -0.940064 0.328424
0.600590944290 0.955042302608 0.180868357420 -0.993140 -0.104364 0.052743
0.626690328121 0.851128876209 0.139328196645 -0.887170 -0.139023 -0.440002
0.645427346230 0.867915689945 0.057655248791 -0.690708 -0.687575 0.223971
0.630848646164 0.815291643143 0.140597641468 -0.886597 -0.102570 -0.451026
0.620101094246 0.903461098671 0.093977630138 -0.757585 -0.647074 0.085792
0.644721806049 0.850191533566 0.008467546664 -0.695237 -0.666600 0.268867
-0.667224645615 -0.662367820740 -0.361873626709 0.998380 -0.049342 -0.028345
-0.648430585861 -0.651246070862 -0.139030069113 0.966439 -0.255355 -0.028101
-0.659965634346 -0.705635845661 -0.043617963791 0.966439 -0.255355 -0.028101
-0.629283607006 -0.631354749203 0.020595744252 0.919564 -0.386406 -0.071357
-0.630313456059 -0.571092665195 0.106776654720 0.895196 -0.265738 0.357781
-0.653184592724 -0.587217926979 0.128090023994 0.265097 -0.413551 0.871033
0.478188723326 -0.868286430836 -0.170441478491 -0.700851 0.688528 -0.186380
0.496709585190 -0.837940454483 -0.128167539835 -0.700851 0.688528 -0.186380
0.623557507992 0.515554308891 -0.242775142193 -0.998708 -0.030327 0.040785
0.624219119549 0.383142322302 -0.297397643328 -0.998391 -0.024095 0.051334
0.623679637909 0.410179287195 -0.295619130135 -0.998391 -0.024095 0.051334
0.626591622829 0.417641878128 -0.235877335072 -0.998391 -0.024095 0.051334
0.616252481937 0.561194598675 -0.376054584980 -0.998806 -0.023905 0.042613
0.633544266224 0.096774041653 -0.367677718401 -0.992176 -0.046174 -0.115998
0.643222808838 -0.117838144302 -0.365483164787 -0.992176 -0.046174 -0.115998
0.643384635448 -0.096778869629 -0.378216832876 -0.998384 -0.043225 -0.036899
0.632816910744 0.156059712172 -0.385692745447 -0.998384 -0.043225 -0.036899
0.638793468475 0.022579878569 -0.392267167568 -0.998384 -0.043225 -0.036899
0.653918087482 -0.305331826210 -0.423578113317 -0.998681 -0.042875 -0.028235
0.660971939564 -0.468725919724 -0.424787312746 -0.998681 -0.042875 -0.028235
0.652777493000 -0.286707520485 -0.411856204271 -0.998681 -0.042875 -0.028235
0.654963910580 -0.313863128424 -0.446957468987 -0.998681 -0.042875 -0.028235
0.668440639973 -0.646269917488 -0.419362485409 -0.998681 -0.042875 -0.028235
0.667896151543 -0.644052624702 -0.404580801725 -0.998549 -0.042960 -0.032482
0.670313954353 -0.701765358448 -0.402323007584 -0.998487 -0.047148 -0.028289
0.665118753910 -0.615364551544 -0.358782768250 -0.997901 -0.045795 -0.045795
0.628978610039 0.258395999670 -0.439541846514 -0.998196 -0.045517 0.039166
0.638574063778 0.048522464931 -0.443287640810 -0.998196 -0.045517 0.039166
0.619641065598 0.461760580540 -0.436913788319 -0.998196 -0.045517 0.039166
0.635897636414 0.098507910967 -0.452251642942 -0.998196 -0.045517 0.039166
0.597084999084 -0.164904296398 -0.471343159676 -0.000978 0.000978 0.999999
0.606326818466 0.429022490978 -0.471718728542 -0.000978 0.000978 0.999999
0.594859659672 -0.343665599823 -0.471229910851 -0.000978 0.000978 0.999999
0.585565626621 -0.726513028145 -0.470989018679 -0.000978 0.000978 0.999999
0.549483001232 -0.502407550812 -0.471145302057 -0.000978 0.000978 0.999999
0.646312355995 -0.159731566906 -0.471328377724 -0.000978 0.000978 0.999999
0.594276547432 0.148635447025 -0.471544235945 -0.000978 0.000978 0.999999
0.557699143887 -0.259297609329 -0.471297383308 -0.000978 0.000978 0.999999
0.639508068562 -0.356643825769 -0.471205204725 -0.000978 0.000978 0.999999
0.608816802502 0.302661776543 -0.471637189388 -0.000978 0.000978 0.999999
0.610197782516 0.288885056973 -0.471627891064 -0.000978 0.000978 0.999999
0.624513208866 0.266787648201 -0.471608549356 -0.000978 0.000978 0.999999
0.192531868815 -0.985880494118 -0.466628491879 0.000999 0.022971 0.999736
0.336603581905 -0.964272141457 -0.467142045498 0.000999 0.022971 0.999736
0.320212304592 -0.907096922398 -0.468499839306 0.000999 0.022971 0.999736
0.346870481968 -0.881929814816 -0.469097584486 0.000999 0.022971 0.999736
-0.201631784439 -1.000708103180 -0.466266602278 0.000999 0.022971 0.999736
-0.179279118776 -0.969417095184 -0.467010736465 0.000999 0.022971 0.999736
-0.386647343636 -0.977812290192 -0.466801822186 0.000999 0.022971 0.999736
-0.247827023268 -0.943174362183 -0.467630833387 0.000999 0.022971 0.999736
-0.347699671984 -0.507553517818 -0.470520198345 -0.008902 0.002967 0.999956
-0.267771691084 -0.188046753407 -0.470820158720 -0.008902 0.002967 0.999956
-0.061196424067 -0.959261834621 -0.466586261988 -0.008902 0.002967 0.999956
-0.263137757778 -0.186094462872 -0.470785588026 -0.008902 0.002967 0.999956
-0.431316822767 -0.789085745811 -0.470371752977 -0.008902 0.002967 0.999956
-0.126593023539 0.214194536209 -0.470841526985 -0.008902 0.002967 0.999956
-0.158224433661 -0.788996279240 -0.467972785234 -0.008902 0.002967 0.999956
-0.189345508814 -0.298852920532 -0.469783604145 -0.008902 0.002967 0.999956
-0.131329208612 0.233006775379 -0.470942139626 -0.008902 0.002967 0.999956
-0.010182350874 0.232750296593 -0.469877004623 -0.008902 0.002967 0.999956
-0.096681401134 -0.592392981052 -0.468048751354 -0.008902 0.002967 0.999956
-0.017768502235 0.320366621017 -0.470218479633 -0.008902 0.002967 0.999956
-0.093584984541 0.260582387447 -0.470697045326 -0.008902 0.002967 0.999956
-0.066819384694 -0.235211253166 -0.468906760216 -0.008902 0.002967 0.999956
-0.292537808418 -0.362971365452 -0.470489084721 -0.008902 0.002967 0.999956
-0.059632867575 0.276578247547 -0.470448940992 -0.008902 0.002967 0.999956
-0.074753373861 -0.117731809616 -0.469344943762 -0.008902 0.002967 0.999956
-0.071249142289 -0.516360998154 -0.468063801527 -0.008902 0.002967 0.999956
-0.122310280800 -0.016089081764 -0.470081597567 -0.008902 0.002967 0.999956
-0.228499978781 -0.904457986355 -0.468228012323 -0.008902 0.002967 0.999956
-0.009719394147 -0.648181438446 -0.467109769583 -0.008902 0.002967 0.999956
-0.349053084850 -0.523943126202 -0.470480680466 -0.008902 0.002967 0.999956
-0.193705826998 -0.210915625095 -0.470097720623 -0.008902 0.002967 0.999956
-0.052825529128 -0.869689702988 -0.466793686152 -0.008902 0.002967 0.999956
-0.081004202366 -0.624057769775 -0.467811703682 -0.008902 0.002967 0.999956
-0.316945999861 -0.870191514492 -0.469112545252 -0.008902 0.002967 0.999956
-0.213002756238 -0.142283320427 -0.470482528210 -0.008902 0.002967 0.999956
-0.229175150394 -0.488977491856 -0.469537168741 -0.008902 0.002967 0.999956
-0.386669486761 -0.805890142918 -0.469926804304 -0.008902 0.002967 0.999956
-0.252415478230 -0.535045564175 -0.469596832991 -0.008902 0.002967 0.999956
-0.331464171410 -0.846192479134 -0.469315379858 -0.008902 0.002967 0.999956
-0.345583260059 -0.377157807350 -0.470910608768 -0.008902 0.002967 0.999956
-0.157121211290 -0.725903809071 -0.468160986900 -0.008902 0.002967 0.999956
-0.082193672657 0.007967650890 -0.469804584980 -0.008902 0.002967 0.999956
-0.172841697931 -0.040023088455 -0.470450460911 -0.008902 0.002967 0.999956
-0.199610263109 -0.053007245064 -0.470644921064 -0.008902 0.002967 0.999956
-0.012293189764 0.403480708599 -0.470431059599 -0.008902 0.002967 0.999956
-0.278452426195 -0.825335204601 -0.468915045261 -0.008902 0.002967 0.999956
-0.062476810068 -0.926097095013 -0.466701537371 -0.008902 0.002967 0.999956
-0.019120909274 -0.775453805923 -0.466793149710 -0.008902 0.002967 0.999956
-0.111911058426 0.223025202751 -0.470740228891 -0.008902 0.002967 0.999956
0.445687085390 -0.730239987373 -0.470685362816 0.008902 0.002967 0.999956
0.196557000279 -0.781549394131 -0.468335002661 0.008902 0.002967 0.999956
0.299850016832 -0.801582038403 -0.469180673361 0.008902 0.002967 0.999956
0.232990369201 -0.458202391863 -0.469663739204 0.008902 0.002967 0.999956
0.270418614149 -0.649163901806 -0.469397246838 0.008902 0.002967 0.999956
0.259010791779 -0.495348989964 -0.469776660204 0.008902 0.002967 0.999956
0.300679773092 -0.789706528187 -0.469225019217 0.008902 0.002967 0.999956
0.309048444033 -0.508671522141 -0.470175027847 0.008902 0.002967 0.999956
0.258244037628 -0.349869191647 -0.470223635435 0.008902 0.002967 0.999956
0.168335065246 -0.115495204926 -0.470164090395 0.008902 0.002967 0.999956
0.057086888701 -0.120856821537 -0.469169318676 0.008902 0.002967 0.999956
0.032331887633 0.338201761246 -0.470383316278 0.008902 0.002967 0.999956
0.067755341530 -0.305300831795 -0.468687862158 0.008902 0.002967 0.999956
0.307820707560 -0.816406488419 -0.469204515219 0.008902 0.002967 0.999956
0.200159028172 -0.678239226341 -0.468688845634 0.008902 0.002967 0.999956
0.198977872729 -0.836804509163 -0.468183964491 0.008902 0.002967 0.999956
0.040318399668 -0.299710512161 -0.468464076519 0.008902 0.002967 0.999956
0.199985846877 0.016694247723 -0.470854610205 0.008902 0.002967 0.999956
0.234924852848 -0.626632153988 -0.469155490398 0.008902 0.002967 0.999956
0.098073400557 -0.106742084026 -0.469573676586 0.008902 0.002967 0.999956
0.143042296171 -0.178388595581 -0.469745576382 0.008902 0.002967 0.999956
0.094908647239 0.326466441154 -0.470896899700 0.008902 0.002967 0.999956
0.160795301199 -0.303906679153 -0.469510227442 0.008902 0.002967 0.999956
0.459141761065 -0.756216049194 -0.470722645521 0.008902 0.002967 0.999956
0.015664352104 -0.864286839962 -0.466486573219 0.008902 0.002967 0.999956
0.318569928408 -0.539386570454 -0.470162957907 0.008902 0.002967 0.999956
0.120675705373 -0.930271208286 -0.467204034328 0.008902 0.002967 0.999956
0.102682940662 -0.752073407173 -0.467601627111 0.008902 0.002967 0.999956
0.074187859893 -0.331905841827 -0.468661457300 0.008902 0.002967 0.999956
0.140530198812 -0.863242805004 -0.467587649822 0.008902 0.002967 0.999956
0.060445919633 -0.921207189560 -0.466702789068 0.008902 0.002967 0.999956
0.013959651813 -0.799664914608 -0.466673105955 0.008902 0.002967 0.999956
0.035898722708 -0.049850881100 -0.469204455614 0.008902 0.002967 0.999956
0.267472833395 -0.741869449615 -0.469082266092 0.008902 0.002967 0.999956
0.180532440543 -0.091843903065 -0.470345109701 0.008902 0.002967 0.999956
0.173083022237 -0.689227104187 -0.468416541815 0.008902 0.002967 0.999956
0.231976091862 -0.755094647408 -0.468728899956 0.008902 0.002967 0.999956
0.184347301722 -0.834146440029 -0.468063622713 0.008902 0.002967 0.999956
0.162217155099 -0.670931100845 -0.468378067017 0.008902 0.002967 0.999956
0.041165743023 0.260929942131 -0.470219999552 0.008902 0.002967 0.999956
0.295996367931 -0.517661154270 -0.470032244921 0.008902 0.002967 0.999956
0.510205686092 0.566139698029 -0.471668630838 0.000978 0.000978 0.999999
0.355516970158 -0.279414832592 -0.471023201942 0.000978 0.000978 0.999999
0.398705661297 0.393543839455 -0.471423417330 0.000978 0.000978 0.999999
0.340327829123 -0.243007153273 -0.471019983292 0.000978 0.000978 0.999999
0.566765546799 0.261945366859 -0.471595734358 0.000978 0.000978 0.999999
0.284796655178 -0.047863848507 -0.471039414406 0.000978 0.000978 0.999999
0.238406226039 0.138885349035 -0.471067607403 0.000978 0.000978 0.999999
0.149128884077 0.509619772434 -0.471127569675 0.000978 0.000978 0.999999
0.527450382710 -0.040971860290 -0.471387386322 0.000978 0.000978 0.999999
0.508577883244 0.425972402096 -0.471595734358 0.000978 0.000978 0.999999
0.329828113317 0.532613158226 -0.471395671368 0.000978 0.000978 0.999999
0.468443840742 -0.542982697487 -0.471050798893 0.000978 0.000978 0.999999
0.320638239384 -0.157343104482 -0.471035182476 0.000978 0.000978 0.999999
0.488294810057 0.581582665443 -0.471645295620 0.000978 0.000978 0.999999
0.207219213247 0.083373636007 -0.470995366573 0.000978 0.000978 0.999999
0.469954490662 -0.496841996908 -0.471076190472 0.000978 0.000978 0.999999
0.520049810410 -0.272035747766 -0.471260517836 0.000978 0.000978 0.999999
0.455819070339 0.475231498480 -0.471545636654 0.000978 0.000978 0.999999
0.480906456709 -0.347358077765 -0.471166998148 0.000978 0.000978 0.999999
0.459105730057 0.170163437724 -0.471396684647 0.000978 0.000978 0.999999
0.103587985039 0.512396275997 -0.471064299345 0.000978 0.000978 0.999999
0.285719275475 0.614871621132 -0.471374481916 0.000978 0.000978 0.999999
0.594186306000 0.402843058109 -0.471705615520 0.000978 0.000978 0.999999
0.444701701403 0.303361743689 -0.471443295479 0.000978 0.000978 0.999999
0.469480752945 0.382202059031 -0.471518188715 0.000978 0.000978 0.999999
0.231804966927 0.196570038795 -0.471087276936 0.000978 0.000978 0.999999
0.241181880236 0.209260791540 -0.471106976271 0.000978 0.000978 0.999999
0.439121305943 -0.269084036350 -0.471147090197 0.000978 0.000978 0.999999
0.205022856593 0.145615339279 -0.471023589373 0.000978 0.000978 0.999999
0.408853411674 0.289772748947 -0.471385568380 0.000978 0.000978 0.999999
0.347860962152 -0.235824868083 -0.471034288406 0.000978 0.000978 0.999999
0.465064138174 0.486702829599 -0.471564531326 0.000978 0.000978 0.999999
0.393190026283 0.191656962037 -0.471313923597 0.000978 0.000978 0.999999
0.215567141771 0.554801106453 -0.471244633198 0.000978 0.000978 0.999999
0.211502671242 0.509517371655 -0.471216052771 0.000978 0.000978 0.999999
0.566961348057 0.210630923510 -0.471570163965 0.000978 0.000978 0.999999
0.418724685907 0.405189990997 -0.471457690001 0.000978 0.000978 0.999999
0.148628979921 0.425527572632 -0.471084505320 0.000978 0.000978 0.999999
0.414856553078 -0.496888399124 -0.470997929573 0.000978 0.000978 0.999999
0.377533316612 -0.004110965878 -0.471193104982 0.000978 0.000978 0.999999
0.414366573095 0.335683971643 -0.471416503191 0.000978 0.000978 0.999999
0.262335598469 0.432382583618 -0.471249371767 0.000978 0.000978 0.999999
0.468459546566 -0.148348584771 -0.471249550581 0.000978 0.000978 0.999999
0.399469435215 0.663296639919 -0.471685290337 0.000981 0.002944 0.999995
0.477849900723 0.649785637856 -0.471751213074 0.000981 0.002944 0.999995
0.374530881643 0.629591166973 -0.471542149782 0.000981 0.002944 0.999995
0.484722524881 0.648071229458 -0.471755295992 0.000981 0.002944 0.999995
0.146039023995 0.726468563080 -0.471534669399 0.000981 0.002944 0.999995
0.201529726386 0.666477203369 -0.471419304609 0.000981 0.002944 0.999995
0.446295171976 0.725498795509 -0.471950560808 0.000981 0.002944 0.999995
0.147975549102 0.743906617165 -0.471593409777 0.000981 0.002944 0.999995
-0.275852024555 0.669848680496 -0.471253246069 -0.000979 0.002938 0.999995
-0.379765480757 0.651932239532 -0.471234023571 -0.000979 0.002938 0.999995
-0.014923453331 0.706875860691 -0.471276015043 -0.000979 0.002938 0.999995
-0.117928862572 0.668998360634 -0.471192210913 -0.000979 0.002938 0.999995
-0.371198982000 0.472015202045 -0.471099168062 -0.000978 0.000978 0.999999
-0.512819647789 0.436211943626 -0.471150785685 -0.000978 0.000978 0.999999
-0.175068855286 0.459808021784 -0.471018850803 -0.000978 0.000978 0.999999
-0.026109993458 0.572899460793 -0.470975369215 -0.000978 0.000978 0.999999
-0.395561814308 0.425786644220 -0.471102327108 -0.000978 0.000978 0.999999
-0.362287789583 0.513465046883 -0.471101522446 -0.000978 0.000978 0.999999
-0.467183530331 0.493028014898 -0.471140623093 -0.000978 0.000978 0.999999
-0.527604699135 0.265101850033 -0.471132218838 -0.000978 0.000978 0.999999
-0.262460798025 0.271236419678 -0.471026897430 -0.000978 0.000978 0.999999
-0.489929676056 -0.692955195904 -0.470980137587 -0.000978 0.000978 0.999999
-0.431189745665 -0.283552736044 -0.471015155315 -0.000978 0.000978 0.999999
-0.454640865326 0.105151414871 -0.471080124378 -0.000978 0.000978 0.999999
-0.443687051535 -0.113956421614 -0.471044391394 -0.000978 0.000978 0.999999
-0.451806008816 0.087361693382 -0.471076458693 -0.000978 0.000978 0.999999
-0.391165047884 -0.170981913805 -0.471015214920 -0.000978 0.000978 0.999999
-0.579041004181 0.463260233402 -0.471181184053 -0.000978 0.000978 0.999999
-0.503046452999 -0.491883635521 -0.471014142036 -0.000978 0.000978 0.999999
-0.514767169952 0.277040719986 -0.471128791571 -0.000978 0.000978 0.999999
-0.063680149615 0.514450311661 -0.470982044935 -0.000978 0.000978 0.999999
-0.585282623768 0.545326530933 -0.471195399761 -0.000978 0.000978 0.999999
-0.086889356375 0.404669165611 -0.470975667238 -0.000978 0.000978 0.999999
-0.318584531546 0.135663092136 -0.471029996872 -0.000978 0.000978 0.999999
-0.172474816442 0.173699319363 -0.470976918936 -0.000978 0.000978 0.999999
-0.500462234020 -0.417911261320 -0.471023678780 -0.000978 0.000978 0.999999
-0.226681932807 0.447909474373 -0.471037834883 -0.000978 0.000978 0.999999
-0.480053722858 -0.412094384432 -0.471016347408 -0.000978 0.000978 0.999999
-0.577259063721 0.469781756401 -0.471181392670 -0.000978 0.000978 0.999999
-0.432415366173 0.058659464121 -0.471064567566 -0.000978 0.000978 0.999999
-0.562244594097 0.227848887444 -0.471140772104 -0.000978 0.000978 0.999999
-0.284679114819 0.331756770611 -0.471044450998 -0.000978 0.000978 0.999999
-0.431002408266 0.478147596121 -0.471123993397 -0.000978 0.000978 0.999999
-0.511007547379 -0.628424108028 -0.470997810364 -0.000978 0.000978 0.999999
-0.244580179453 0.375590860844 -0.471034675837 -0.000978 0.000978 0.999999
-0.453667074442 -0.048350095749 -0.471057772636 -0.000978 0.000978 0.999999
-0.388340771198 -0.432060927153 -0.470976740122 -0.000978 0.000978 0.999999
-0.469126850367 -0.583440423012 -0.470987439156 -0.000978 0.000978 0.999999
-0.389629930258 0.193432480097 -0.471066713333 -0.000978 0.000978 0.999999
-0.406006604433 -0.358216285706 -0.470994383097 -0.000978 0.000978 0.999999
-0.229825258255 0.382664501667 -0.471029758453 -0.000978 0.000978 0.999999
-0.514966011047 -0.363184928894 -0.471037328243 -0.000978 0.000978 0.999999
-0.473373293877 -0.227636873722 -0.471040040255 -0.000978 0.000978 0.999999
-0.418559759855 0.062019586563 -0.471059501171 -0.000978 0.000978 0.999999
-0.188035294414 0.226163715124 -0.470990628004 -0.000978 0.000978 0.999999
-0.438500404358 -0.121469199657 -0.471041262150 -0.000978 0.000978 0.999999
-0.570463418961 -0.324767112732 -0.471049189568 0.000978 0.000978 0.999999
-0.523675918579 -0.668315887451 -0.470992207527 0.000978 0.000978 0.999999
-0.595579147339 -0.234155893326 -0.471062868834 0.000978 0.000978 0.999999
-0.570574522018 -0.648189604282 -0.470990955830 0.000978 0.000978 0.999999
-0.622141361237 -0.400942355394 -0.471030086279 0.000978 0.000978 0.999999
-0.604349017143 -0.705221235752 -0.470977216959 0.000978 0.000978 0.999999
-0.550742506981 -0.584856927395 -0.471004426479 0.000978 0.000978 0.999999
-0.519027590752 -0.669969975948 -0.470992386341 0.000978 0.000978 0.999999
-0.595474541187 0.160508990288 -0.471133887768 0.000978 0.000978 0.999999
-0.620447516441 -0.102103114128 -0.471084058285 0.000978 0.000978 0.999999
-0.592098772526 -0.075094819069 -0.471091866493 0.000978 0.000978 0.999999
-0.598758757114 -0.369769811630 -0.471038132906 0.000978 0.000978 0.999999
-0.640492320061 -0.031347483397 -0.453493356705 0.998089 -0.047730 0.039245
-0.617043316364 0.443032860756 -0.464308202267 0.998089 -0.047730 0.039245
-0.639832377434 -0.024903118610 -0.462092339993 0.998089 -0.047730 0.039245
-0.620073258877 0.401784032583 -0.438833534718 0.998089 -0.047730 0.039245
-0.651499390602 -0.260444104671 -0.437977403402 0.998584 -0.045057 -0.028291
-0.652952849865 -0.298875868320 -0.428476065397 0.998584 -0.045057 -0.028291
-0.625155091286 0.307133972645 -0.410353273153 0.998584 -0.045057 -0.028291
-0.648917257786 -0.217430040240 -0.415721982718 0.998584 -0.045057 -0.028291
-0.672117412090 -0.700024604797 -0.466768205166 0.998584 -0.045057 -0.028291
-0.667762994766 -0.655917763710 -0.387898445129 0.998450 -0.045145 -0.032547
-0.658110618591 -0.454188168049 -0.375590384007 0.998283 -0.045425 -0.036973
-0.639064550400 -0.027092911303 -0.379718303680 0.998283 -0.045425 -0.036973
-0.637468814850 0.014432512224 -0.386893600225 0.998283 -0.045425 -0.036973
-0.644912242889 -0.185139745474 -0.362335950136 0.992034 -0.048530 -0.116245
-0.652675926685 -0.364488542080 -0.354581266642 0.992034 -0.048530 -0.116245
-0.617219924927 0.440126180649 -0.363793492317 0.998749 -0.026036 0.042699
-0.615679681301 0.542721390724 -0.339117497206 0.998652 -0.026088 0.044872
-0.616752803326 0.529978632927 -0.322128027678 0.998652 -0.026088 0.044872
-0.620628118515 0.523439586163 -0.235494062304 0.998749 -0.026036 0.042699
-0.610090851784 0.708743333817 -0.273885607719 0.996895 -0.067897 0.039876
-0.611199140549 0.699654400349 -0.261626124382 0.996895 -0.067897 0.039876
-0.610214591026 0.705443084240 -0.276372045279 0.996895 -0.067897 0.039876
-0.605705261230 0.758849024773 -0.362870842218 0.999766 -0.021058 0.005014
-0.605213642120 0.813449263573 -0.228158161044 0.999766 -0.021058 0.005014
-0.566311717033 1.020483255386 0.044454142451 -0.007927 -0.164210 0.986394
-0.556735038757 0.851570665836 -0.219585239887 0.379606 -0.914696 0.138675
-0.508763492107 0.998735070229 -0.240547209978 0.792424 -0.079387 -0.604783
-0.505863547325 1.083376646042 -0.074380114675 0.816731 0.543982 -0.192439
-0.377058625221 1.103524208069 -0.053948242217 0.001154 -0.979409 0.201881
-0.423365414143 1.078618526459 -0.174150288105 0.001154 -0.979409 0.201881
-0.373061686754 1.094712972641 -0.096518389881 0.001154 -0.979409 0.201881
-0.283624053001 1.081726431847 -0.159444168210 0.001154 -0.979409 0.201881
-0.519547522068 1.075857758522 -0.187275111675 0.001154 -0.979409 0.201881
-0.134403079748 1.079799771309 -0.169077128172 0.001154 -0.979409 0.201881
-0.398811578751 1.099105715752 -0.075243778527 0.001154 -0.979409 0.201881
-0.250154525042 1.071455359459 -0.209130078554 0.001154 -0.979409 0.201881
-0.016676902771 1.082541823387 -0.153236746788 -0.003458 -0.980840 0.194785
-0.468849301338 1.126114130020 0.055892374367 -0.003458 -0.980840 0.194785
-0.247427240014 1.112156748772 -0.009436647408 -0.003458 -0.980840 0.194785
-0.123058050871 1.124392867088 0.054742228240 -0.003458 -0.980840 0.194785
-0.379933565855 1.126910448074 0.061821386218 -0.003458 -0.980840 0.194785
-0.189118295908 1.126186013222 0.062319438905 -0.003458 -0.980840 0.194785
-0.278844416142 1.104705929756 -0.047555539757 -0.003458 -0.980840 0.194785
-0.083420157433 1.119096875191 0.028991539031 -0.003458 -0.980840 0.194785
0.076284088194 1.092875242233 -0.101763442159 0.001150 -0.980932 0.194346
0.046502701938 1.100738167763 -0.061914373189 0.001150 -0.980932 0.194346
0.035480499268 1.095718145370 -0.087012700737 0.001150 -0.980932 0.194346
0.005205337889 1.090226054192 -0.114262379706 0.001150 -0.980932 0.194346
0.021614689380 1.091345906258 -0.108823135495 0.001150 -0.980932 0.194346
0.045217134058 1.122238278389 0.046130843461 0.001150 -0.980932 0.194346
0.165483310819 1.104605913162 -0.043839890510 0.001150 -0.980932 0.194346
0.076109267771 1.085246443748 -0.140093460679 0.001150 -0.980932 0.194346
0.235845923424 1.066705226898 -0.229830175638 -0.003469 -0.979310 0.202337
0.405215680599 1.104920744896 -0.043179001659 -0.003469 -0.979310 0.202337
0.217113643885 1.073731184006 -0.196109592915 -0.003469 -0.979310 0.202337
0.502622008324 1.065382957458 -0.233030661941 -0.003469 -0.979310 0.202337
0.146899729967 1.070945858955 -0.210405558348 -0.003469 -0.979310 0.202337
0.445977449417 1.108755111694 -0.024167049676 -0.003469 -0.979310 0.202337
0.518749713898 1.097578763962 -0.077292621136 -0.003469 -0.979310 0.202337
0.494781911373 1.066928625107 -0.225656449795 -0.003469 -0.979310 0.202337
0.491280645132 1.110316634178 0.023989595473 -0.363990 0.901936 -0.232428
0.502383053303 1.114721775055 0.047813333571 -0.718567 -0.421229 0.553379
0.513649940491 1.004944920540 -0.006894808263 -0.516349 -0.269874 0.812743
0.552609205246 0.845076143742 -0.205512881279 -0.194352 -0.955676 0.221159
0.554699242115 0.874788403511 -0.092557452619 -0.731054 -0.650343 0.206433
0.509495973587 0.982386946678 -0.182418182492 -0.999463 -0.009132 0.031455
0.509096682072 0.920320928097 -0.213997289538 -0.999463 -0.009132 0.031455
0.513648450375 0.952333092690 -0.078793615103 -0.995151 0.056329 0.080628
0.530237495899 0.939142525196 -0.034607738256 -0.651066 -0.529937 0.543396
0.483416765928 1.083317995071 -0.033625051379 -0.939995 -0.330125 -0.086177
0.585142910480 0.982233166695 0.023456333205 0.003604 -0.263116 0.964758
0.608654797077 0.783835828304 -0.277360349894 -0.999754 -0.021058 0.007019
0.609252154827 0.743540167809 -0.319376945496 -0.999754 -0.021058 0.007019
0.612330794334 0.698089003563 -0.307610303164 -0.997039 -0.065751 0.039882
0.618228137493 0.654656648636 -0.231812208891 -0.997039 -0.065751 0.039882
-0.509700357914 1.286198496819 0.071228653193 -0.013535 -0.053100 0.998497
-0.368938505650 1.149265289307 0.064554288983 -0.003098 -0.054726 0.998497
-0.413881361485 1.299077391624 0.072608798742 -0.003098 -0.054726 0.998497
-0.399176210165 1.273990988731 0.071287333965 -0.003098 -0.054726 0.998497
-0.389808595181 1.225482583046 0.068659618497 -0.003098 -0.054726 0.998497
-0.445150673389 1.352276802063 0.075410827994 -0.003098 -0.054726 0.998497
-0.467353284359 1.152634024620 0.064365223050 -0.003098 -0.054726 0.998497
-0.371295005083 1.375244379044 0.076952531934 -0.003098 -0.054726 0.998497
-0.160681709647 1.140883684158 0.064885593951 -0.003098 -0.054726 0.998497
-0.127267837524 1.204234957695 0.068490833044 -0.003098 -0.054726 0.998497
-0.298329621553 1.272959470749 0.071613959968 -0.003098 -0.054726 0.998497
-0.388126641512 1.303114175797 0.072928309441 -0.003098 -0.054726 0.998497
-0.057832449675 1.480812907219 0.090799584985 -0.026876 -0.078477 0.996554
-0.059530466795 1.333290219307 0.079219125211 -0.026876 -0.078477 0.996554
-0.319740533829 1.499831676483 0.085131704807 -0.026876 -0.078477 0.996554
-0.084394261241 1.397551178932 0.083564132452 -0.026876 -0.078477 0.996554
-0.159827247262 1.505323290825 0.089929617941 -0.026876 -0.078477 0.996554
-0.289284884930 1.436595678329 0.081019572914 -0.026876 -0.078477 0.996554
-0.053761873394 1.199983119965 0.068954057992 -0.026876 -0.078477 0.996554
-0.172810077667 1.417536854744 0.082711346447 -0.026876 -0.078477 0.996554
-0.147581860423 1.452308893204 0.086119197309 -0.026876 -0.078477 0.996554
-0.289905756712 1.548374652863 0.089742071927 -0.026876 -0.078477 0.996554
0.049274466932 1.510135650635 0.093458689749 0.026876 -0.078477 0.996554
0.230775475502 1.507770776749 0.088344395161 0.026876 -0.078477 0.996554
0.141451239586 1.550140976906 0.094085365534 0.026876 -0.078477 0.996554
0.048287410289 1.284903764725 0.075863175094 0.026876 -0.078477 0.996554
0.191882848740 1.556690812111 0.093228191137 0.026876 -0.078477 0.996554
0.064892202616 1.398335337639 0.084287196398 0.026876 -0.078477 0.996554
0.261347740889 1.556967139244 0.091363266110 0.026876 -0.078477 0.996554
0.154701530933 1.559144616127 0.094429969788 0.026876 -0.078477 0.996554
0.155084669590 1.458033680916 0.086508557200 0.026876 -0.078477 0.996554
0.039923429489 1.551001310349 0.096909999847 0.026876 -0.078477 0.996554
0.281278997660 1.186417102814 0.066973470151 0.003098 -0.054726 0.998497
0.405789196491 1.531353712082 0.085455402732 0.003098 -0.054726 0.998497
0.501987159252 1.131626248360 0.063150733709 0.003098 -0.054726 0.998497
0.137900710106 1.220820784569 0.069391474128 0.003098 -0.054726 0.998497
0.090085424483 1.126932978630 0.064412266016 0.003098 -0.054726 0.998497
0.213521093130 1.298156261444 0.073359206319 0.003098 -0.054726 0.998497
0.154475584626 1.249159336090 0.070886470377 0.003098 -0.054726 0.998497
0.241639524698 1.216240167618 0.068757317960 0.003098 -0.054726 0.998497
0.445849269629 1.384728431702 0.077256150544 0.003098 -0.054726 0.998497
0.314817667007 1.340462684631 0.075308725238 0.003098 -0.054726 0.998497
0.478628396988 1.216974973679 0.067923568189 0.003098 -0.054726 0.998497
0.456142842770 1.449852943420 0.080782562494 0.013507 -0.052990 0.998504
0.510310888290 1.271147489548 0.070527598262 0.013507 -0.052990 0.998504
0.527561366558 0.881917834282 -0.214004114270 -0.559666 -0.066593 -0.826038
-0.496965378523 1.018400549889 0.013849372044 0.651092 -0.279953 0.705483
-0.501304805279 1.019475817680 -0.092971779406 0.950550 -0.289528 -0.112374
-0.501589894295 1.004937887192 -0.058214664459 0.950550 -0.289528 -0.112374
-0.507114648819 0.988124132156 -0.111859150231 0.995297 0.069593 0.067384
-0.507470071316 0.968522548676 -0.180141672492 0.997475 -0.058927 -0.039642
-0.533072352409 0.884603202343 -0.100098401308 0.517294 -0.849738 0.101739
-0.532692611217 0.922284841537 -0.015167945996 0.395763 -0.667333 0.630903
-0.350099027157 0.685979664326 -0.471332520247 -0.000979 0.002938 0.999995
-0.252919793129 0.736772477627 -0.471460014582 -0.000979 0.002938 0.999995
-0.247748851776 0.737628221512 -0.471460878849 -0.000979 0.002938 0.999995
-0.174019634724 0.729383826256 -0.471407145262 -0.000979 0.002938 0.999995
-0.258946239948 0.713265299797 -0.471386641264 -0.000979 0.002938 0.999995
0.370184183121 0.601172685623 0.513427972794 -0.105026 -0.059854 -0.992667
0.188340038061 0.576074898243 0.534210264683 -0.105026 -0.059854 -0.992667
0.384016960859 0.606180965900 0.511660337448 -0.105026 -0.059854 -0.992667
0.447277575731 0.765474498272 0.495361655951 -0.105026 -0.059854 -0.992667
0.300453394651 0.569069027901 0.522751212120 -0.105026 -0.059854 -0.992667
0.398262321949 0.812676072121 0.497712850571 -0.105026 -0.059854 -0.992667
0.353056669235 0.690661191940 0.509852766991 -0.105026 -0.059854 -0.992667
0.292193681002 0.539755642414 0.526219189167 -0.003494 -0.213105 -0.977023
0.418937265873 0.372437357903 0.543408036232 -0.051198 -0.124012 -0.990959
0.318001866341 0.425919741392 0.542003035545 -0.051198 -0.124012 -0.990959
0.501456916332 0.476488143206 0.526160597801 -0.051198 -0.124012 -0.990959
0.419037878513 0.556016206741 0.520549595356 -0.051198 -0.124012 -0.990959
0.382292747498 0.534830152988 0.525099277496 -0.051198 -0.124012 -0.990959
0.492398679256 0.467459261417 0.527755975723 -0.051198 -0.124012 -0.990959
0.519848823547 0.606571316719 0.509009778500 -0.051198 -0.124012 -0.990959
0.463586747646 0.593819260597 0.513525187969 -0.051198 -0.124012 -0.990959
0.267339289188 0.285880476236 0.551991999149 -0.054952 0.007258 -0.998463
0.514838814735 0.252103358507 0.537896335125 -0.054952 0.007258 -0.998463
0.204425841570 0.262214660645 0.555318772793 -0.054952 0.007258 -0.998463
0.404511213303 0.264396965504 0.544157803059 -0.054952 0.007258 -0.998463
0.462082207203 0.160486236215 0.540115892887 -0.054952 0.007258 -0.998463
0.074299618602 0.320758253336 0.563053786755 -0.054952 0.007258 -0.998463
0.453856080770 0.330307394266 0.541924655437 -0.054952 0.007258 -0.998463
0.216629922390 0.128708600998 0.554130315781 -0.058964 0.003103 -0.998255
0.142748296261 0.279437661171 0.558919548988 -0.058964 0.003103 -0.998255
0.220991343260 0.179571196437 0.554040670395 -0.058964 0.003103 -0.998255
0.162803083658 0.237293258309 0.557615578175 -0.058964 0.003103 -0.998255
0.107509702444 0.102017097175 0.560398399830 -0.058964 0.003103 -0.998255
0.267185717821 0.196336239576 0.551404833794 -0.058964 0.003103 -0.998255
0.119645655155 0.182473152876 0.559951603413 -0.058964 0.003103 -0.998255
0.100257486105 0.280272334814 0.561396539211 -0.058964 0.003103 -0.998255
0.472049742937 0.117240101099 0.539219617844 -0.058964 0.003103 -0.998255
0.505367934704 0.087235905230 0.537182569504 -0.058964 0.003103 -0.998255
0.274428069592 -0.105036243796 0.550009489059 -0.058964 0.003103 -0.998255
