0.707274317741 -0.537586450577 0.710523068905 0.957524 0.001217 0.288352
0.799453616142 -0.531427860260 0.402987658978 0.957524 -0.001217 0.288352
0.749962151051 -0.577908813953 0.566489100456 0.955144 -0.062486 0.289476
0.671375036240 -0.765298962593 0.821450829506 0.938109 -0.006296 0.346282
0.668698906898 -1.053291320801 0.824803113937 0.923189 0.001277 0.384343
0.756811499596 -1.376848816872 0.545254111290 0.957524 0.001217 0.288352
0.667445540428 -1.180372476578 0.786568522453 0.162389 -0.657145 0.736064
-0.181719496846 -1.176428318024 0.850742757320 -0.048320 -0.498382 0.865610
-0.232404798269 -1.182535052299 0.844309687614 -0.048301 -0.503712 0.862520
-0.525264322758 -1.093263268471 0.875948309898 -0.127547 -0.304770 0.943847
-0.590819776058 -0.680803537369 0.888109266758 -0.067482 -0.031063 0.997237
-0.559984385967 -1.013079762459 0.879994690418 -0.067482 -0.031063 0.997237
-0.549963116646 -0.819350183010 0.886649131775 -0.067482 -0.031063 0.997237
-0.608853638172 -0.949253916740 0.877508580685 -0.242189 -0.022893 0.969959
-0.607443451881 -0.172801062465 0.885274171829 -0.240031 0.001182 0.970765
-0.624248147011 0.072952874005 0.881120800972 -0.240031 0.001182 0.970765
-0.614663779736 0.286329984665 0.883489608765 -0.240031 0.001182 0.970765
-0.610075771809 0.215376228094 0.884623587132 -0.240031 0.001182 0.970765
-0.605367481709 1.046410799026 0.885787248611 -0.240031 0.001182 0.970765
-0.619036912918 1.569077730179 0.882408797741 -0.240031 0.001182 0.970765
-0.615048289299 1.087447404861 0.883394598961 -0.240031 0.001182 0.970765
-0.616602301598 1.646919369698 0.883010506630 -0.240031 0.001182 0.970765
-0.592003881931 1.219312191010 0.889085590839 -0.240031 0.001182 0.970765
-0.592666804790 1.869170546532 0.888916850090 -0.240031 0.001182 0.970765
-0.613557815552 1.993057012558 0.843943893909 -0.228260 0.777947 0.585402
-0.302838772535 2.010869503021 0.827679872513 -0.009212 0.898819 0.438224
-0.291594296694 2.019961833954 0.808240354061 -0.001263 0.933019 0.359825
-0.004911713768 2.014187335968 0.823238611221 0.001263 0.933019 0.359825
-0.027857355773 2.042825698853 0.729007184505 -0.001191 0.967932 0.251210
-0.012737880461 2.080003261566 0.585836529732 -0.001191 0.967932 0.251210
-0.390451222658 2.138690710068 0.355772852898 0.001085 0.992979 0.118289
0.129945248365 2.138983726501 0.351608395576 -0.001085 0.992979 0.118289
0.011036694050 2.122548818588 0.421993821859 0.001191 0.967932 0.251210
0.016809308901 2.038057804108 0.747368812561 0.001191 0.967932 0.251210
0.255403488874 2.019156455994 0.810332596302 0.001263 0.933019 0.359825
0.472030133009 2.013748168945 0.817716240883 0.009212 0.898819 0.438224
0.635144591331 1.984211683273 0.836357235909 0.490924 0.671878 0.554593
0.675285339355 1.985461711884 0.791570842266 0.717837 0.432692 0.545424
0.672229945660 2.011292457581 0.746307075024 0.460970 0.839679 0.287136
0.768076181412 2.071733713150 0.409079730511 0.555196 0.777910 0.294301
0.766314029694 2.047357797623 0.454264581203 0.833681 0.458290 0.308134
0.684831976891 1.974220037460 0.774421513081 0.944302 0.119210 0.306731
0.701196730137 1.948661804199 0.727922677994 0.956643 0.028612 0.289854
0.726466715336 1.983951687813 0.636949241161 0.953068 0.087115 0.289951
0.749456524849 1.974387884140 0.564528167248 0.953068 0.087115 0.289951
0.805658102036 0.951454281807 0.382289111614 0.957524 0.001217 0.288352
0.803860366344 1.851627588272 0.388285607100 0.957524 0.001217 0.288352
0.748098731041 1.895960688591 0.574321269989 0.957524 -0.001217 0.288352
0.759296476841 1.895976424217 0.536962568760 0.957524 -0.001217 0.288352
0.756588041782 1.875510454178 0.545998752117 0.957524 0.001217 0.288352
0.695845901966 1.737430930138 0.748650968075 0.957524 0.001217 0.288352
0.774102509022 0.948396921158 0.487565904856 0.957524 0.001217 0.288352
0.779831230640 1.313634514809 0.468453317881 0.957524 0.001217 0.288352
0.774431288242 1.349329948425 0.486469119787 0.957524 0.001217 0.288352
0.791524410248 1.667420864105 0.429441630840 0.957524 0.001217 0.288352
0.774412274361 1.119600772858 0.486532509327 0.957524 0.001217 0.288352
0.800525784492 1.583702325821 0.399410486221 0.957524 0.001217 0.288352
0.775183022022 0.915600478649 0.483961224556 0.957524 0.001217 0.288352
0.800044655800 1.386053919792 0.401015728712 0.957524 0.001217 0.288352
0.802983224392 1.810267806053 0.391211777925 0.957524 0.001217 0.288352
0.802231907845 1.353283882141 0.393718332052 0.957524 0.001217 0.288352
0.803339362144 1.069072127342 0.390023618937 0.957524 0.001217 0.288352
0.794536352158 1.574854493141 0.419392973185 0.957524 0.001217 0.288352
0.722888469696 1.388546586037 0.658429503441 0.957524 -0.001217 0.288352
0.741977572441 1.303941726685 0.594743609428 0.957524 0.001217 0.288352
0.739868938923 1.422362089157 0.601778090000 0.957524 -0.001217 0.288352
0.809451818466 1.196593523026 0.369424760342 0.965696 0.001197 0.259673
0.813165128231 1.816953420639 0.355566501617 0.965696 0.001197 0.259673
0.813686370850 1.668231964111 0.353624552488 0.965696 0.001197 0.259673
0.815212011337 1.863519072533 0.347162783146 0.987889 0.001116 0.155160
0.819415450096 1.835593104362 0.320321023464 0.987889 0.001116 0.155160
0.816660523415 1.411830902100 0.337913066149 0.987889 0.001116 0.155160
0.815385103226 0.633328974247 0.346057534218 0.987889 0.001116 0.155160
0.820346176624 1.919571757317 0.314377725124 0.987889 0.001116 0.155160
0.825029492378 1.259011626244 0.294160723686 0.973826 0.003533 0.227265
0.824555814266 1.005353689194 0.300417423248 0.973826 0.003533 0.227265
0.824866473675 1.127871155739 0.297044634819 0.973826 0.003533 0.227265
0.822355687618 0.618695676327 0.316285848618 0.973826 0.003533 0.227265
0.824563562870 0.786029577255 0.304039746523 0.973826 0.003533 0.227265
0.828148484230 0.267084479332 0.297334223986 0.973826 0.003533 0.227265
0.825742840767 1.657537698746 0.284462988377 0.973826 0.003533 0.227265
0.828585267067 0.404119849205 0.293179422617 0.973826 0.003533 0.227265
0.814969956875 0.522973477840 0.348857641220 0.954848 0.001223 0.297091
0.816976785660 -0.154450103641 0.342427670956 0.954848 0.001223 0.297091
0.816394627094 0.124028667808 0.344292879105 0.954848 0.001223 0.297091
0.823869407177 -0.169877588749 0.320343017578 0.954848 0.001223 0.297091
0.813800215721 0.111671857536 0.353199720383 0.965696 0.001197 0.259673
0.811148047447 -0.034415677190 0.363096922636 0.965696 0.001197 0.259673
0.810792982578 0.149530634284 0.364413440228 0.965696 0.001197 0.259673
0.820749819279 -0.656071424484 0.330338507891 0.954848 0.001223 0.297091
0.816993951797 -0.708961606026 0.342372566462 0.954848 0.001223 0.297091
0.813678979874 -1.062349081039 0.353317201138 0.960928 0.001209 0.276796
0.806387364864 -1.141477227211 0.378573834896 0.960928 0.001209 0.276796
0.805467724800 -1.290679216385 0.381759226322 0.960928 0.001209 0.276796
0.803831040859 -1.045038700104 0.387428402901 0.960928 0.001209 0.276796
0.804276406765 -0.667936921120 0.385830372572 0.960094 0.001211 0.279674
0.797451555729 -0.697819709778 0.409319072962 0.959049 0.003647 0.283217
0.781734824181 -0.658537328243 0.460340619087 0.956645 0.011052 0.291046
0.758281886578 -0.659652948380 0.537460386753 0.956645 0.011052 0.291046
0.747031807899 -0.675737559795 0.576351642609 0.958218 0.028585 0.284607
0.756655156612 -1.488005757332 0.484688490629 0.507343 -0.527435 0.681480
0.717407703400 -1.379116058350 0.596609055996 0.389953 -0.587398 0.709155
-0.500495195389 -1.165520429611 0.835719347000 -0.076638 -0.629010 0.773610
-0.615530371666 -0.909561991692 0.876280903816 -0.437964 -0.027955 0.898558
-0.637399911880 -0.631754279137 0.868628203869 -0.697373 0.001381 0.716707
-0.644957423210 -0.066165819764 0.861298382282 -0.697373 0.001381 0.716707
-0.635878562927 -0.346496015787 0.870103836060 -0.697373 0.001381 0.716707
-0.633010566235 0.104766309261 0.872885346413 -0.697373 0.001381 0.716707
-0.630905628204 -0.050360798836 0.874926924706 -0.697373 0.001381 0.716707
-0.639032185078 0.961210370064 0.867045104504 -0.697373 0.001381 0.716707
-0.644883811474 1.053296089172 0.861369848251 -0.697373 0.001381 0.716707
-0.645262181759 0.568134546280 0.861002802849 -0.697373 0.001381 0.716707
-0.626400947571 0.885342359543 0.879295885563 -0.697373 0.001381 0.716707
-0.625868201256 1.195150375366 0.879812598228 -0.697373 0.001381 0.716707
-0.556230068207 2.012043952942 0.818463444710 -0.062013 0.932835 0.354926
-0.474873751402 2.138062953949 0.361764639616 0.005660 0.986039 0.166415
-0.274235457182 2.140960454941 0.336870878935 0.005660 0.986039 0.166415
-0.427113384008 2.151804685593 0.275384426117 0.005587 0.988880 0.148611
-0.507235825062 2.147732257843 0.305773913860 0.005587 0.988880 0.148611
-0.150928914547 2.150006532669 0.275265216827 0.005587 0.988880 0.148611
-0.548029601574 2.148995876312 0.299197018147 0.005587 0.988880 0.148611
-0.387121200562 2.149179458618 0.290992677212 0.005587 0.988880 0.148611
-0.177647933364 2.158128976822 0.222758769989 0.005587 0.988880 0.148611
0.126179844141 2.149616241455 0.276769161224 -0.005587 0.988880 0.148611
0.446509420872 2.154694557190 0.257133424282 -0.005587 0.988880 0.148611
0.109799832106 2.152964353561 0.253935486078 -0.005587 0.988880 0.148611
0.434538960457 2.148622274399 0.296734005213 -0.005587 0.988880 0.148611
0.199306771159 2.157601356506 0.227185904980 -0.005587 0.988880 0.148611
0.101009815931 2.152326107025 0.257770419121 -0.005587 0.988880 0.148611
0.274081140757 2.162245035172 0.199752718210 -0.005587 0.988880 0.148611
0.457883656025 2.157780647278 0.234860345721 0.001096 0.991465 0.130369
0.538122355938 2.161569595337 0.206200763583 0.001096 0.991465 0.130369
0.321675688028 2.169580936432 0.145602285862 0.001096 0.991465 0.130369
0.426593720913 2.172601938248 0.122750230134 0.001096 0.991465 0.130369
0.583369851112 2.168672800064 0.152471557260 0.001096 0.991465 0.130369
0.222244203091 2.168263673782 0.155566051602 0.001096 0.991465 0.130369
0.370892405510 2.171836614609 0.128540158272 0.001096 0.991465 0.130369
0.646510720253 2.146739721298 0.301268696785 0.085892 0.972197 0.217842
0.799313366413 2.076165437698 0.290407091379 0.849649 0.512694 0.123453
0.817258059978 2.018016099930 0.286219388247 0.982514 0.184875 0.022092
0.817175447941 1.973538637161 0.323474287987 0.995971 0.051497 0.073410
0.833202838898 1.553942680359 0.255615592003 0.971174 0.003557 0.238347
0.832750439644 1.555179953575 0.257443249226 0.971174 0.003557 0.238347
0.831428110600 0.222718954086 0.284240216017 0.971174 0.003557 0.238347
0.826835215092 1.636726975441 0.280291944742 0.971174 0.003557 0.238347
0.833194434643 0.812231302261 0.267560124397 0.971174 0.003557 0.238347
0.829907119274 1.160161375999 0.275398552418 0.971174 0.003557 0.238347
0.833213090897 1.264990687370 0.260213583708 0.971174 0.003557 0.238347
0.847994625568 1.860507607460 0.125610634685 0.995927 -0.001061 0.090153
0.836009502411 0.735692739487 0.256993174553 0.995927 -0.001061 0.090153
0.846239387989 1.670912742615 0.144851714373 0.995927 -0.001061 0.090153
0.846188068390 1.777373671532 0.145413964987 0.995927 -0.001061 0.090153
0.837853848934 1.370560288429 0.236775040627 0.995927 -0.001061 0.090153
0.839495420456 0.498234033585 0.218779265881 0.995927 -0.001061 0.090153
0.840485513210 0.619696974754 0.207926020026 0.995927 -0.001061 0.090153
0.836260139942 0.396050095558 0.254245162010 0.995927 -0.001061 0.090153
0.842428445816 1.851283788681 0.186628028750 0.995927 -0.001061 0.090153
0.838874340057 1.831026315689 0.225588694215 0.995927 -0.001061 0.090153
0.837805747986 1.136333227158 0.237302213907 0.995927 -0.001061 0.090153
0.846309542656 1.708785414696 0.144082367420 0.995927 -0.001061 0.090153
0.839291691780 0.524776101112 0.221013113856 0.995927 -0.001061 0.090153
0.840919911861 1.401804208755 0.203164651990 0.995927 -0.001061 0.090153
0.835577189922 0.209982097149 0.261731714010 0.995927 -0.001061 0.090153
0.847922682762 1.299046874046 0.126399368048 0.995927 0.001061 0.090153
0.846221148968 1.238848447800 0.145051270723 0.995927 0.001061 0.090153
0.848192155361 -0.067909002304 0.123445279896 0.995927 0.001061 0.090153
0.847226142883 -0.076861262321 0.134034961462 0.995927 0.001061 0.090153
0.848873972893 -0.363257527351 0.115971185267 0.995927 0.001061 0.090153
0.849035143852 1.508277773857 0.114204220474 0.995927 0.001061 0.090153
0.842743754387 -0.466365277767 0.183171182871 0.995927 0.001061 0.090153
0.848355591297 1.064499974251 0.121653459966 0.995927 0.001061 0.090153
0.847081959248 0.292168378830 0.135615080595 0.995927 0.001061 0.090153
0.849019050598 0.624248147011 0.114380896091 0.995927 0.001061 0.090153
0.843694031239 0.164547562599 0.172753974795 0.995927 0.001061 0.090153
0.840086281300 -0.251097321510 0.212302833796 0.995927 0.001061 0.090153
0.848139941692 -0.192663311958 0.124017819762 0.995927 0.001061 0.090153
0.845380544662 -0.582695364952 0.154266133904 0.995927 0.001061 0.090153
0.842536211014 0.676728606224 0.185446545482 0.995927 0.001061 0.090153
0.845563173294 0.327009081841 0.152264371514 0.995927 0.001061 0.090153
0.843879342079 0.297728002071 0.170722827315 0.995927 0.001061 0.090153
0.848560273647 0.727115273476 0.119409628212 0.995927 0.001061 0.090153
0.845891475677 0.581540226936 0.148665368557 0.995927 0.001061 0.090153
0.838673889637 -0.057139366865 0.227785527706 0.995927 0.001061 0.090153
0.839518070221 -0.427928090096 0.218531161547 0.995927 0.001061 0.090153
0.849046945572 0.465932726860 0.114074818790 0.995927 0.001061 0.090153
0.835906505585 -0.632415294647 0.261666983366 0.995812 0.009627 0.090917
0.835760354996 -0.932567358017 0.292258232832 0.995812 0.009627 0.090917
0.836578607559 -0.861668109894 0.276439934969 0.995812 0.009627 0.090917
0.839570224285 -1.369527459145 0.292694628239 0.995812 0.009627 0.090917
0.840620398521 -1.028918743134 0.248284503818 0.995812 0.009627 0.090917
0.841046512127 -0.895809471607 0.230757117271 0.995812 0.009627 0.090917
0.844975054264 -0.677103698254 0.166567072272 0.995812 0.009627 0.090917
0.847055375576 -0.623623430729 0.138595700264 0.995812 0.009627 0.090917
0.828048765659 -0.758433341980 0.274615943432 0.602847 0.004120 -0.797846
0.846340298653 -1.227368593216 0.134578421712 0.999291 -0.003044 0.037537
0.843808114529 -1.095112204552 0.213087931275 0.999291 -0.003044 0.037537
0.847371399403 -0.934567093849 0.131279990077 0.999291 -0.003044 0.037537
0.846364498138 -1.146073460579 0.140656396747 0.999291 -0.003044 0.037537
0.847738683224 -0.848108649254 0.128628715873 0.999291 -0.003044 0.037537
0.846915721893 -1.058562397957 0.133183434606 0.999291 -0.003044 0.037537
0.845597565174 -1.388835191727 0.141044527292 0.999291 -0.003044 0.037537
0.845804750919 -1.118982315063 0.157834470272 0.999291 -0.003044 0.037537
0.825410425663 -1.590892195702 0.272026330233 0.993898 -0.097047 0.052428
0.840426564217 -1.465678691864 0.219816923141 0.993898 -0.097047 0.052428
0.828927040100 -0.806685328484 0.304578572512 0.892505 0.011900 0.450880
0.829157829285 -1.304137945175 0.316482216120 0.892505 0.011900 0.450880
0.797028899193 -1.453896641731 0.409242630005 0.951262 -0.055053 0.303431
0.799572646618 -1.445015788078 0.401652276516 0.958842 -0.006092 0.283876
-0.676796555519 -1.117889642715 0.809583663940 -0.946397 0.006234 0.322947
-0.812222003937 -1.501038551331 0.353227585554 -0.951262 -0.055053 0.303431
-0.810895085335 -1.293336272240 0.362960219383 -0.960928 0.001209 0.276796
-0.810091257095 -1.391360878944 0.365744829178 -0.960928 0.001209 0.276796
-0.812463045120 -1.451447486877 0.357529461384 -0.960928 0.001209 0.276796
-0.797800660133 -0.991252839565 0.408316493034 -0.960928 0.001209 0.276796
-0.802838861942 -0.808820188046 0.390865266323 -0.960928 0.001209 0.276796
-0.683205664158 -0.746779620647 0.790110826492 -0.923189 0.001277 0.384343
-0.675143718719 -0.704279422760 0.812328398228 -0.938109 -0.006296 0.346282
-0.722128629684 -0.554162085056 0.660965144634 -0.957524 -0.001217 0.288352
-0.792970240116 -0.532274186611 0.424618273973 -0.957524 -0.001217 0.288352
-0.703489720821 -0.535760939121 0.723149478436 -0.957524 -0.001217 0.288352
-0.667029321194 -0.353427052498 0.835993349552 -0.941995 0.001248 0.335625
-0.671054482460 -0.410498201847 0.824654042721 -0.941995 0.001248 0.335625
-0.666188538074 0.263166666031 0.838361799717 -0.941995 0.001248 0.335625
-0.678789973259 0.411740094423 0.802861869335 -0.941995 -0.001248 0.335625
-0.681379497051 -0.254362821579 0.795566916466 -0.941995 -0.001248 0.335625
-0.682962656021 0.346181213856 0.791106939316 -0.941995 -0.001248 0.335625
-0.718562662601 0.538455843925 0.672862172127 -0.957524 0.001217 0.288352
-0.740620255470 0.565579116344 0.599271893501 -0.957524 0.001217 0.288352
-0.787819743156 0.588171958923 0.441801875830 -0.957524 -0.001217 0.288352
-0.761888623238 0.599623501301 0.528315007687 -0.957524 -0.001217 0.288352
-0.787111341953 0.637613475323 0.444165199995 -0.957524 -0.001217 0.288352
-0.679023921490 0.632839322090 0.802126169205 -0.949587 -0.013726 0.313202
-0.676107466221 0.644576728344 0.810418903828 -0.941995 0.001248 0.335625
-0.674805939198 0.998054027557 0.814085245132 -0.941995 0.001248 0.335625
-0.672826826572 1.017734289169 0.819660723209 -0.941995 0.001248 0.335625
-0.677106201649 0.748109817505 0.807605326176 -0.941995 0.001248 0.335625
-0.673613071442 1.331161499023 0.817445635796 -0.941995 -0.001248 0.335625
-0.672934949398 1.387919306755 0.819355964661 -0.941995 -0.001248 0.335625
-0.671791493893 1.483569622040 0.822577238083 -0.941995 -0.001248 0.335625
-0.673359572887 1.353571534157 0.818159759045 -0.941995 -0.001248 0.335625
-0.664219915867 1.762584090233 0.842424929142 -0.700167 0.001381 0.713977
-0.652787923813 0.806042492390 0.853672087193 -0.700167 -0.001381 0.713977
-0.656973600388 0.801929891109 0.849554061890 -0.700167 -0.001381 0.713977
-0.663330554962 0.524795651436 0.843299984932 -0.700167 0.001381 0.713977
-0.653820931911 0.494656473398 0.852655768394 -0.700167 0.001381 0.713977
-0.651410698891 0.068963617086 0.855027019978 -0.700167 0.001381 0.713977
-0.660790443420 -0.684741675854 0.845799207687 -0.700167 0.001381 0.713977
-0.662219107151 1.972750067711 0.816192805767 -0.822393 0.052015 0.566537
-0.733866512775 1.981664896011 0.613399565220 -0.953068 0.087115 0.289951
-0.782698571682 2.003710508347 0.446760684252 -0.953068 0.087115 0.289951
-0.812182009220 2.035980224609 0.342314302921 -0.995733 0.058314 0.071517
-0.808993577957 2.064434051514 0.262691557407 -0.982514 0.184875 0.022092
-0.677262842655 2.169951677322 0.159826919436 0.049799 0.987870 0.147080
-0.617655158043 2.156837940216 0.242555096745 0.021185 0.991228 0.130454
-0.597982466221 2.175152063370 0.103461936116 0.001096 0.991465 0.130369
-0.397501200438 2.161109447479 0.209681525826 0.001096 0.991465 0.130369
-0.516266286373 2.174237251282 0.110382601619 0.001096 0.991465 0.130369
-0.319486647844 2.164708852768 0.182455047965 0.001096 0.991465 0.130369
-0.456561267376 2.158174753189 0.231879651546 0.001096 0.991465 0.130369
-0.380086243153 2.171571016312 0.130550011992 0.001096 0.991465 0.130369
-0.582481622696 2.154387235641 0.260528296232 0.001096 0.991465 0.130369
-0.377118170261 2.181334972382 0.086547940969 0.001322 0.881656 0.471891
0.829431831837 1.979880809784 0.139874652028 0.977770 0.201839 0.056805
0.841006100178 1.906298756599 0.171207606792 0.983586 0.148443 0.102583
0.853674530983 1.432511806488 0.101256340742 0.938727 0.001253 0.344659
0.851680338383 0.416175752878 0.106665305793 0.938727 0.001253 0.344659
0.849783301353 0.186074495316 0.111810684204 0.938727 0.001253 0.344659
0.856234669685 1.071725606918 0.094312265515 0.938727 0.001253 0.344659
0.856485784054 0.278909087181 0.093631245196 0.938727 0.001253 0.344659
0.856813967228 1.142956972122 0.092741116881 0.938727 0.001253 0.344659
0.857643842697 -0.610351383686 0.090367853642 0.938422 -0.003769 0.345470
0.852338671684 -1.284297943115 0.099092349410 0.938422 -0.003769 0.345470
0.842903077602 -1.535437226295 0.109605416656 0.936264 -0.064344 0.345354
0.836111485958 -1.704216837883 0.099428750575 0.936958 -0.053429 0.345332
0.815015375614 -1.933421015739 0.091286472976 0.929991 -0.130117 0.343782
0.813477218151 -1.897268056870 0.115517675877 0.992356 -0.123362 0.003275
0.803181946278 -1.973295211792 0.150720953941 0.988542 -0.104366 0.109056
0.827000141144 -1.711490631104 0.144715234637 0.992283 -0.057704 0.109751
0.823227524757 -1.673381567001 0.219994738698 0.994003 -0.077324 0.077324
0.823067009449 -1.621032714844 0.274110525846 0.994003 -0.077324 0.077324
0.835906744003 -1.591189146042 0.135545134544 0.994724 -0.067949 0.076860
0.824495851994 -1.602577686310 0.272086530924 0.994724 -0.067949 0.076860
0.798414051533 -1.771011590958 0.268531739712 0.812783 -0.263647 0.519494
0.763623416424 -1.777519583702 0.306780040264 0.416182 -0.397047 0.818013
-0.760220766068 -1.412436723709 0.533880293369 -0.957524 0.001217 0.288352
-0.788277089596 -1.567948341370 0.393320918083 -0.701745 -0.419720 0.575664
-0.814751088619 -1.522827386856 0.340719461441 -0.955877 -0.057124 0.288159
-0.842124998569 -1.466572999954 0.185761794448 -0.993898 -0.097047 0.052428
-0.839632153511 -1.465037465096 0.236164540052 -0.993898 -0.097047 0.052428
-0.845201432705 -1.129807114601 0.173039644957 -0.999291 -0.003044 0.037537
-0.840410232544 -1.369262337685 0.281090110540 -0.999291 -0.003044 0.037537
-0.847119688988 -1.140407204628 0.120974570513 -0.999291 -0.003044 0.037537
-0.845359504223 -1.372152924538 0.148780778050 -0.999291 -0.003044 0.037537
-0.844464123249 -1.237721443176 0.183789759874 -0.999291 -0.003044 0.037537
-0.847560524940 -1.082698941231 0.113982111216 -0.999291 -0.003044 0.037537
-0.845399856567 -0.927519202232 0.184471577406 -0.999291 -0.003044 0.037537
-0.845769405365 -0.921679019928 0.175094649196 -0.999291 -0.003044 0.037537
-0.851925253868 -0.748821854591 0.104714520276 -0.938422 -0.003769 0.345470
-0.850512266159 -0.870326459408 0.107525654137 -0.938422 -0.003769 0.345470
-0.852810919285 -1.082836866379 0.099504888058 -0.938422 -0.003769 0.345470
-0.855763852596 1.739292979240 0.095589242876 -0.938727 0.001253 0.344659
-0.849276304245 -0.463602930307 0.113185569644 -0.938727 0.001253 0.344659
-0.852111756802 0.884108304977 0.105494879186 -0.938727 0.001253 0.344659
-0.855986535549 1.254006624222 0.094985283911 -0.938727 0.001253 0.344659
-0.857319712639 -0.083461940289 0.091369338334 -0.938727 0.001253 0.344659
-0.855683088303 0.743576526642 0.095808312297 -0.938727 0.001253 0.344659
-0.848768293858 -0.383700966835 0.117128387094 -0.995927 0.001061 0.090153
-0.844552755356 -0.486294925213 0.163340494037 -0.995927 0.001061 0.090153
-0.842314183712 -0.504365503788 0.187880709767 -0.995927 0.001061 0.090153
-0.849070310593 1.209504961967 0.113818109035 -0.995927 0.001061 0.090153
-0.844937264919 1.031185507774 0.159125506878 -0.995927 0.001061 0.090153
-0.845236957073 0.882291674614 0.155840039253 -0.995927 0.001061 0.090153
-0.846072316170 1.405318498611 0.146682500839 -0.995927 0.001061 0.090153
-0.837714493275 -0.003254998708 0.238303184509 -0.995927 0.001061 0.090153
-0.845615029335 0.277928143740 0.151695653796 -0.995927 0.001061 0.090153
-0.843060970306 0.151419952512 0.179693847895 -0.995927 0.001061 0.090153
-0.846223831177 1.067884206772 0.145021587610 -0.995927 0.001061 0.090153
-0.835994005203 -0.295205384493 0.257163345814 -0.995927 0.001061 0.090153
-0.840035498142 0.488322645426 0.212859213352 -0.995927 0.001061 0.090153
-0.835914731026 -0.460893124342 0.258032083511 -0.995927 0.001061 0.090153
-0.845861494541 -0.181759744883 0.148993849754 -0.995927 0.001061 0.090153
-0.848352909088 0.210607156157 0.121682159603 -0.995927 0.001061 0.090153
-0.847395539284 0.525217711926 0.132177203894 -0.995927 0.001061 0.090153
-0.847097516060 -0.367602437735 0.135444089770 -0.995927 0.001061 0.090153
-0.839761614799 -0.432795792818 0.215862110257 -0.995927 0.001061 0.090153
-0.840696930885 0.484003335238 0.205608978868 -0.995927 0.001061 0.090153
-0.846663355827 0.426808029413 0.140203505754 -0.995927 0.001061 0.090153
-0.840710639954 -0.421167731285 0.205459058285 -0.995927 0.001061 0.090153
-0.838835835457 0.326015144587 0.226010650396 -0.995927 0.001061 0.090153
-0.838926911354 0.821425914764 0.225012153387 -0.995927 0.001061 0.090153
-0.841269254684 1.381718397141 0.199334859848 -0.995927 0.001061 0.090153
-0.839994490147 0.510369002819 0.213309124112 -0.995927 0.001061 0.090153
-0.837927818298 1.044496655464 0.235964074731 -0.995927 0.001061 0.090153
-0.845211386681 1.331846475601 0.156120538712 -0.995927 0.001061 0.090153
-0.843442857265 1.111927390099 0.175507634878 -0.995927 0.001061 0.090153
-0.836251497269 0.397278606892 0.254340469837 -0.995927 0.001061 0.090153
-0.847666501999 1.874989151955 0.129207015038 -0.995927 0.001061 0.090153
-0.836434900761 0.091602534056 0.252330213785 -0.995927 0.001061 0.090153
-0.841284871101 0.773600757122 0.199163630605 -0.995927 0.001061 0.090153
-0.837227761745 0.562931954861 0.243638932705 -0.995927 0.001061 0.090153
-0.837736427784 0.183832764626 0.238062545657 -0.995927 0.001061 0.090153
-0.846036314964 1.542765974998 0.147077679634 -0.995927 0.001061 0.090153
-0.831470131874 1.464213609695 0.264133095741 -0.971174 0.003557 0.238347
-0.830406367779 1.686379909515 0.264910131693 -0.971174 0.003557 0.238347
-0.833954751492 0.908534944057 0.262909024954 -0.971174 0.003557 0.238347
-0.835115373135 1.787114143372 0.244060873985 -0.971174 0.003557 0.238347
-0.833995223045 0.781148135662 0.264789283276 -0.971174 0.003557 0.238347
-0.829911768436 1.121240019798 0.276005089283 -0.971174 0.003557 0.238347
-0.831185698509 0.706430077553 0.277463287115 -0.971174 0.003557 0.238347
-0.826359808445 0.468706667423 0.301635533571 -0.973826 0.003533 0.227265
-0.826078832150 0.769832193851 0.297819972038 -0.973826 0.003533 0.227265
-0.825429677963 0.140093624592 0.311096608639 -0.973826 0.003533 0.227265
-0.828184902668 0.593812227249 0.291732966900 -0.973826 0.003533 0.227265
-0.827820181847 -0.020972520113 0.303541898727 -0.973826 0.003533 0.227265
-0.822923243046 0.239943861961 0.320167958736 -0.973826 0.003533 0.227265
-0.830890476704 -0.012701731175 0.290253400803 -0.973826 0.003533 0.227265
-0.827176153660 0.444602578878 0.298540621996 -0.973826 0.003533 0.227265
-0.819721400738 -0.085697114468 0.333633929491 -0.954848 0.001223 0.297091
-0.817550659180 -0.367478102446 0.340589255095 -0.954848 0.001223 0.297091
-0.828593969345 -0.433179944754 0.305205404758 -0.954848 0.001223 0.297091
-0.826514720917 -0.816090106964 0.311867594719 -0.954848 0.001223 0.297091
-0.816713571548 -0.876352548599 0.343271374702 -0.954848 0.001223 0.297091
-0.832492649555 -0.617175221443 0.292801558971 -0.892505 0.011900 0.450880
-0.822898030281 -1.399832367897 0.331269055605 -0.892505 0.011900 0.450880
-0.830045402050 -1.246926784515 0.313301265240 -0.892505 0.011900 0.450880
-0.837236940861 -0.875749945641 0.270584821701 -0.995812 0.009627 0.090917
-0.839099884033 -1.274554967880 0.288678437471 -0.995812 0.009627 0.090917
-0.842665910721 -0.647672712803 0.189039438963 -0.995812 0.009627 0.090917
-0.843973815441 -0.970199942589 0.205851122737 -0.995812 0.009627 0.090917
-0.842867374420 -1.021885991096 0.222972884774 -0.995812 0.009627 0.090917
-0.841394424438 -0.822974503040 0.219909235835 -0.995812 0.009627 0.090917
-0.814647316933 -0.427917301655 0.350037723780 -0.965696 0.001197 0.259673
-0.810654342175 -0.405917286873 0.364943861961 -0.965696 -0.001197 0.259673
-0.740665614605 -0.567092239857 0.598504424095 -0.957737 -0.016024 0.287198
-0.707421541214 -0.575880229473 0.706705152988 -0.955144 -0.062486 0.289476
-0.726853728294 -0.617583096027 0.639208674431 -0.956645 0.011052 0.291046
-0.790817141533 -0.661442577839 0.430597603321 -0.956645 0.011052 0.291046
-0.706428170204 -0.643904864788 0.709086537361 -0.958218 0.028585 0.284607
-0.809191226959 0.254452764988 0.370378851891 -0.965696 0.001197 0.259673
-0.750262975693 -0.381826460361 0.567101180553 -0.957524 -0.001217 0.288352
-0.793623864651 0.255358934402 0.422437787056 -0.957524 -0.001217 0.288352
-0.791209459305 -0.318283796310 0.430492699146 -0.957524 -0.001217 0.288352
-0.798216879368 0.357294142246 0.407114148140 -0.957524 -0.001217 0.288352
-0.717522561550 -0.353086948395 0.676331937313 -0.957524 -0.001217 0.288352
-0.744291543961 -0.343224614859 0.587023377419 -0.957524 -0.001217 0.288352
-0.757576167583 -0.102572262287 0.542702376842 -0.957524 -0.001217 0.288352
-0.756087183952 -0.400959044695 0.547669887543 -0.957524 -0.001217 0.288352
-0.800970911980 -0.258695691824 0.397926032543 -0.957524 -0.001217 0.288352
-0.791584014893 -0.169766604900 0.429243087769 -0.957524 -0.001217 0.288352
-0.782445251942 0.238763749599 0.459732621908 -0.957524 -0.001217 0.288352
-0.767918109894 -0.121176391840 0.508198857307 -0.957524 -0.001217 0.288352
-0.766128361225 -0.439446061850 0.514169931412 -0.957524 -0.001217 0.288352
-0.755265295506 -0.167450487614 0.550412118435 -0.957524 -0.001217 0.288352
-0.702420115471 -0.499816656113 0.726717650890 -0.957524 -0.001217 0.288352
-0.697863042355 -0.496482402086 0.741921246052 -0.957524 -0.001217 0.288352
-0.793648898602 -0.353583842516 0.422354102135 -0.957524 -0.001217 0.288352
-0.799514949322 0.223701834679 0.402783542871 -0.957524 -0.001217 0.288352
-0.750325500965 -0.173901826143 0.566892683506 -0.957524 -0.001217 0.288352
-0.762089073658 -0.227636158466 0.527646243572 -0.957524 -0.001217 0.288352
-0.755944728851 -0.251837849617 0.548145413399 -0.957524 -0.001217 0.288352
-0.794509172440 0.131973683834 0.419484138489 -0.957524 -0.001217 0.288352
-0.722013354301 0.421689450741 0.661349475384 -0.957524 -0.001217 0.288352
-0.708434522152 0.400508910418 0.706652164459 -0.957524 -0.001217 0.288352
-0.752833783627 0.146507397294 0.558524250984 -0.957524 -0.001217 0.288352
-0.768775939941 0.448204129934 0.505336999893 -0.957524 -0.001217 0.288352
-0.689899504185 -0.168401524425 0.768490016460 -0.957524 -0.001217 0.288352
-0.699903726578 -0.248146563768 0.735113024712 -0.957524 -0.001217 0.288352
-0.731573045254 0.101861409843 0.629455804825 -0.957524 -0.001217 0.288352
-0.753806531429 0.258512526751 0.555278956890 -0.957524 -0.001217 0.288352
-0.737371444702 0.200918748975 0.610110640526 -0.957524 -0.001217 0.288352
-0.689498841763 0.227906063199 0.769826650620 -0.957524 -0.001217 0.288352
-0.686461210251 0.293091893196 0.779960989952 -0.957524 -0.001217 0.288352
-0.694199740887 -0.383562475443 0.754143118858 -0.957524 -0.001217 0.288352
-0.735899507999 0.464053362608 0.615021467209 -0.957524 -0.001217 0.288352
-0.684546649456 -0.208838745952 0.786348342896 -0.957524 -0.001217 0.288352
-0.704038977623 0.396454423666 0.721316695213 -0.957524 -0.001217 0.288352
-0.709630668163 -0.235230803490 0.702661275864 -0.957524 -0.001217 0.288352
-0.702667236328 0.430237382650 0.725893378258 -0.957524 -0.001217 0.288352
-0.748001635075 0.066958129406 0.574645757675 -0.957524 -0.001217 0.288352
-0.697085380554 -0.102126091719 0.744515895844 -0.957524 -0.001217 0.288352
-0.717886209488 0.240384191275 0.675118803978 -0.957524 -0.001217 0.288352
-0.781533837318 0.424662411213 0.462773233652 -0.957524 -0.001217 0.288352
-0.771713078022 0.241435796022 0.495537936687 -0.957524 -0.001217 0.288352
-0.692505836487 0.488200604916 0.759794533253 -0.957524 0.001217 0.288352
-0.809469819069 0.725750327110 0.369365692139 -0.965696 0.001197 0.259673
-0.809789955616 1.887425303459 0.367700338364 -0.965696 0.001197 0.259673
-0.807779014111 0.805642008781 0.375153303146 -0.957524 0.001217 0.288352
-0.808613657951 1.146078824997 0.372236847878 -0.957524 0.001217 0.288352
-0.685041785240 1.426201939583 0.784696698189 -0.957524 -0.001217 0.288352
-0.710098445415 1.933446645737 0.700088143349 -0.956643 0.028612 0.289854
-0.803299784660 1.922363162041 0.390155881643 -0.957524 -0.001217 0.288352
-0.778739392757 1.914935827255 0.472096115351 -0.957524 -0.001217 0.288352
-0.754422008991 1.878944993019 0.553225457668 -0.957524 0.001217 0.288352
-0.690331339836 1.656575083733 0.767049372196 -0.957524 0.001217 0.288352
-0.689400553703 1.354853749275 0.770154476166 -0.957524 0.001217 0.288352
-0.692220091820 1.278257369995 0.760747909546 -0.957524 0.001217 0.288352
-0.697731494904 1.428168296814 0.742360413074 -0.957524 0.001217 0.288352
-0.718467175961 0.828483343124 0.673180520535 -0.957524 -0.001217 0.288352
-0.706704020500 0.809183418751 0.712425529957 -0.957524 -0.001217 0.288352
-0.722892224789 0.764657497406 0.658417344093 -0.957524 -0.001217 0.288352
-0.723357856274 0.663931488991 0.656863749027 -0.957524 -0.001217 0.288352
-0.742542564869 0.664360821247 0.592858374119 -0.957524 -0.001217 0.288352
-0.750894367695 0.660218238831 0.564994633198 -0.957524 -0.001217 0.288352
-0.734001100063 0.679123044014 0.621354937553 -0.957524 -0.001217 0.288352
-0.778200387955 1.018793582916 0.473894238472 -0.957524 0.001217 0.288352
-0.795712471008 0.960795044899 0.415469348431 -0.957524 0.001217 0.288352
-0.800051569939 1.545000553131 0.400992870331 -0.957524 0.001217 0.288352
-0.781219005585 0.960082709789 0.463823556900 -0.957524 0.001217 0.288352
-0.787819743156 1.351846218109 0.441801577806 -0.957524 0.001217 0.288352
-0.802559077740 1.562865734100 0.392627239227 -0.957524 0.001217 0.288352
-0.796045958996 1.260836362839 0.414356708527 -0.957524 0.001217 0.288352
-0.779998600483 1.297051429749 0.467894971371 -0.957524 0.001217 0.288352
-0.795565128326 1.809866070747 0.415960907936 -0.957524 0.001217 0.288352
-0.773373305798 1.557095766068 0.489998698235 -0.957524 0.001217 0.288352
-0.793612837791 1.718591451645 0.422474324703 -0.957524 0.001217 0.288352
-0.786749541759 1.346708536148 0.445371955633 -0.957524 0.001217 0.288352
-0.772129356861 1.273988604546 0.494149059057 -0.957524 0.001217 0.288352
-0.719946444035 1.361722469330 0.668245136738 -0.957524 -0.001217 0.288352
-0.804964065552 1.020154714584 0.384492129087 -0.957524 0.001217 0.288352
-0.816390931606 1.167748928070 0.339635401964 -0.987889 0.001116 0.155160
-0.820035994053 1.387387037277 0.316358864307 -0.987889 0.001116 0.155160
-0.817077040672 1.393756628036 0.335254132748 -0.987889 0.001116 0.155160
-0.819995999336 1.357719421387 0.316614389420 -0.987889 0.001116 0.155160
-0.818522393703 1.101334691048 0.326024502516 -0.987889 0.001116 0.155160
-0.824295759201 1.907601475716 0.273191273212 -0.995971 0.051497 0.073410
-0.835165143013 1.927941203117 0.195968434215 -0.983586 0.148443 0.102583
-0.834592401981 1.948111653328 0.164473861456 -0.977770 0.201839 0.056805
0.791673421860 -2.019212722778 0.125564977527 0.897696 -0.425668 0.113792
0.740010857582 -1.836679100990 0.291491895914 0.473964 -0.371138 0.798508
0.686774253845 -1.780529618263 0.335248649120 0.207883 -0.414293 0.886085
-0.766469359398 -1.571245312691 0.411085963249 -0.389953 -0.587398 0.709155
-0.723237574100 -1.740825772285 0.345308095217 -0.207883 -0.414293 0.886085
-0.766679584980 -1.898434281349 0.247033998370 -0.473964 -0.371138 0.798508
-0.786312937737 -1.825668334961 0.259748429060 -0.812783 -0.263647 0.519494
-0.795874118805 -1.682489395142 0.315534949303 -0.847387 -0.225869 0.480540
-0.825588941574 -1.636565685272 0.226298511028 -0.994003 -0.077324 0.077324
-0.821446239948 -1.700009703636 0.216378778219 -0.994003 -0.077324 0.077324
-0.826901614666 -1.715988039970 0.143283948302 -0.992283 -0.057704 0.109751
-0.834307730198 -1.743358850479 0.098258607090 -0.936958 -0.053429 0.345332
-0.832522690296 -1.580688834190 0.188113987446 -0.994724 -0.067949 0.076860
0.764073550701 -2.067451477051 0.126695886254 0.773113 -0.604712 0.191365
0.730680525303 -2.100311040878 0.150105446577 0.746104 -0.581735 0.323903
0.757578790188 -2.065189838409 0.151684895158 0.744288 -0.597031 0.299316
0.709376692772 -1.988457202911 0.228794291615 0.119130 -0.486566 0.865484
0.623895525932 -1.970685243607 0.248901888728 0.108264 -0.442897 0.890012
0.708554565907 -1.894999504089 0.276249766350 0.108264 -0.442897 0.890012
0.586639285088 -1.861254334450 0.306859552860 0.090184 -0.437047 0.894906
-0.580040752888 -1.853725671768 0.311199337244 -0.090184 -0.437047 0.894906
-0.622400641441 -1.747284173965 0.358917474747 -0.090184 -0.437047 0.894906
-0.473645627499 -1.864892601967 0.315814346075 -0.084466 -0.436175 0.895889
-0.564154088497 -1.762596845627 0.357228308916 -0.084466 -0.436175 0.895889
-0.545554280281 -1.992415070534 0.246339887381 -0.056052 -0.452516 0.889993
-0.479163676500 -1.910933256149 0.292142331600 -0.056052 -0.452516 0.889993
-0.426553726196 -1.845601677895 0.328826338053 -0.056052 -0.452516 0.889993
-0.425902158022 -2.121047735214 0.174222156405 -0.069524 -0.549094 0.832864
-0.510379672050 -2.113379001617 0.172235071659 -0.069524 -0.549094 0.832864
-0.678950548172 -2.099678277969 0.167398959398 -0.069360 -0.547799 0.833730
-0.665663480759 -2.008969545364 0.223247423768 -0.119130 -0.486566 0.865484
-0.593670487404 -2.012299776077 0.231172755361 -0.119130 -0.486566 0.865484
-0.652006447315 -1.976471900940 0.242660388350 -0.108264 -0.442897 0.890012
-0.655536115170 -1.793317079544 0.333004593849 -0.108264 -0.442897 0.890012
-0.648547351360 -1.831525802612 0.314907848835 -0.108264 -0.442897 0.890012
-0.763844907284 -2.044602870941 0.169918596745 -0.520636 -0.418808 0.744001
-0.797453582287 -1.870113968849 0.219052672386 -0.822060 -0.268840 0.501938
-0.810995757580 -1.890821576118 0.158728763461 -0.988542 -0.104366 0.109056
-0.789678335190 -2.024122714996 0.122897863388 -0.897696 -0.425668 0.113792
-0.231285437942 -2.175818920135 0.115718938410 0.001207 -0.961751 0.273924
-0.724589049816 -2.111074924469 0.136531278491 -0.259517 -0.939536 0.223435
-0.637151658535 -2.111779689789 0.162576794624 -0.143889 -0.864786 0.481083
-0.504873335361 -2.135272741318 0.156054660678 -0.106003 -0.826244 0.553249
-0.128055587411 -2.168771266937 0.138395339251 0.001355 -0.830587 0.556887
0.195632204413 -2.163796186447 0.145820468664 0.001355 -0.830587 0.556887
0.487328350544 -2.157367229462 0.127435266972 0.100688 -0.798205 0.593911
0.617308020592 -2.117983102798 0.157374233007 0.143889 -0.864786 0.481083
0.591919839382 -2.052046775818 0.205851197243 0.069360 -0.547799 0.833730
0.495047926903 -2.096807479858 0.184419661760 0.069524 -0.549094 0.832864
0.477282762527 -2.087359189987 0.192118197680 0.069524 -0.549094 0.832864
0.455511718988 -2.048605203629 0.219440072775 0.069524 -0.549094 0.832864
0.419710695744 -1.993102431297 0.254102975130 0.056052 -0.452516 0.889993
0.514481663704 -1.993860006332 0.247606903315 0.056052 -0.452516 0.889993
0.550406932831 -1.765966773033 0.356878370047 0.084466 -0.436175 0.895889
0.530041873455 -1.919284224510 0.283946752548 0.084466 -0.436175 0.895889
0.565068721771 -1.903601884842 0.288302898407 0.084466 -0.436175 0.895889
0.381585031748 -1.891504526138 0.307139396667 0.022688 -0.455088 0.890157
0.279837965965 -2.029919862747 0.239084497094 0.022688 -0.455088 0.890157
0.310437917709 -1.893217325211 0.308068513870 0.025476 -0.457230 0.888984
0.291811913252 -1.850537896156 0.330561757088 0.025476 -0.457230 0.888984
0.341123044491 -1.858453750610 0.325023412704 0.025476 -0.457230 0.888984
0.198970854282 -1.962646484375 0.275431543589 -0.001314 -0.456129 0.889912
0.141732230783 -1.916852712631 0.298927247524 0.001314 -0.456129 0.889912
0.043031238019 -1.966231346130 0.273524969816 -0.003948 -0.454041 0.890972
0.185421139002 -1.801943421364 0.357804924250 -0.003948 -0.454041 0.890972
0.190880015492 -1.807640671730 0.354918122292 -0.003948 -0.454041 0.890972
-0.037051979452 -1.870910644531 0.322119355202 0.003948 -0.454041 0.890972
-0.173280581832 -1.800912857056 0.358288705349 0.003948 -0.454041 0.890972
-0.035472203046 -1.806291460991 0.355070680380 0.003948 -0.454041 0.890972
-0.175319507718 -1.943819403648 0.285091310740 0.001314 -0.456129 0.889912
-0.179429024458 -1.897568464279 0.308821618557 0.001314 -0.456129 0.889912
-0.295886397362 -1.898341178894 0.305868327618 -0.025476 -0.457230 0.888984
-0.237743258476 -1.991703033447 0.259610652924 -0.025476 -0.457230 0.888984
-0.273590713739 -1.817522287369 0.348075509071 -0.025476 -0.457230 0.888984
-0.305407732725 -1.940317749977 0.284121364355 -0.022688 -0.455088 0.890157
-0.359342217445 -2.027517557144 0.238370880485 -0.022688 -0.455088 0.890157
-0.287446081638 -1.983263134956 0.262674748898 -0.022688 -0.455088 0.890157
-0.240945875645 -2.091995239258 0.199920237064 -0.026148 -0.549100 0.835348
-0.374671638012 -2.038835525513 0.230701565742 -0.026148 -0.549100 0.835348
-0.333226412535 -2.130967855453 0.171362340450 -0.026148 -0.549100 0.835348
-0.051595706493 -2.127745628357 0.177498415112 0.001353 -0.550634 0.834745
-0.048827979714 -2.123221635818 0.180476263165 -0.001353 -0.550634 0.834745
-0.037524580956 -2.089604377747 0.202604085207 0.001353 -0.550634 0.834745
0.199728757143 -2.039200782776 0.235781088471 0.001353 -0.550634 0.834745
0.111323975027 -2.125086784363 0.179248437285 0.001353 -0.550634 0.834745
0.313112258911 -2.083924293518 0.202960923314 0.026148 -0.549100 0.835348
0.291626870632 -2.041329383850 0.231674417853 0.026148 -0.549100 0.835348
0.221796512604 -2.149795532227 0.162477374077 0.026148 -0.549100 0.835348
-0.742600739002 -2.080614089966 0.158109053969 -0.744288 -0.597031 0.299316
0.673841476440 2.176542043686 0.114083036780 -0.049799 0.987870 0.147080
-0.618955850601 2.136802434921 0.350993126631 -0.071490 0.966993 0.244570
-0.593417167664 2.116855621338 0.434695094824 -0.040401 0.968407 0.246081
-0.534674406052 2.048938035965 0.704954147339 -0.025494 0.967573 0.251302
-0.549279510975 2.092817068100 0.534488558769 -0.025494 0.967573 0.251302
-0.581696689129 2.030799388885 0.754249632359 -0.097812 0.953341 0.285611
-0.672440767288 2.116606235504 0.409890890121 -0.281153 0.918433 0.278269
-0.716534435749 2.141834497452 0.279820114374 -0.319642 0.902953 0.287236
-0.772595942020 2.110913515091 0.291538953781 -0.606002 0.761787 0.229003
-0.638998448849 2.055064439774 0.644691526890 -0.200970 0.938322 0.281358
-0.655639350414 2.055680990219 0.628469824791 -0.264263 0.924207 0.275691
-0.779858469963 2.082727193832 0.360304385424 -0.584830 0.737112 0.338586
-0.700004339218 2.055799961090 0.571528196335 -0.381577 0.879286 0.285052
-0.737612605095 2.055306911469 0.509785056114 -0.555196 0.777910 0.294301
0.696183085442 2.127826929092 0.348748356104 0.290855 0.915977 0.276385
0.653563320637 2.070412874222 0.581006884575 0.264263 0.924207 0.275691
0.701003193855 2.096024036407 0.447843521833 0.396313 0.873103 0.283948
0.628510773182 2.030772686005 0.733119845390 0.200970 0.938322 0.281358
0.627291500568 2.140841007233 0.332586348057 0.071490 0.966993 0.244570
0.581932604313 2.137021541595 0.356874048710 0.040401 0.968407 0.246081
0.125699162483 2.144339084625 0.311159521341 -0.005660 0.986039 0.166415
0.477005004883 2.138551235199 0.358966052532 -0.005660 0.986039 0.166415
0.541727840900 2.077266693115 0.595142126083 0.025494 0.967573 0.251302
0.584052920341 2.034970283508 0.739500105381 0.097812 0.953341 0.285611
0.798252105713 -1.083015203476 0.406752407551 0.960928 0.001209 0.276796
0.802762210369 -0.702186346054 0.391130357981 0.960928 0.001209 0.276796
0.020060608163 2.009424924850 0.836696863174 0.001199 0.964929 0.262509
-0.506184875965 0.473603755236 0.895774483681 0.936483 0.001257 0.350710
-0.508476614952 0.397831082344 0.901010751724 0.000978 0.000978 0.999999
-0.516575098038 0.420134067535 0.901010751724 0.000978 0.000978 0.999999
-0.519658088684 -0.430957198143 0.901010751724 0.000978 0.000978 0.999999
-0.524017393589 1.035744309425 0.901010751724 0.000978 0.000978 0.999999
-0.518790841103 1.818768143654 0.901010751724 0.000978 0.000978 0.999999
-0.524913549423 1.777902841568 0.901010751724 0.000978 0.000978 0.999999
-0.529354453087 0.639267325401 0.901010751724 0.000978 0.000978 0.999999
0.124217160046 0.250524878502 0.913531064987 0.000978 0.000978 0.999999
0.119264602661 1.339618682861 0.913531064987 0.000978 0.000978 0.999999
0.123344473541 -0.062825560570 0.913531064987 0.000978 0.000978 0.999999
0.116399109364 0.607528626919 0.913531064987 0.000978 0.000978 0.999999
0.120612658560 -0.503140509129 0.913531064987 0.000978 0.000978 0.999999
0.136292219162 0.086274445057 0.913531064987 0.000978 0.000978 0.999999
-0.273597508669 1.541123628616 0.904758512974 -0.029133 0.001005 0.999575
-0.288706600666 1.324471116066 0.904332220554 -0.029133 0.001005 0.999575
-0.269708335400 1.298386096954 0.904868245125 -0.029133 0.001005 0.999575
-0.276847600937 1.598242521286 0.904666841030 -0.029133 0.001005 0.999575
-0.235799163580 1.719402790070 0.905824959278 -0.029133 0.001005 0.999575
-0.300797164440 1.799362778664 0.903991103172 -0.029133 0.001005 0.999575
-0.231638699770 0.893206119537 0.905942320824 -0.029133 -0.001005 0.999575
-0.227478533983 1.404825925827 0.906059682369 -0.029133 -0.001005 0.999575
-0.222698971629 0.914699196815 0.906194508076 -0.029133 -0.001005 0.999575
-0.240510374308 1.438883781433 0.905692040920 -0.029133 -0.001005 0.999575
-0.202683150768 1.349534153938 0.906759262085 -0.029133 -0.001005 0.999575
-0.240221023560 1.255758404732 0.905700147152 -0.029133 -0.001005 0.999575
-0.192477345467 1.076653480530 0.907047152519 -0.029133 -0.001005 0.999575
-0.194692656398 0.808939278126 0.906984686852 -0.029133 -0.001005 0.999575
-0.246452674270 0.690885841846 0.905524373055 -0.029133 -0.001005 0.999575
-0.192006915808 1.070178985596 0.907060444355 -0.029133 -0.001005 0.999575
-0.253084093332 1.292348265648 0.905337274075 -0.029133 -0.001005 0.999575
-0.189991503954 0.673659265041 0.907117247581 -0.029133 -0.001005 0.999575
-0.238336414099 0.348446011543 0.905753314495 -0.029133 0.001005 0.999575
-0.209528967738 0.209078580141 0.906566083431 -0.029133 0.001005 0.999575
-0.210342079401 0.349041163921 0.906543135643 -0.029133 0.001005 0.999575
-0.264425605536 0.357731103897 0.905017256737 -0.029133 0.001005 0.999575
-0.215689927340 0.283561110497 0.906392216682 -0.029133 0.001005 0.999575
-0.286693096161 -0.317205071449 0.904389023781 -0.029133 0.001005 0.999575
-0.300951868296 0.473284155130 0.903986752033 -0.029133 0.001005 0.999575
-0.256233334541 0.232069849968 0.905248403549 -0.029133 0.001005 0.999575
-0.205349251628 0.411481708288 0.906683981419 -0.029133 0.001005 0.999575
-0.180521830916 -0.265236556530 0.907384455204 -0.029133 0.001005 0.999575
-0.213736221194 -0.173311784863 0.906447350979 -0.029133 0.001005 0.999575
-0.169882506132 0.122942671180 0.907684624195 -0.029133 0.001005 0.999575
-0.234009757638 -0.132112294436 0.905875384808 -0.029133 0.001005 0.999575
-0.207773372531 -0.402432858944 0.906615614891 -0.029133 0.001005 0.999575
-0.285262882710 -0.462029814720 0.904429376125 -0.029133 0.001005 0.999575
-0.157811969519 0.026159405708 0.908025145531 -0.029133 0.001005 0.999575
-0.200659334660 -0.284710437059 0.906816303730 -0.029133 0.001005 0.999575
-0.255904018879 -0.513729095459 0.905257701874 -0.029133 0.001005 0.999575
-0.130242511630 0.176690816879 0.913531064987 0.000978 0.000978 0.999999
-0.134582787752 0.931575357914 0.913531064987 0.000978 0.000978 0.999999
-0.131195053458 0.629104614258 0.913531064987 0.000978 0.000978 0.999999
-0.119475796819 0.022230148315 0.913531064987 0.000978 0.000978 0.999999
-0.123710460961 0.564846813679 0.913531064987 0.000978 0.000978 0.999999
-0.113511718810 1.473105311394 0.910499095917 0.936483 0.001257 0.350710
-0.139466136694 -0.482892006636 0.913351714611 -0.936483 0.001257 0.350710
-0.197396710515 1.676280975342 0.906908392906 -0.029133 0.001005 0.999575
-0.150440484285 1.845229506493 0.908233106136 -0.029133 0.001005 0.999575
-0.201049312949 1.639683604240 0.906805336475 -0.029133 0.001005 0.999575
-0.197666004300 1.580913066864 0.906900763512 -0.029133 0.001005 0.999575
-0.156278580427 1.191699266434 0.908068418503 -0.029133 0.001005 0.999575
-0.152166277170 1.819024682045 0.908184468746 -0.029133 0.001005 0.999575
-0.115849554539 1.184110879898 0.913531064987 0.000978 0.000978 0.999999
-0.309947490692 -0.353768587112 0.905189514160 0.936483 0.001257 0.350710
