0.818931639194 0.890377700329 0.221491724253 0.862069 -0.020364 0.506381
0.822255909443 1.001864790916 0.220557481050 0.862069 -0.020364 0.506381
0.844101428986 0.395547300577 0.157796174288 0.862069 -0.020364 0.506381
0.841355562210 0.603320837021 0.171248376369 0.862069 -0.020364 0.506381
0.840091049671 1.192012310028 0.197112545371 0.937218 0.042778 -0.346110
0.852570950985 0.394040763378 0.134869530797 0.903172 0.047110 -0.426685
0.850020170212 0.943852603436 0.128830194473 0.985740 0.003387 0.168242
0.846621334553 0.747757196426 0.152938067913 0.985740 0.003387 0.168242
0.850781977177 0.784222364426 0.127768352628 0.985740 0.003387 0.168242
0.844499826431 1.084561347961 0.158193320036 0.985740 0.003387 0.168242
0.854118049145 0.483987212181 0.108473390341 0.999956 0.002961 -0.008884
0.855223476887 1.070802688599 0.061330441386 0.987160 -0.021633 0.158264
0.866519927979 0.330109685659 -0.058503594249 0.988815 -0.007839 0.148938
0.861779093742 0.679337739944 -0.006730262190 0.988815 -0.007839 0.148938
0.867006778717 0.790180206299 -0.034787550569 0.988815 -0.007839 0.148938
0.858778893948 0.766248106956 0.018183693290 0.988815 -0.007839 0.148938
0.863138735294 0.699114441872 -0.014557473361 0.988815 -0.007839 0.148938
0.867126286030 0.495752751827 -0.083062797785 0.998124 -0.003109 -0.061152
0.868830084801 0.764048814774 -0.066741451621 0.998124 -0.003109 -0.061152
0.867946565151 0.714300751686 -0.079145401716 0.998124 -0.003109 -0.061152
0.867887258530 0.429207742214 -0.067554876208 0.998124 -0.003109 -0.061152
0.859753310680 0.618778824806 -0.162218749523 0.992858 -0.007646 -0.119056
0.856124639511 0.748329579830 -0.201007336378 0.992858 -0.007646 -0.119056
0.865384101868 0.585459828377 -0.112961642444 0.992858 -0.007646 -0.119056
0.858484745026 0.648269414902 -0.174749225378 0.992858 -0.007646 -0.119056
0.864353954792 0.525075316429 -0.117640167475 0.992858 -0.007646 -0.119056
0.845908224583 0.187040984631 -0.246589809656 0.992533 -0.007677 -0.121736
0.848965287209 0.351891547441 -0.233033835888 0.992533 -0.007677 -0.121736
0.857415020466 0.167160481215 -0.150879755616 0.992533 -0.007677 -0.121736
0.849303364754 0.753901302814 -0.258315742016 0.992533 -0.007677 -0.121736
0.866247296333 0.149892479181 -0.077275469899 0.992533 -0.007677 -0.121736
0.847054898739 0.224736660719 -0.239820823073 0.992533 -0.007677 -0.121736
0.844428837299 0.465315908194 -0.278134793043 0.992533 -0.007677 -0.121736
0.837113559246 0.581596672535 -0.331158339977 0.987641 -0.007883 -0.156536
0.837665438652 0.485177457333 -0.322745740414 0.987641 -0.007883 -0.156536
0.837835073471 0.787264466286 -0.337199389935 0.987641 -0.007883 -0.156536
0.832756042480 0.757635116577 -0.367518693209 0.987641 -0.007883 -0.156536
0.822367548943 0.263435512781 -0.357979208231 0.957808 -0.026021 -0.286227
0.823591291904 0.605265319347 -0.386160522699 0.957808 -0.026021 -0.286227
0.826452374458 0.338198572397 -0.351338267326 0.957808 -0.026021 -0.286227
0.830681860447 0.325400888920 -0.335941612720 0.957808 -0.026021 -0.286227
0.865922331810 0.204481557012 0.000342825660 0.999857 0.016879 -0.000993
0.865767002106 0.212362647057 -0.049979791045 0.999857 0.016879 -0.000993
0.865887165070 0.206170216203 -0.013987418264 0.999857 0.016879 -0.000993
0.857762098312 0.705142259598 0.049690809101 0.999857 0.016879 -0.000993
0.859890282154 0.573881208897 0.015429748222 0.999857 0.016879 -0.000993
0.859726786613 0.514033555984 0.060912482440 0.989900 0.010021 0.141414
0.854785501957 0.335487812757 0.106985606253 0.989900 0.010021 0.141414
0.859340667725 0.344187617302 0.074435278773 0.989900 0.010021 0.141414
0.856694698334 0.696998775005 0.070564925671 0.989900 0.010021 0.141414
0.852459788322 1.205452322960 0.117844022810 0.993202 -0.016462 0.115233
0.845146954060 1.220341444016 0.156719893217 0.978283 -0.029645 0.205143
0.758088827133 1.140114665031 0.246202230453 0.989209 -0.137038 -0.051821
0.721982836723 0.536093354225 0.377846181393 0.941995 0.001248 0.335625
0.733592867851 0.498901635408 0.345344066620 0.941995 0.001248 0.335625
0.735871851444 0.370826572180 0.338965415955 0.941995 0.001248 0.335625
0.746323525906 0.886552155018 0.309698939323 0.941995 0.001248 0.335625
0.739659190178 0.759600758553 0.328357815742 0.941995 0.001248 0.335625
0.719239532948 0.861668169498 0.385526150465 0.941995 0.001248 0.335625
0.741105139256 0.899996340275 0.324308812618 0.941995 0.001248 0.335625
0.734425902367 0.785150408745 0.343008697033 0.941995 0.001248 0.335625
0.700824201107 0.454600185156 0.434364110231 0.885003 0.001319 0.465583
0.643417656422 0.612288117409 0.543569266796 0.885003 0.001319 0.465583
0.701413273811 0.525278627872 0.433243572712 0.885003 0.001319 0.465583
0.679806590080 0.675081551075 0.474346131086 0.885003 0.001319 0.465583
0.675451993942 0.605040431023 0.482630014420 0.885003 0.001319 0.465583
0.659695446491 0.565010011196 0.512603819370 0.885003 0.001319 0.465583
0.605555415154 0.412531465292 0.615595042706 0.885003 0.001319 0.465583
0.652494370937 0.715470850468 0.526302516460 0.885003 -0.001319 0.465583
0.642933070660 0.883448123932 0.544491112232 0.885003 -0.001319 0.465583
0.614565134048 0.758399546146 0.598455786705 0.885003 -0.001319 0.465583
0.609813272953 0.450205951929 0.607495188713 0.885003 -0.001319 0.465583
0.640262365341 0.611024975777 0.549571573734 0.885003 -0.001319 0.465583
0.596223235130 0.484895855188 0.633347749710 0.885003 0.001319 0.465583
0.718087673187 0.993794560432 0.388750046492 0.941995 0.001248 0.335625
0.718311548233 0.980927765369 0.388123571873 0.941995 0.001248 0.335625
0.733626127243 1.195027232170 0.345243513584 0.941995 0.001248 0.335625
0.685362875462 0.944620728493 0.463776528835 0.885003 0.001319 0.465583
0.675475955009 0.995501399040 0.482584506273 0.885003 0.001319 0.465583
0.818897008896 0.159217655659 0.181521400809 -0.965696 -0.001197 -0.259673
0.832409143448 -0.045520387590 0.177115336061 0.258047 -0.093718 -0.961576
0.837852716446 0.068650469184 0.181157544255 0.965696 -0.001197 0.259673
0.841837644577 -1.048646330833 -0.370430290699 0.980633 -0.061215 -0.186044
0.826410412788 -0.917389392853 -0.419090002775 0.942797 0.018982 -0.332826
0.874045789242 -1.023831844330 -0.195257425308 0.989554 -0.028273 -0.141365
0.863846421242 -1.004090666771 -0.271155923605 0.989554 -0.028273 -0.141365
0.867142200470 -1.086709737778 -0.231088653207 0.989554 -0.028273 -0.141365
0.871911704540 -1.140590786934 -0.184813678265 0.992792 -0.034542 -0.114767
0.883557796478 -0.946718692780 -0.052885442972 0.999295 -0.037537 0.001015
0.876393198967 -1.136739373207 -0.138899922371 0.999295 -0.037537 0.001015
0.879739284515 -1.115994811058 -0.089913055301 0.995910 0.001063 -0.090344
0.881841957569 -1.096515774727 -0.060561947525 0.999889 -0.014865 0.000991
0.880277276039 -1.201176643372 -0.079053454101 0.999889 -0.014865 0.000991
0.878690481186 -1.072671175003 -0.001332076266 0.989979 -0.005555 0.141108
0.879920363426 -1.165042638779 0.005295020528 0.986896 0.040494 -0.156191
0.883335113525 -1.288999795914 -0.050727110356 0.997558 0.069839 0.001042
0.869666457176 -1.361373901367 0.049055345356 0.939205 -0.189501 0.286326
0.879330277443 -1.297351956367 0.035520534962 0.869274 -0.009376 0.494241
0.863975524902 -1.117320060730 0.067115604877 0.912108 -0.017012 0.409598
0.864990234375 -1.027060747147 0.068575747311 0.912108 -0.017012 0.409598
0.834550321102 -0.901236712933 0.142413944006 0.912990 -0.022268 0.407374
0.834144234657 -1.142290234566 0.133643642068 0.916268 -0.009072 0.400462
0.882708191872 -1.504262447357 0.028884816915 0.893690 0.047465 0.446167
0.847962081432 -1.731613755226 0.048896428198 0.834926 -0.102383 0.540755
0.857735276222 -1.619725704193 0.053942129016 0.780894 -0.094875 0.617417
0.851240754128 -1.473732471466 0.080489486456 0.783452 -0.037977 0.620291
0.839221417904 -1.298854589462 0.109188899398 0.766899 -0.082634 0.636425
0.826694905758 -1.529470562935 0.098328381777 0.636562 -0.095118 0.765338
0.828218758106 -1.723836064339 0.071815319359 0.726407 -0.104614 0.679256
0.845385134220 -1.764443278313 0.042295586318 0.894006 -0.190431 0.405573
0.816709160805 -1.814475297928 0.064940720797 0.831478 -0.341079 0.438530
0.645357608795 2.178955554962 0.123348258436 0.400427 0.840113 0.365881
0.566171169281 2.216712951660 0.088168226182 0.250789 0.921469 0.296647
0.766658902168 2.083500146866 0.081285431981 0.928656 0.209969 0.305794
0.774650752544 2.008667707443 0.108262211084 0.927150 0.285386 0.242791
0.799109816551 1.866564750671 0.167218416929 0.924142 0.220712 0.311845
0.805272519588 1.098812460899 0.232770293951 -0.965696 -0.001197 -0.259673
0.871024429798 1.036561846733 -0.032834950835 0.872338 -0.194017 0.448758
0.853453397751 1.220474243164 0.116579689085 0.921992 -0.245195 0.299683
0.872995913029 1.312751173973 0.052604336292 0.966491 0.043202 0.253040
0.855720281601 1.312308907509 0.119758091867 0.968585 0.010802 0.248447
0.880732655525 1.355875134468 0.016958266497 0.978335 0.079193 0.191281
0.875421702862 1.401175022125 0.025109382346 0.978090 0.117470 0.171877
0.860466241837 1.464663386345 0.075032360852 0.982125 0.036462 0.184663
0.865746796131 1.527293086052 0.014425314963 0.986934 0.026303 0.158962
0.868489205837 1.598742127419 -0.014185708016 0.986934 0.026303 0.158962
0.877035856247 1.517790675163 -0.053970005363 0.986934 0.026303 0.158962
0.856545865536 1.553229093552 0.067211546004 0.986934 0.026303 0.158962
0.867843806744 1.726675748825 -0.036432087421 0.997963 0.058082 -0.026401
0.868954539299 1.674818396568 -0.094856113195 0.997335 0.061193 -0.039722
0.831740856171 1.784151077271 0.108450926840 0.939854 0.099984 0.326616
0.832700729370 1.860948801041 0.081826046109 0.939854 0.099984 0.326616
0.848048388958 1.735623955727 0.076477885246 0.939854 0.099984 0.326616
0.801792263985 1.652953386307 0.196076780558 0.823027 0.078724 0.562521
0.785693287849 1.732314825058 0.212283313274 0.896467 0.028056 0.442221
0.759202241898 1.935374617577 0.209565818310 0.791404 0.141588 0.594671
0.741406679153 1.673588871956 0.295842558146 0.791404 0.141588 0.594671
0.714034497738 1.775383949280 0.297360181808 0.679708 0.182585 0.710394
0.713674128056 1.813166618347 0.287914812565 0.679708 0.182585 0.710394
0.677898228168 2.043955326080 0.262344419956 0.679708 0.182585 0.710394
0.741943001747 1.805133581161 0.262947440147 0.679708 0.182585 0.710394
0.675610780716 2.093031883240 0.250821888447 0.691826 0.206770 0.691826
0.683803915977 1.776391386986 0.320314019918 0.437787 0.154598 0.885687
0.676825106144 1.645962834358 0.362654238939 0.639575 0.301261 0.707238
0.710356712341 1.451688528061 0.412810921669 0.619909 0.275692 0.734648
0.660659074783 1.418635606766 0.467416435480 0.623318 0.275790 0.731721
0.659119248390 1.328550815582 0.500945925713 0.605068 0.249885 0.755943
0.644407689571 1.224605202675 0.544875144958 0.623876 0.205894 0.753914
0.626122236252 1.210371732712 0.563923656940 0.624931 0.209344 0.752088
0.587193965912 1.009307384491 0.645124733448 0.670157 0.133432 0.730127
0.635868847370 0.950187563896 0.603999137878 0.717503 0.086217 0.691199
0.655097424984 1.040195465088 0.572744309902 0.717503 0.086217 0.691199
0.650587201118 1.004191994667 0.581726670265 0.892530 -0.009256 0.450893
0.719597339630 1.216863989830 0.454184502363 0.898043 -0.028022 0.439014
0.721980869770 1.176967382431 0.446777284145 0.894875 -0.028090 0.445431
0.750739812851 1.298668503761 0.383160471916 0.924190 -0.011568 0.381758
0.762274146080 1.276227474213 0.343854248524 0.953314 -0.046968 0.298307
0.801555335522 1.289753675461 0.268036961555 0.861319 -0.023132 0.507538
0.796736598015 1.402111053467 0.271256685257 0.914192 0.065973 0.399875
0.837630212307 1.267335414886 0.194910004735 0.915119 0.054774 0.399446
0.845808386803 1.302945256233 0.160339295864 0.972083 0.010708 0.234394
0.819747209549 1.536596655846 0.190662741661 0.850682 0.110833 0.513864
0.792232155800 1.645424365997 0.214453518391 0.731689 0.110862 0.672563
0.800426483154 1.478825330734 0.239217057824 0.853595 0.119879 0.506957
0.779204070568 1.472338199615 0.283948034048 0.884448 0.204556 0.419414
0.742219328880 1.471822500229 0.361397534609 0.880946 0.205111 0.426455
0.753952026367 1.404300928116 0.361445456743 0.868171 0.128138 0.479438
0.740597665310 1.333390712738 0.408640623093 0.878960 0.139540 0.456024
0.596031248569 0.925086021423 0.650576949120 0.722640 0.136716 0.677569
0.581654131413 0.815322577953 0.672072827816 0.631476 0.067607 0.772443
0.581417620182 0.763309299946 0.673630774021 0.406019 0.001289 0.913864
0.604495882988 0.201251268387 0.663395762444 0.406019 0.001289 0.913864
0.627343297005 -0.269317895174 0.597270667553 0.193251 -0.362167 0.911860
0.593255698681 -0.312349796295 0.585361838341 0.140882 -0.416953 0.897943
0.688408255577 -0.638346195221 0.388897567987 0.148717 -0.510938 0.846655
0.738339781761 -0.761863112450 0.295984864235 0.243272 -0.537678 0.807292
0.772766590118 -0.744352936745 0.296576946974 0.406808 -0.558331 0.723031
0.782544493675 -0.898932099342 0.234261840582 0.725816 0.275970 0.630104
0.812041223049 -0.992905676365 0.183906823397 0.866191 -0.025836 0.499045
0.682679951191 -1.972937703133 0.073636904359 0.001319 -0.465583 0.885003
0.695520401001 -1.841572046280 0.109764784575 0.054063 -0.195829 0.979147
0.755249798298 -1.347563028336 0.193121671677 0.165040 -0.172716 0.971046
0.741384923458 -1.572443962097 0.155176997185 0.165040 -0.172716 0.971046
0.764516234398 -1.662554502487 0.134913429618 0.342697 -0.166453 0.924582
0.773311853409 -1.088756203651 0.233364015818 0.736335 -0.104769 0.668456
0.795181095600 -1.833902239799 0.090859100223 0.736335 -0.104769 0.668456
0.771017789841 -0.996575832367 0.250158101320 0.847631 -0.069108 0.526067
0.786989867687 -1.161566853523 0.202892586589 0.847631 -0.069108 0.526067
0.812835037708 -1.234327793121 0.151756986976 0.847631 -0.069108 0.526067
0.819525778294 -1.042554140091 0.166004925966 0.847631 -0.069108 0.526067
0.695390939713 -1.288857579231 0.211938619614 0.125687 -0.172975 0.976874
0.716159284115 -1.574146270752 0.159033268690 0.125687 -0.172975 0.976874
0.683321297169 -1.553340554237 0.166896164417 0.125687 -0.172975 0.976874
0.714300870895 -1.557918548584 0.162129163742 0.125687 -0.172975 0.976874
0.667429089546 -1.800553321838 0.121889054775 0.140083 -0.209481 0.967726
0.611722469330 -1.843330144882 0.119122102857 0.081356 -0.229047 0.970010
0.663428068161 -1.932116866112 0.093799248338 0.081356 -0.229047 0.970010
0.630729019642 -1.983045220375 0.075048595667 0.225303 -0.516510 0.826109
0.565131366253 -2.076604366302 0.009897440672 0.283881 -0.769176 0.572521
0.549221098423 -1.905077815056 0.111207857728 0.223435 -0.259517 0.939536
0.630593895912 -1.531703591347 0.177734851837 0.148069 -0.175911 0.973206
0.690397620201 -1.268950700760 0.216233417392 0.148069 -0.175911 0.973206
0.731660127640 -0.998581051826 0.259210437536 0.162732 -0.180671 0.969988
0.569001436234 -1.707577824593 0.154990226030 0.085394 -0.164774 0.982628
0.616578936577 -1.375479102135 0.206456586719 0.085394 -0.164774 0.982628
0.687523663044 -1.022418737411 0.259427279234 0.085394 -0.164774 0.982628
0.584293842316 -1.430020809174 0.200883239508 0.128244 -0.168087 0.977395
0.565620422363 -1.545659899712 0.183333113790 0.128244 -0.168087 0.977395
0.481377810240 -1.722826957703 0.163718685508 0.128244 -0.168087 0.977395
0.550717413425 -1.498645901680 0.193409234285 0.128244 -0.168087 0.977395
0.564720034599 -1.354459881783 0.216505199671 0.128244 -0.168087 0.977395
0.582182288170 -1.166279792786 0.245137915015 0.062171 -0.151322 0.986527
0.519715309143 -1.121774196625 0.255956351757 0.062171 -0.151322 0.986527
0.510941922665 -1.182216286659 0.247252836823 0.062171 -0.151322 0.986527
0.573102891445 -1.158330440521 0.246937274933 0.062171 -0.151322 0.986527
0.518451213837 -1.433963060379 0.208183750510 0.062171 -0.151322 0.986527
0.412550300360 -1.435147047043 0.215695753694 0.079606 -0.153271 0.984973
0.416790872812 -1.381893515587 0.223588973284 0.079606 -0.153271 0.984973
0.462634921074 -1.443295478821 0.210441946983 0.079606 -0.153271 0.984973
0.392183065414 -1.460397362709 0.213417112827 0.079606 -0.153271 0.984973
0.443099647760 -1.609328269958 0.186336159706 0.079606 -0.153271 0.984973
0.351903647184 -1.801083803177 0.159098237753 0.093625 -0.213466 0.972454
0.426870673895 -1.893671035767 0.131640076637 0.093625 -0.213466 0.972454
0.458703517914 -1.718746304512 0.166948288679 0.096333 -0.213934 0.972086
0.486858934164 -1.763347029686 0.154354169965 0.096333 -0.213934 0.972086
0.444282382727 -1.935131311417 0.119670398533 0.169504 -0.269850 0.947866
0.326283037663 -1.975669980049 0.117997102439 0.098196 -0.348394 0.932190
0.381675362587 -1.903234481812 0.133306741714 0.073177 -0.226973 0.971148
0.237814500928 -1.940688014030 0.134144231677 0.047387 -0.224784 0.973256
0.209024161100 -1.858797550201 0.154462143779 0.047387 -0.224784 0.973256
0.293254941702 -2.021076917648 0.110119543970 0.126936 -0.252564 0.959218
0.434020221233 -2.102522134781 0.058369070292 0.326171 -0.498007 0.803494
0.442072451115 -2.118448972702 0.041359238327 0.380489 -0.657208 0.650620
0.416955918074 -2.153179407120 0.020875172690 0.392245 -0.653741 0.647121
0.250515103340 -2.118748664856 0.081378169358 0.063894 -0.327293 0.942760
0.165631726384 -2.029731273651 0.115905620158 0.050594 -0.243096 0.968682
0.020754028112 -1.989964485168 0.131420835853 0.017779 -0.219280 0.975500
0.085100799799 -1.949476361275 0.139200031757 0.042259 -0.220953 0.974368
0.252052187920 -1.771270155907 0.172571569681 0.042259 -0.220953 0.974368
0.150706604123 -1.812808871269 0.167423397303 0.042259 -0.220953 0.974368
0.171742692590 -1.465366959572 0.219775527716 0.028219 -0.138836 0.989913
0.258250445127 -1.684722185135 0.186667665839 0.028219 -0.138836 0.989913
0.141833096743 -1.437631607056 0.224504500628 0.028219 -0.138836 0.989913
0.162890598178 -1.707734346390 0.186182454228 0.028219 -0.138836 0.989913
0.117495656013 -1.298987507820 0.244562327862 0.028219 -0.138836 0.989913
0.161163344979 -1.608002901077 0.200159266591 0.028219 -0.138836 0.989913
0.137670055032 -1.525118231773 0.212406218052 0.028219 -0.138836 0.989913
0.247086226940 -1.338040351868 0.235921472311 0.021348 -0.140445 0.989858
0.289025247097 -1.522890925407 0.208806529641 0.021348 -0.140445 0.989858
0.244952633977 -1.271014094353 0.245473399758 0.021348 -0.140445 0.989858
0.253330796957 -1.561043858528 0.204159423709 0.021348 -0.140445 0.989858
0.299893260002 -1.476469039917 0.215157851577 0.021348 -0.140445 0.989858
0.260534644127 -1.226672410965 0.251428782940 0.021348 -0.140445 0.989858
0.275765836239 -1.173703432083 0.258615314960 0.021348 -0.140445 0.989858
0.356683880091 -1.113216042519 0.265099465847 0.042407 -0.140973 0.989105
0.384462893009 -1.383029818535 0.225256979465 0.042407 -0.140973 0.989105
0.384284704924 -1.228515148163 0.247404754162 0.042407 -0.140973 0.989105
0.319545954466 -1.655399084091 0.188989922404 0.042407 -0.140973 0.989105
0.409660547972 -1.254810810089 0.242557853460 0.042407 -0.140973 0.989105
0.335877746344 -1.398287773132 0.225136607885 0.042407 -0.140973 0.989105
0.092970274389 -1.491858959198 0.218129262328 0.001102 -0.137718 0.990471
0.060557492077 -1.287349462509 0.246412143111 0.001102 -0.137718 0.990471
0.083856180310 -1.618639469147 0.200596019626 0.001102 -0.137718 0.990471
0.074103951454 -1.758990406990 0.181265026331 0.007748 -0.136146 0.990658
0.014238124713 -1.741407155991 0.184114500880 0.007748 -0.136146 0.990658
0.044267475605 -1.526731848717 0.213368773460 0.007748 -0.136146 0.990658
0.042608562857 -1.783739805222 0.177274614573 0.010595 -0.217791 0.975938
-0.054710745811 -1.810639858246 0.171129882336 -0.010595 -0.217791 0.975938
-0.032355591655 -1.832825422287 0.166444346309 -0.010595 -0.217791 0.975938
-0.046573195606 -1.531024932861 0.212762624025 -0.007748 -0.136146 0.990658
-0.000835747982 -1.608932375908 0.202399417758 -0.007748 -0.136146 0.990658
-0.017381422222 -1.251003384590 0.251438677311 0.001102 -0.137718 0.990471
-0.069126524031 -1.621092557907 0.200256764889 0.001102 -0.137718 0.990471
-0.091176666319 -1.199723243713 0.258530527353 0.001102 -0.137718 0.990471
-0.121942602098 -1.287672996521 0.246015161276 -0.028219 -0.138836 0.989913
-0.220179662108 -1.593328833580 0.200519919395 -0.028219 -0.138836 0.989913
-0.090298831463 -1.752257823944 0.182041779160 -0.028219 -0.138836 0.989913
-0.138989210129 -1.599055171013 0.202043235302 -0.028219 -0.138836 0.989913
-0.155653998256 -1.451702713966 0.222144037485 -0.028219 -0.138836 0.989913
-0.175808697939 -1.467062950134 0.219422340393 -0.028219 -0.138836 0.989913
-0.256547808647 -1.385473608971 0.228991508484 -0.021348 -0.140445 0.989858
-0.284778416157 -1.462864279747 0.217410951853 -0.021348 -0.140445 0.989858
-0.264098495245 -1.433462023735 0.222023725510 -0.021348 -0.140445 0.989858
-0.135366931558 -1.191492557526 0.259097695351 -0.021348 -0.140445 0.989858
-0.134893491864 -1.181954026222 0.260460644960 -0.021348 -0.140445 0.989858
-0.251667559147 -1.212510347366 0.253627210855 -0.021348 -0.140445 0.989858
-0.168543994427 -1.291850447655 0.244153827429 -0.021348 -0.140445 0.989858
-0.369474530220 -1.110643863678 0.264924108982 -0.042407 -0.140973 0.989105
-0.325249075890 -1.492306232452 0.212116777897 -0.042407 -0.140973 0.989105
-0.317201465368 -1.565105557442 0.202027663589 -0.042407 -0.140973 0.989105
-0.386531263590 -1.114552378654 0.263638794422 -0.042407 -0.140973 0.989105
-0.410293877125 -1.142764449120 0.258585900068 -0.042407 -0.140973 0.989105
-0.417921483517 -1.584536910057 0.192176163197 -0.079606 -0.153271 0.984973
-0.405741900206 -1.435450077057 0.216191872954 -0.079606 -0.153271 0.984973
-0.495609581470 -1.118966221809 0.257943809032 -0.079606 -0.153271 0.984973
-0.443696975708 -1.600996613503 0.187576368451 -0.079606 -0.153271 0.984973
-0.408534526825 -1.376979708672 0.225006952882 -0.079606 -0.153271 0.984973
-0.558143496513 -1.238124012947 0.235663294792 -0.062171 -0.151322 0.986527
-0.544019281864 -1.183017849922 0.245013788342 -0.062171 -0.151322 0.986527
-0.547345280647 -1.290666580200 0.228300213814 -0.062171 -0.151322 0.986527
-0.609127283096 -1.100809812546 0.253449529409 -0.062171 -0.151322 0.986527
-0.462904006243 -1.651223063469 0.178435072303 -0.062171 -0.151322 0.986527
-0.487756431103 -1.590480208397 0.185764655471 -0.128244 -0.168087 0.977395
-0.558991968632 -1.682257294655 0.160584941506 -0.128244 -0.168087 0.977395
-0.558063268661 -1.451793432236 0.200548619032 -0.128244 -0.168087 0.977395
-0.511191070080 -1.564382910728 0.187212437391 -0.128244 -0.168087 0.977395
-0.530436396599 -1.459940910339 0.202752053738 -0.128244 -0.168087 0.977395
-0.498194128275 -1.820817351341 0.140600413084 -0.096333 -0.213934 0.972086
-0.450071781874 -1.776983261108 0.155006766319 -0.096333 -0.213934 0.972086
-0.340271949768 -1.792584538460 0.162071332335 -0.093625 -0.213466 0.972454
-0.433502405882 -1.884104728699 0.133107483387 -0.093625 -0.213466 0.972454
-0.412796378136 -1.925099372864 0.125871092081 -0.073177 -0.226973 0.971148
-0.388890892267 -1.930328130722 0.126445174217 -0.073177 -0.226973 0.971148
-0.119641646743 -1.953875064850 0.136719077826 -0.047387 -0.224784 0.973256
-0.152355313301 -1.932008028030 0.140221074224 -0.047387 -0.224784 0.973256
-0.246714547276 -1.834765911102 0.158228039742 -0.047387 -0.224784 0.973256
-0.148474693298 -1.843459725380 0.160567730665 -0.042259 -0.220953 0.974368
-0.082929834723 -1.901914358139 0.150075629354 -0.042259 -0.220953 0.974368
-0.142025887966 -1.883577585220 0.151743203402 -0.042259 -0.220953 0.974368
-0.047929778695 -1.898646116257 0.151519089937 -0.017779 -0.219280 0.975500
0.061708297580 -2.136355400085 0.088179096580 0.029150 -0.320652 0.946748
0.173400565982 -2.139481067657 0.079564057291 0.066439 -0.321775 0.944482
0.128684416413 -2.192307710648 0.055664107203 0.113255 -0.610398 0.783957
0.051656737924 -2.189972400665 0.067660123110 0.067353 -0.606177 0.792473
-0.067907288671 -2.102652072906 0.099432945251 -0.029150 -0.320652 0.946748
-0.076535664499 -2.135705709457 0.087660826743 -0.066439 -0.321775 0.944482
-0.216297224164 -2.053662776947 0.106334641576 -0.063894 -0.327293 0.942760
-0.230439990759 -1.993431925774 0.121820807457 -0.050653 -0.248324 0.967352
-0.277579843998 -2.032147884369 0.109304875135 -0.126936 -0.252564 0.959218
-0.393855452538 -1.943306326866 0.122956797481 -0.098196 -0.348394 0.932190
-0.471798598766 -1.985041499138 0.099441766739 -0.092631 -0.347700 0.933019
-0.433144092560 -2.020143270493 0.090243540704 -0.092485 -0.344472 0.934230
-0.355729997158 -2.025754213333 0.099719852209 -0.145387 -0.347544 0.926324
-0.309653431177 -2.056163787842 0.095559000969 -0.156683 -0.331392 0.930392
-0.260719478130 -2.162894725800 0.060139805079 -0.110458 -0.617093 0.779099
-0.529381215572 -1.919499874115 0.109170474112 -0.040497 -0.246666 0.968254
-0.477560192347 -1.915739059448 0.119229942560 -0.169504 -0.269850 0.947866
-0.594195842743 -1.664002060890 0.159304782748 -0.148069 -0.175911 0.973206
-0.730701327324 -1.031234622002 0.253331124783 -0.162732 -0.180671 0.969988
-0.610749185085 -1.512759804726 0.183996602893 -0.085394 -0.164774 0.982628
-0.577171027660 -1.667903900146 0.160925716162 -0.085394 -0.164774 0.982628
-0.670180022717 -1.077353715897 0.251725226641 -0.085394 -0.164774 0.982628
-0.737542271614 -1.275838732719 0.208842843771 -0.125687 -0.172975 0.976874
-0.743129014969 -1.073008894920 0.243854656816 -0.125687 -0.172975 0.976874
-0.665825128555 -1.510863304138 0.176614835858 -0.125687 -0.172975 0.976874
-0.733903169632 -1.334344029427 0.199003100395 -0.125687 -0.172975 0.976874
-0.762019991875 -1.598042726517 0.147059425712 -0.165040 -0.172716 0.971046
-0.751405179501 -1.668277859688 0.136283099651 -0.165040 -0.172716 0.971046
-0.710597991943 -1.751798748970 0.126978978515 -0.054063 -0.195829 0.979147
-0.659877479076 -1.818431138992 0.119126521051 -0.140083 -0.209481 0.967726
-0.569635093212 -1.892276763916 0.110998168588 -0.081356 -0.229047 0.970010
-0.590394973755 -1.982493638992 0.086347475648 -0.225303 -0.516510 0.826109
-0.585388958454 -2.035581111908 0.053590379655 -0.216455 -0.541904 0.812088
-0.539759516716 -2.086410999298 0.009270364419 -0.283881 -0.769176 0.572521
-0.377734273672 -2.233743906021 -0.120355330408 -0.656993 -0.753069 -0.035322
-0.241183295846 -2.277781724930 -0.187944248319 -0.179205 -0.715287 -0.675463
-0.765462934971 -1.270727992058 0.205104604363 -0.342697 -0.166453 0.924582
-0.774757802486 -1.184164404869 0.216609656811 -0.736335 -0.104769 0.668456
-0.792823553085 -1.787701606750 0.100798144937 -0.736335 -0.104769 0.668456
-0.807705938816 -1.594417810440 0.113026537001 -0.847631 -0.069108 0.526067
-0.803147017956 -1.235635042191 0.167194887996 -0.847631 -0.069108 0.526067
-0.780608713627 -1.004146337509 0.233717843890 -0.847631 -0.069108 0.526067
-0.788936376572 -1.022017478943 0.217968627810 -0.847631 -0.069108 0.526067
0.322248935699 -2.265342950821 -0.179637685418 0.179205 -0.715287 -0.675463
-0.037100285292 -1.047857165337 0.257291525602 -0.001061 0.090153 0.995927
-0.064365848899 -1.083782911301 0.260560691357 0.001061 0.090153 0.995927
-0.269947052002 -1.115170955658 0.265523910522 0.013964 0.091302 0.995725
-0.330255478621 -1.039801597595 0.259973049164 0.016052 0.084540 0.996291
-0.371351867914 -0.999272704124 0.257269114256 0.016052 0.084540 0.996291
0.022905370221 -1.079937219620 0.260210752487 0.001061 0.090153 0.995927
0.032834425569 -1.110624551773 0.263003230095 0.001061 0.090153 0.995927
0.153920918703 -1.097807645798 0.262339115143 -0.013964 0.091302 0.995725
0.292102336884 -1.019196987152 0.257598400116 -0.016052 0.084540 0.996291
0.256885588169 -1.030669331551 0.257964402437 -0.016052 0.084540 0.996291
0.424843400717 -1.079238891602 0.265495479107 -0.027254 0.092664 0.995324
0.511964023113 -0.978425800800 0.258643686771 -0.038476 0.093442 0.994881
0.641947984695 -0.926169157028 0.259409993887 -0.042797 0.086692 0.995315
-0.664127051830 -0.923978686333 0.260153323412 0.042797 0.086692 0.995315
-0.641666114330 -0.887704432011 0.256039440632 0.042797 0.086692 0.995315
-0.664339423180 -0.979700386524 0.264910042286 0.042720 0.082154 0.995704
-0.500383138657 -0.966449201107 0.257078677416 0.038476 0.093442 0.994881
-0.492423951626 -0.979383587837 0.258009880781 0.027254 0.092664 0.995324
-0.368798196316 -0.938387095928 0.272628039122 -0.105281 -0.526405 0.843690
-0.402860820293 -0.956993937492 0.256714195013 -0.105281 -0.526405 0.843690
-0.142632484436 -0.987686038017 0.270354837179 -0.105281 -0.526405 0.843690
-0.388021945953 -0.956885576248 0.258652657270 -0.105281 -0.526405 0.843690
-0.109614387155 -0.874920725822 0.343289226294 0.001345 -0.528668 0.848828
-0.006951585412 -0.891124308109 0.333217531443 0.001345 -0.528668 0.848828
0.059766341001 -0.907229781151 0.323207736015 -0.001345 -0.528668 0.848828
0.058026012033 -0.956159532070 0.292796134949 -0.001345 -0.528668 0.848828
0.098660327494 -0.892467379570 0.332383334637 -0.001345 -0.528668 0.848828
0.512002050877 -0.802385866642 0.337329387665 0.249026 -0.518159 0.818228
0.501888334751 -0.901264548302 0.277840763330 0.249026 -0.518159 0.818228
0.632958769798 -0.813919603825 0.293086946011 0.249026 -0.518159 0.818228
0.696969628334 -0.736147046089 0.325595974922 0.243272 -0.537678 0.807292
0.496951580048 -0.785606086254 0.352643340826 0.243272 -0.537678 0.807292
0.487966477871 -0.770856440067 0.364134609699 0.223956 -0.495140 0.839452
0.545822501183 -0.686043560505 0.398848950863 0.223956 -0.495140 0.839452
0.555653572083 -0.714188873768 0.379615128040 0.223956 -0.495140 0.839452
0.671938240528 -0.637345492840 0.393524229527 0.226365 -0.487671 0.843170
0.612056732178 -0.626935541630 0.415660977364 0.226365 -0.487671 0.843170
0.520894944668 -0.607773959637 0.451256066561 0.218786 -0.469258 0.855529
0.550779700279 -0.493346482515 0.506439685822 0.212663 -0.478116 0.852162
0.512503921986 -0.378893077374 0.576611757278 0.203082 -0.443223 0.873104
0.495164126158 -0.373034507036 0.583607971668 0.203082 -0.443223 0.873104
0.500402092934 -0.323534786701 0.606771111488 0.254721 -0.379847 0.889288
0.405729174614 -0.316048413515 0.625626444817 0.061796 -0.460039 0.885746
0.272397577763 -0.390806555748 0.596260786057 0.061796 -0.460039 0.885746
0.224539995193 -0.352890193462 0.619305968285 0.061796 -0.460039 0.885746
0.197203904390 -0.389914631844 0.602471590042 0.070092 -0.446663 0.891952
0.168091878295 -0.361817479134 0.618757843971 0.070092 -0.446663 0.891952
0.172349214554 -0.427803188562 0.585503339767 0.070092 -0.446663 0.891952
0.193445295095 -0.521620035172 0.536210238934 0.076898 -0.485154 0.871041
0.449161618948 -0.571082830429 0.486269026995 0.076898 -0.485154 0.871041
0.429013520479 -0.563543438911 0.492239922285 0.076898 -0.485154 0.871041
0.233020812273 -0.617996335030 0.480220437050 0.082493 -0.473984 0.876661
0.233513534069 -0.584442138672 0.498271435499 0.082493 -0.473984 0.876661
0.231017217040 -0.640752196312 0.468134641647 0.082493 -0.473984 0.876661
0.462365746498 -0.733691632748 0.389976680279 0.089500 -0.512849 0.853801
0.318980246782 -0.739986479282 0.401114314795 0.089500 -0.512849 0.853801
0.272183239460 -0.687482833862 0.437527775764 0.089500 -0.512849 0.853801
0.458727121353 -0.707619488239 0.406019419432 0.089500 -0.512849 0.853801
0.342285543680 -0.791619718075 0.368544787169 0.095353 -0.499538 0.861028
0.209463924170 -0.799944698811 0.378255009651 0.095353 -0.499538 0.861028
0.240002170205 -0.755120515823 0.400958746672 0.095353 -0.499538 0.861028
0.347368627787 -0.845902562141 0.334300905466 0.102543 -0.538710 0.836228
0.459222793579 -0.812412440777 0.342303216457 0.102543 -0.538710 0.836228
0.374653279781 -0.890224039555 0.302435219288 0.102543 -0.538710 0.836228
0.238250985742 -0.959679782391 0.275789409876 0.105281 -0.526405 0.843690
0.257632374763 -0.976472914219 0.262859046459 0.105281 -0.526405 0.843690
0.146835088730 -0.957276403904 0.288815110922 0.105281 -0.526405 0.843690
0.217069327831 -0.994071006775 0.256983280182 0.105281 -0.526405 0.843690
0.029481392354 -0.848883867264 0.359253317118 -0.001334 -0.500299 0.865851
0.042954318225 -0.787416875362 0.394816696644 -0.001334 -0.500299 0.865851
0.050188355148 -0.625676393509 0.485851854086 -0.001322 -0.471891 0.881656
0.105514816940 -0.648136615753 0.473787456751 -0.001322 -0.471891 0.881656
0.093245722353 -0.555497407913 0.523549377918 -0.001322 -0.471891 0.881656
0.045522425324 -0.624594151974 0.486433148384 -0.001322 -0.471891 0.881656
0.051686149091 -0.481761962175 0.561735212803 -0.001310 -0.446689 0.894688
0.018588077277 -0.461383700371 0.571865320206 -0.001310 -0.446689 0.894688
-0.017458990216 -0.401540756226 0.601614534855 0.001310 -0.446689 0.894688
-0.099434271455 -0.501293718815 0.552025794983 0.001310 -0.446689 0.894688
-0.340237796307 -0.479628443718 0.546569228172 -0.070092 -0.446663 0.891952
-0.301999390125 -0.485337913036 0.546698808670 -0.070092 -0.446663 0.891952
-0.221896439791 -0.451326906681 0.569907307625 -0.070092 -0.446663 0.891952
-0.254644244909 -0.380336999893 0.602944433689 -0.061796 -0.460039 0.885746
-0.362701773643 -0.401272773743 0.584457874298 -0.061796 -0.460039 0.885746
-0.287500411272 -0.367076635361 0.607503414154 -0.061796 -0.460039 0.885746
-0.555112779140 -0.400828659534 0.555589675903 -0.203082 -0.443223 0.873104
-0.616101562977 -0.413085430861 0.535223841667 -0.203082 -0.443223 0.873104
-0.525613367558 -0.312780857086 0.604198634624 -0.254721 -0.379847 0.889288
-0.584412872791 -0.464179515839 0.514422655106 -0.212663 -0.478116 0.852162
-0.611031293869 -0.453293234110 0.513876497746 -0.212663 -0.478116 0.852162
-0.504360675812 -0.588576912880 0.466027498245 -0.218786 -0.469258 0.855529
-0.470406085253 -0.470497578382 0.539465963840 -0.218786 -0.469258 0.855529
-0.464842557907 -0.596333384514 0.470786958933 -0.076898 -0.485154 0.871041
-0.428661316633 -0.494572997093 0.530825138092 -0.076898 -0.485154 0.871041
-0.379960298538 -0.597219228745 0.477691233158 -0.076898 -0.485154 0.871041
-0.191123992205 -0.666003346443 0.458246022463 -0.082493 -0.473984 0.876661
-0.151902705431 -0.549256086349 0.524879753590 -0.082493 -0.473984 0.876661
-0.162859797478 -0.571642696857 0.511781215668 -0.082493 -0.473984 0.876661
-0.126963764429 -0.608973324299 0.494824558496 0.001322 -0.471891 0.881656
-0.071042165160 -0.529731690884 0.537389457226 0.001322 -0.471891 0.881656
-0.012234533206 -0.809695363045 0.381926745176 0.001334 -0.500299 0.865851
-0.066039942205 -0.850285291672 0.358442693949 0.001334 -0.500299 0.865851
-0.180010363460 -0.757951319218 0.405884653330 -0.095353 -0.499538 0.861028
-0.210887551308 -0.815146982670 0.369264572859 -0.095353 -0.499538 0.861028
-0.375309258699 -0.800257325172 0.359908074141 -0.095353 -0.499538 0.861028
-0.168931394815 -0.727874457836 0.424576759338 -0.095353 -0.499538 0.861028
-0.332259476185 -0.688489556313 0.430671900511 -0.089500 -0.512849 0.853801
-0.274915605783 -0.671801209450 0.446664959192 -0.089500 -0.512849 0.853801
-0.426237225533 -0.759820818901 0.378037571907 -0.089500 -0.512849 0.853801
-0.544778108597 -0.653828263283 0.418151617050 -0.223956 -0.495140 0.839452
-0.659758925438 -0.683104872704 0.370310276747 -0.223956 -0.495140 0.839452
-0.557823657990 -0.635320484638 0.425417274237 -0.226365 -0.487671 0.843170
-0.537859439850 -0.634727418423 0.431134909391 -0.226365 -0.487671 0.843170
-0.621927380562 -0.741286039352 0.344696164131 -0.243272 -0.537678 0.807292
-0.642339587212 -0.736787378788 0.341569840908 -0.243272 -0.537678 0.807292
-0.610020279884 -0.821895003319 0.295045524836 -0.249026 -0.518159 0.818228
-0.618210792542 -0.808373332024 0.301101446152 -0.249026 -0.518159 0.818228
-0.409739196301 -0.863264799118 0.315546154976 -0.102543 -0.538710 0.836228
-0.201695591211 -0.867290556431 0.338199585676 -0.102543 -0.538710 0.836228
-0.439678460360 -0.870745122433 0.307093620300 -0.102543 -0.538710 0.836228
-0.453750401735 1.090811371803 0.646257162094 -0.078371 0.278793 0.957148
-0.447638779879 1.078567266464 0.650327622890 -0.078371 0.278793 0.957148
-0.260561138391 1.115727424622 0.650409162045 -0.036023 0.277003 0.960194
-0.218729406595 1.094675421715 0.657743096352 -0.025671 0.262824 0.964502
-0.309652894735 1.049370050430 0.667624950409 -0.025671 0.262824 0.964502
-0.354354381561 0.947345674038 0.687681972980 -0.017196 0.173106 0.984753
-0.308298140764 0.977242648602 0.683226585388 -0.017196 0.173106 0.984753
-0.234148114920 0.934572756290 0.691741526127 -0.010192 0.164207 0.986373
-0.201406568289 0.976900935173 0.685034513474 -0.010192 0.164207 0.986373
-0.170988991857 0.998675823212 0.681721925735 -0.010192 0.164207 0.986373
-0.230393350124 0.471173167229 0.703879833221 0.000978 0.000978 0.999999
-0.140116095543 0.575290739536 0.703879833221 0.000978 0.000978 0.999999
-0.264732718468 0.515806376934 0.703879833221 0.000978 0.000978 0.999999
-0.140931949019 0.183589816093 0.703879833221 0.000978 0.000978 0.999999
-0.180210813880 0.855256974697 0.703879833221 0.000978 0.000978 0.999999
-0.185948967934 0.395876497030 0.703879833221 0.000978 0.000978 0.999999
-0.211339399219 0.551902115345 0.703879833221 0.000978 0.000978 0.999999
-0.159831404686 0.376830786467 0.703879833221 0.000978 0.000978 0.999999
-0.207197859883 0.456061065197 0.703879833221 0.000978 0.000978 0.999999
-0.179701268673 0.633606612682 0.703879833221 0.000978 0.000978 0.999999
-0.193652376533 0.059935152531 0.703879833221 0.000978 0.000978 0.999999
-0.376248598099 0.193173900247 0.703879833221 0.000978 0.000978 0.999999
-0.354305475950 0.384295433760 0.703879833221 0.000978 0.000978 0.999999
-0.357866406441 0.123574569821 0.703879833221 0.000978 0.000978 0.999999
-0.200560301542 0.122374325991 0.703879833221 0.000978 0.000978 0.999999
-0.361430466175 0.750219166279 0.703879833221 0.000978 0.000978 0.999999
-0.288336575031 0.517795920372 0.703879833221 0.000978 0.000978 0.999999
-0.345197319984 0.560687243938 0.703879833221 0.000978 0.000978 0.999999
-0.386300712824 0.524727106094 0.703879833221 0.000978 0.000978 0.999999
-0.320184350014 0.231192395091 0.703879833221 0.000978 0.000978 0.999999
-0.279278159142 0.273470669985 0.703879833221 0.000978 0.000978 0.999999
-0.520641088486 0.592647075653 0.685341715813 -0.146420 0.010059 0.989171
-0.524143218994 0.659015417099 0.684198617935 -0.146420 0.010059 0.989171
-0.430039733648 0.213546678424 0.702347576618 -0.146420 0.010059 0.989171
-0.543568015099 0.638613164425 0.681507647038 -0.146420 0.010059 0.989171
-0.536923408508 0.690610408783 0.682005345821 -0.146420 0.010059 0.989171
-0.518379390240 0.700905025005 0.684660494328 -0.146420 0.010059 0.989171
-0.408124148846 0.435298234224 0.703516960144 -0.146420 0.010059 0.989171
-0.503502607346 0.668270766735 0.687174737453 -0.146420 0.010059 0.989171
-0.515019297600 0.846312046051 0.682008385658 -0.162049 0.085226 0.983096
-0.405672669411 0.958718776703 0.681579828262 -0.112763 0.177199 0.977694
-0.384175688028 0.889523923397 0.696624577045 -0.112763 0.177199 0.977694
-0.578584015369 0.970227062702 0.659697175026 -0.112713 0.179598 0.977262
-0.504902541637 0.984671950340 0.665502190590 -0.112713 0.179598 0.977262
-0.562597632408 0.655595242977 0.677854180336 -0.191268 0.001145 0.981537
-0.567125737667 0.646579384804 0.676971316338 -0.191268 0.001145 0.981537
-0.499922364950 0.233488351107 0.690074086189 -0.191268 0.001145 0.981537
-0.457557201385 0.112904727459 0.698334097862 -0.191268 0.001145 0.981537
-0.557135224342 0.476003468037 0.678919196129 -0.191268 0.001145 0.981537
-0.500833332539 0.058686736971 0.689173758030 -0.195181 -0.069101 0.978330
-0.233046591282 0.023218799382 0.701783001423 -0.007428 -0.083834 0.996452
-0.326060891151 0.007849283516 0.699853599072 -0.007428 -0.083834 0.996452
-0.161622032523 -0.056839060038 0.692298889160 0.005461 -0.119057 0.992872
-0.175545215607 -0.070354342461 0.690745592117 0.005461 -0.119057 0.992872
-0.080921001732 -0.019930699840 0.696610450745 -0.001087 -0.120688 0.992690
-0.098680548370 -0.057599447668 0.692061364651 -0.001087 -0.120688 0.992690
-0.118218131363 -0.128520637751 0.681745529175 -0.001125 -0.165311 0.986241
-0.034386578947 -0.175049662590 0.673898398876 -0.001125 -0.165311 0.986241
0.027646340430 -0.297742247581 0.645113825798 0.001230 -0.308835 0.951115
0.117904573679 -0.264149844646 0.656009972095 -0.001230 -0.308835 0.951115
0.334822744131 -0.295248031616 0.637107253075 0.041872 -0.308327 0.950358
0.399643152952 -0.223439604044 0.657950878143 0.042008 -0.314421 0.948354
0.527602255344 -0.215303540230 0.640629470348 0.206174 -0.295937 0.932692
0.520574033260 -0.239130809903 0.634483039379 0.245847 -0.336039 0.909196
0.505336284637 -0.124070391059 0.666613817215 0.194206 -0.199491 0.960462
0.459877073765 -0.077497057617 0.685264289379 0.219685 -0.164435 0.961613
0.446450501680 -0.057690452784 0.691598892212 0.213515 -0.091150 0.972678
0.507682681084 0.061150837690 0.687987148762 0.195181 -0.069101 0.978330
0.575336337090 0.148058235645 0.675370454788 0.191268 0.001145 0.981537
0.553350746632 0.197314530611 0.679656982422 0.191268 0.001145 0.981537
0.547767162323 0.398446053267 0.680745661259 0.191268 0.001145 0.981537
0.557469785213 0.258447229862 0.678853929043 0.191268 0.001145 0.981537
0.538066506386 0.350072622299 0.682637035847 0.191268 0.001145 0.981537
0.547294080257 0.781722962856 0.679610490799 0.146420 0.010059 0.989171
0.512316405773 0.699700653553 0.685571551323 0.146420 0.010059 0.989171
0.473609536886 0.742683410645 0.690911829472 0.146420 0.010059 0.989171
0.486448287964 0.521740555763 0.691081881523 0.146420 0.010059 0.989171
0.411032915115 0.828561186790 0.699391484261 0.146420 0.010059 0.989171
0.486862778664 0.390794456005 0.692250311375 0.146420 0.010059 0.989171
0.418379604816 0.770614504814 0.698845505714 0.146420 0.010059 0.989171
0.564397931099 0.876873016357 0.671207249165 0.162049 0.085226 0.983096
0.472191900015 0.932565212250 0.678731679916 0.112763 0.177199 0.977694
0.413972765207 0.925935208797 0.686594307423 0.112763 0.177199 0.977694
0.483398228884 1.010682821274 0.663192987442 0.112713 0.179598 0.977262
0.457199901342 1.073578715324 0.650985538960 0.078371 0.278793 0.957148
0.483882784843 1.053470492363 0.654621958733 0.078371 0.278793 0.957148
0.256169766188 1.140357613564 0.643477559090 0.036023 0.277003 0.960194
0.358304589987 1.054404973984 0.664403438568 0.036023 0.277003 0.960194
0.180222392082 1.074799299240 0.664184689522 0.025671 0.262824 0.964502
0.105021856725 1.121351480484 0.652632415295 -0.001199 0.262509 0.964929
0.048744391650 1.096581697464 0.659372389317 0.001199 0.262509 0.964929
-0.015948874876 1.061790704727 0.668839216232 0.001199 0.262509 0.964929
-0.059165965766 1.074861407280 0.665282666683 0.001199 0.262509 0.964929
-0.081540957093 0.953968346119 0.689487278461 0.001125 0.165311 0.986241
-0.044693123549 0.910521924496 0.696713507175 0.001125 0.165311 0.986241
-0.051402252167 0.924092769623 0.694456338882 0.001125 0.165311 0.986241
-0.036053378135 0.682618796825 0.703879833221 0.000978 0.000978 0.999999
-0.112728148699 0.332423210144 0.703879833221 0.000978 0.000978 0.999999
-0.135524451733 0.331790030003 0.703879833221 0.000978 0.000978 0.999999
-0.088067486882 0.646902561188 0.703879833221 0.000978 0.000978 0.999999
-0.090388320386 0.733314990997 0.703879833221 0.000978 0.000978 0.999999
-0.118672505021 0.358903884888 0.703879833221 0.000978 0.000978 0.999999
-0.082025788724 0.268879920244 0.703879833221 0.000978 0.000978 0.999999
-0.035610184073 0.262855231762 0.703879833221 0.000978 0.000978 0.999999
-0.005333916284 0.153899431229 0.703879833221 0.000978 0.000978 0.999999
-0.063654422760 0.152132958174 0.703879833221 0.000978 0.000978 0.999999
-0.051643710583 0.186302781105 0.703879833221 0.000978 0.000978 0.999999
-0.092355251312 0.072546705604 0.703879833221 0.000978 0.000978 0.999999
0.014456685632 0.708793878555 0.703879833221 0.000978 0.000978 0.999999
0.040396887809 0.307315260172 0.703879833221 0.000978 0.000978 0.999999
0.106856226921 0.058067869395 0.703879833221 0.000978 0.000978 0.999999
0.034153126180 0.362163335085 0.703879833221 0.000978 0.000978 0.999999
0.031226530671 0.133129343390 0.703879833221 0.000978 0.000978 0.999999
0.106610223651 0.646529972553 0.703879833221 0.000978 0.000978 0.999999
0.107124552131 0.562900245190 0.703879833221 0.000978 0.000978 0.999999
0.096216835082 0.366138637066 0.703879833221 0.000978 0.000978 0.999999
0.050968553871 0.577470600605 0.703879833221 0.000978 0.000978 0.999999
0.039832163602 0.713210463524 0.703879833221 0.000978 0.000978 0.999999
0.196015834808 0.621075093746 0.703879833221 0.000978 0.000978 0.999999
0.289638459682 0.659699440002 0.703879833221 0.000978 0.000978 0.999999
0.211684033275 0.782964289188 0.703879833221 0.000978 0.000978 0.999999
0.209381759167 0.803079128265 0.703879833221 0.000978 0.000978 0.999999
0.175788059831 0.670830726624 0.703879833221 0.000978 0.000978 0.999999
0.314037531614 0.805951714516 0.703879833221 0.000978 0.000978 0.999999
0.217267587781 0.316096752882 0.703879833221 0.000978 0.000978 0.999999
0.150910735130 0.334657758474 0.703879833221 0.000978 0.000978 0.999999
0.162273272872 0.184966862202 0.703879833221 0.000978 0.000978 0.999999
0.286498188972 0.665627121925 0.703879833221 0.000978 0.000978 0.999999
0.391933530569 0.231488466263 0.703879833221 0.000978 0.000978 0.999999
0.209986269474 0.162641793489 0.703879833221 0.000978 0.000978 0.999999
0.361636281013 0.353538393974 0.703879833221 0.000978 0.000978 0.999999
0.330442488194 0.628416776657 0.703879833221 0.000978 0.000978 0.999999
0.300829082727 0.105822175741 0.703879833221 0.000978 0.000978 0.999999
0.341271728277 0.184624403715 0.703879833221 0.000978 0.000978 0.999999
0.364049583673 0.532681584358 0.703879833221 0.000978 0.000978 0.999999
0.393873482943 0.463986486197 0.703879833221 0.000978 0.000978 0.999999
0.288031101227 0.350284695625 0.703879833221 0.000978 0.000978 0.999999
0.208452314138 0.240973919630 0.703879833221 0.000978 0.000978 0.999999
0.349880546331 0.411246329546 0.703879833221 0.000978 0.000978 0.999999
0.174968719482 0.166495159268 0.703879833221 0.000978 0.000978 0.999999
0.292102158070 0.012520175427 0.700479924679 0.007428 -0.083834 0.996452
0.195002093911 0.023783892393 0.702097117901 0.007428 -0.083834 0.996452
0.173940211535 -0.087915189564 0.688616037369 -0.005461 -0.119057 0.992872
0.168133407831 0.010810628533 0.700504302979 -0.005461 -0.119057 0.992872
0.236823305488 -0.102676771581 0.686175167561 -0.001127 -0.165678 0.986179
0.276311427355 -0.131132006645 0.681403636932 -0.001127 -0.165678 0.986179
0.410180628300 -0.124599419534 0.680296957493 0.027361 -0.212943 0.976682
0.282347142696 -0.163552880287 0.675556004047 0.027361 -0.212943 0.976682
0.326720416546 -0.139794677496 0.679426908493 0.027361 -0.212943 0.976682
0.050085119903 -0.136744350195 0.680358886719 0.001125 -0.165311 0.986241
0.094479903579 -0.205657511950 0.668735742569 0.001125 -0.165311 0.986241
0.038925223053 -0.152915149927 0.677631556988 0.001125 -0.165311 0.986241
0.099383264780 -0.090530224144 0.688084542751 0.001087 -0.120688 0.992690
0.071521446109 -0.012886570767 0.697461187840 0.001087 -0.120688 0.992690
0.268932163715 0.914399504662 0.694743454456 0.010192 0.164207 0.986373
0.139989808202 0.933197855949 0.692925453186 0.010192 0.164207 0.986373
0.313890457153 0.996281623840 0.679783105850 0.017196 0.173106 0.984753
0.310136795044 0.970723986626 0.684340417385 0.017196 0.173106 0.984753
0.116062268615 0.981543302536 0.684900820255 -0.001125 0.165311 0.986241
0.125864878297 0.948053419590 0.690471112728 -0.001125 0.165311 0.986241
0.100583583117 0.885194957256 0.700926125050 -0.001125 0.165311 0.986241
-0.062123939395 -0.331421673298 0.634189009666 0.001230 -0.308835 0.951115
-0.287596881390 -0.279600828886 0.644269704819 -0.041872 -0.308327 0.950358
-0.215237945318 -0.283036530018 0.646349966526 -0.041872 -0.308327 0.950358
-0.443540036678 -0.244322240353 0.649158954620 -0.042008 -0.314421 0.948354
