0.438677310944 -0.828512012959 -0.154586106539 0.010571 0.217291 -0.976049
-0.061325192451 -0.822991371155 -0.158189386129 0.010571 0.217291 -0.976049
0.102523826063 -0.932672023773 -0.180931106210 0.010571 0.217291 -0.976049
-0.559854507446 -1.037872076035 -0.210656508803 0.010571 0.217291 -0.976049
0.605073690414 -0.881977617741 -0.164836511016 0.010571 0.217291 -0.976049
0.393868535757 -0.978073000908 -0.188186645508 0.010571 0.217291 -0.976049
0.646480143070 -1.022788763046 -0.195664182305 0.010571 0.217291 -0.976049
-0.040107220411 -0.969256639481 -0.190421536565 0.010571 0.217291 -0.976049
0.364653229713 -1.038017272949 -0.201762437820 0.010571 0.217291 -0.976049
0.041116982698 -0.961725354195 -0.187967121601 0.010571 0.217291 -0.976049
0.015455275774 -1.012914180756 -0.199566960335 0.010571 0.217291 -0.976049
0.477882087231 -0.866082370281 -0.162539497018 0.010571 0.217291 -0.976049
0.241763174534 -1.026415348053 -0.200376018882 0.010571 0.217291 -0.976049
0.052891314030 -0.955777704716 -0.186534434557 0.010571 0.217291 -0.976049
0.266719818115 -1.037955641747 -0.202694326639 0.010571 0.217291 -0.976049
-0.194754242897 -1.020895838737 -0.203366607428 0.010571 0.217291 -0.976049
0.159194037318 -0.941978216171 -0.182447776198 0.010571 0.217291 -0.976049
0.473709762096 -0.949496507645 -0.181078404188 0.010571 0.217291 -0.976049
-0.458244323730 -1.040677905083 -0.210297673941 0.010571 0.217291 -0.976049
0.225432381034 -0.417809396982 -0.187230944633 -0.241853 -0.946917 -0.211792
0.496013820171 -0.281361371279 -0.168431594968 0.775767 0.191264 0.601334
0.443169295788 -0.079603560269 -0.197684347630 -0.011070 0.293981 0.955747
0.275650382042 -0.047214727849 -0.212159410119 -0.001362 0.813364 0.581753
0.328583717346 -0.372029632330 -0.154253393412 -0.011768 -0.088793 0.995981
0.300348967314 -0.119499869645 -0.195318892598 -0.009461 0.068330 0.997618
0.304361253977 -0.317699283361 -0.159204140306 -0.010078 0.148935 0.988796
0.445991367102 -0.322013407946 -0.157186403871 -0.010078 0.148935 0.988796
0.357122242451 -0.021892402321 -0.211569517851 -0.008377 0.250123 0.968178
0.281521767378 -0.415075957775 -0.199052199721 0.003813 -0.929082 -0.369854
0.232877448201 -0.256295084953 -0.152518257499 0.693978 0.064925 0.717063
0.176110059023 -0.204340368509 -0.178098201752 -0.963408 -0.010907 -0.267815
0.182243913412 -0.344047248363 -0.164415195584 -0.955865 -0.103020 -0.275153
0.203604802489 -0.220222860575 -0.244403317571 -0.909111 -0.027709 -0.415631
0.538969278336 -0.368826359510 -0.224352240562 0.664461 -0.470311 -0.580775
0.564363718033 -0.301246792078 -0.195029661059 0.907797 -0.092295 -0.409129
0.551273643970 -0.235202521086 -0.237670972943 0.914947 -0.046613 -0.400872
0.553038060665 -0.354157298803 -0.143468856812 -0.035423 -0.065480 0.997225
0.508043706417 -0.367226928473 -0.282750815153 0.006855 -0.804727 -0.593606
0.280983805656 -0.358588188887 -0.296648979187 0.006855 -0.804727 -0.593606
0.395684421062 -0.375141412020 -0.239599451423 -0.006826 -0.563790 0.825890
0.555292129517 -0.373911589384 -0.237221077085 -0.006826 -0.563790 0.825890
0.580838978291 -0.249608233571 -0.270019531250 0.999960 0.000985 0.008867
0.581036090851 -0.253267884254 -0.290436506271 0.999960 -0.000985 0.008867
0.511187791824 0.090866141021 -0.189974427223 -0.006934 0.664262 0.747468
0.501332879066 0.077316835523 -0.178025156260 -0.006934 0.664262 0.747468
0.360193967819 0.100693851709 -0.214382693172 0.000995 0.999821 -0.018902
0.550706267357 0.100793942809 -0.207232758403 0.000995 0.999821 -0.018902
0.354223430157 0.099514126778 -0.233436569571 0.003604 0.964758 -0.263116
0.364554911852 0.089999884367 -0.268050670624 0.003604 0.964758 -0.263116
0.446700215340 0.080426976085 -0.302185863256 0.003604 0.964758 -0.263116
0.204372555017 0.072284765542 -0.316524118185 0.006895 0.776391 -0.630214
0.179168254137 0.076601892710 -0.298643499613 -0.554433 0.801534 -0.223935
0.178273439407 -0.027785927057 -0.231775552034 -0.999960 -0.000985 -0.008867
0.179050222039 -0.203117430210 -0.312238872051 -0.999960 0.000985 -0.008867
0.184373721480 -0.124140411615 -0.316437423229 -0.546843 -0.004071 -0.837225
0.458184242249 -0.344590127468 -0.225110247731 -0.010268 -0.174557 0.984594
0.419230431318 -0.293112963438 -0.227060124278 -0.008251 0.222785 0.974833
0.211260631680 -0.266750454903 -0.235075026751 -0.008251 0.222785 0.974833
0.197030365467 -0.258904844522 -0.236768648028 -0.010158 0.156882 0.987565
0.400180876255 -0.236737057567 -0.238344803452 -0.010158 0.156882 0.987565
0.203479856253 -0.192034542561 -0.245039626956 -0.009097 0.025269 0.999639
0.263532489538 -0.155350536108 -0.245408549905 -0.009097 0.025269 0.999639
0.573179423809 -0.174484133720 -0.242999270558 0.280333 0.025934 0.959553
0.580142140388 0.009194547310 -0.197849676013 0.999960 0.000985 0.008867
0.527951240540 0.058809418231 -0.173823073506 -0.010059 0.146420 0.989171
0.276920050383 0.071955852211 -0.178194507957 -0.010059 0.146420 0.989171
0.178820803761 -0.266680508852 -0.288479208946 -0.999960 0.000985 -0.008867
0.191075801849 -0.332202106714 -0.226619288325 -0.009025 -0.017048 0.999814
0.311238884926 -0.106901630759 -0.245430126786 -0.008919 0.004955 0.999948
0.547864675522 -0.082181185484 -0.243276566267 -0.008919 0.004955 0.999948
0.561519682407 -0.001742287539 -0.191943421960 -0.006925 -0.649520 0.760313
0.308327764273 0.009178664535 -0.185038328171 -0.006925 -0.649520 0.760313
0.328821808100 0.017065579072 -0.180617079139 -0.008324 -0.236647 0.971560
0.444328963757 0.040471579880 -0.173828527331 -0.008324 -0.236647 0.971560
0.452380031347 -0.033839121461 -0.222442135215 -0.006932 -0.700124 0.713988
0.459550797939 -0.039260569960 -0.227682143450 -0.006932 -0.700124 0.713988
0.451122820377 -0.059940841049 -0.238178849220 -0.009122 -0.418297 0.908265
0.289734512568 -0.053121827543 -0.236601531506 -0.009122 -0.418297 0.908265
0.181723117828 -0.161575913429 -0.249325975776 -0.563772 0.020676 0.825671
0.223567739129 0.039432082325 0.084444031119 0.717190 -0.565509 0.407232
0.212053790689 -0.053090006113 -0.061678491533 0.255351 -0.953220 0.161767
0.232898369431 -0.041024420410 -0.109415113926 0.597018 -0.802026 -0.018007
0.245325759053 -0.018844313920 -0.103432938457 0.954510 -0.297429 0.021156
0.255243957043 -0.002635691315 -0.129953563213 0.905475 -0.414837 0.089583
0.240832015872 0.020688839257 0.030622463673 0.863495 -0.383262 0.327851
0.246521279216 0.093723170459 0.098173022270 0.844149 -0.371175 0.386836
0.230216607451 0.142524480820 0.166266411543 -0.954251 -0.286146 0.086750
0.472961902618 -0.013705072924 -0.120795287192 -0.005669 -0.985221 0.171195
0.437028676271 0.014298930764 -0.048810388893 -0.003896 -0.907762 0.419467
0.323894113302 0.012542546727 -0.053713645786 -0.003896 -0.907762 0.419467
0.462646663189 0.035245686769 -0.015223043039 -0.004137 -0.630224 0.776403
0.479061096907 0.002980315592 -0.081132657826 0.949528 -0.284458 0.132213
0.475030750036 0.010701607913 -0.056355770677 0.558581 -0.752870 0.348101
0.357213556767 0.047576636076 0.023863628507 -0.003746 -0.942776 0.333406
0.304468870163 0.053564377129 0.040237411857 -0.003746 -0.942776 0.333406
0.478360325098 0.026139985770 -0.060639344156 -0.943523 -0.309154 0.119111
0.481690645218 -0.009467869997 -0.147145986557 -0.843448 -0.510234 0.168095
0.494507491589 -0.028062583879 -0.190617799759 -0.217084 -0.961746 -0.167089
0.567579984665 -0.046398580074 0.000256041065 0.360857 -0.818683 0.446699
0.573972463608 -0.005388632417 -0.017501933500 0.986447 0.129390 0.100900
0.573022782803 -0.064782813191 -0.126894935966 0.704755 -0.686330 -0.179643
0.516391396523 0.104988619685 -0.181329041719 0.574798 0.765866 -0.288195
0.570719540119 0.045445472002 -0.088097259402 0.978355 0.145079 -0.147559
0.575327157974 -0.016556181014 -0.119543440640 0.979150 0.147306 -0.139879
0.571160197258 -0.004272762686 -0.134375140071 0.934661 0.149601 -0.322534
0.566775083542 -0.029104992747 -0.158396840096 0.932281 0.150101 -0.329122
0.575841963291 0.005531829316 -0.062548600137 0.988298 0.136197 0.068680
0.495443016291 0.249722167850 0.194309681654 0.825156 0.532505 -0.188564
0.248025089502 0.256733596325 0.176998540759 -0.527040 0.824734 -0.205044
0.223905131221 0.221843719482 0.166986450553 -0.078032 0.841323 -0.534871
0.191552728415 0.113086767495 -0.050930894911 -0.156389 0.972666 -0.171647
0.168928667903 0.037404503673 -0.124367468059 -0.976302 0.146633 -0.159166
0.156358063221 -0.012337706983 -0.093748092651 -0.975341 0.144355 -0.166950
0.160813137889 0.007919192314 -0.032854408026 -0.988302 0.127788 0.083238
0.169998988509 0.051420804113 0.009377989918 -0.988357 0.127492 0.083045
0.180640384555 0.121740221977 0.027661653236 -0.988051 0.128059 0.085764
0.195527374744 0.143500909209 0.158328369260 -0.986379 0.153281 0.059674
0.205816581845 0.194759398699 0.150629594922 -0.975247 0.209770 0.069923
0.181982651353 0.117047347128 -0.005832962692 -0.692306 0.695389 -0.192735
0.474109262228 0.107228010893 0.119409866631 -0.003313 -0.135852 0.990724
0.268491148949 0.176987886429 0.227754592896 0.004137 -0.776403 0.630224
0.340507805347 0.207070752978 0.247602254152 -0.008611 -0.293988 0.955770
0.507247984409 0.251065313816 0.227655887604 0.652132 0.671745 -0.351400
0.534943342209 -0.061018779874 -0.088832601905 -0.257680 -0.964101 -0.064106
0.292600780725 0.259198725224 0.253888368607 -0.939604 0.335103 -0.069649
0.408719956875 0.295660346746 0.310818254948 0.022051 0.983012 -0.182211
0.451540291309 0.291934490204 0.295739918947 0.001152 0.980402 -0.197002
0.336320549250 0.246340095997 0.447745978832 0.016597 -0.358759 0.933283
0.389239370823 0.312884807587 0.417136907578 -0.001102 0.990769 0.135556
0.349445164204 0.305274426937 0.358486741781 -0.019686 0.983137 -0.181805
0.288287997246 0.257607221603 0.287935346365 0.020485 -0.242201 -0.970010
0.395690411329 0.218489661813 0.337266951799 -0.153465 -0.976936 -0.148474
0.415877282619 0.212042227387 0.393784850836 -0.170134 -0.984925 0.031249
0.424327552319 0.130896940827 -0.140814065933 -0.000978 0.999999 -0.000978
0.495101422071 0.168979525566 0.028087247163 0.003915 0.901862 -0.432006
0.436260074377 0.145025789738 -0.008286049590 0.001165 0.977028 -0.213106
0.457024961710 0.134509623051 -0.068350814283 0.001034 0.998136 -0.061026
0.455613762140 0.132700234652 -0.096971377730 0.003115 0.997987 -0.063348
0.355697154999 0.149121761322 -0.112927451730 0.031275 0.954524 -0.296490
0.365918248892 0.138461694121 -0.171458989382 0.011813 0.995555 -0.093434
0.352559566498 0.119882591069 -0.203979730606 0.006826 0.563790 -0.825890
0.415510416031 0.190104663372 0.102204680443 0.004005 0.871747 -0.489940
0.405505210161 0.146865189075 -0.089166283607 0.914246 0.391820 -0.103110
0.368080347776 0.179854273796 -0.014940593392 0.003706 0.949905 -0.312517
0.329700350761 0.199165627360 0.069711901248 -0.974663 0.208768 -0.080295
0.522067666054 0.123689025640 -0.118044383824 0.702947 0.693838 -0.156379
0.219287857413 0.125842824578 -0.134691789746 -0.701429 0.692260 -0.169627
0.228305548429 0.197782412171 0.091651633382 -0.657429 0.654134 -0.374026
0.273520171642 0.140731841326 -0.029539750889 0.003501 0.976917 -0.213591
0.286589831114 0.178417146206 0.080164909363 0.004005 0.871747 -0.489940
0.324672847986 0.138903483748 -0.145402476192 -0.626958 0.765280 0.145839
0.507467269897 0.203820139170 0.113899812102 0.770896 0.578566 -0.266424
0.556445300579 -0.415626704693 -0.353524923325 -0.004016 -0.863335 0.504616
0.539012551308 -0.161414623260 -0.323720812798 -0.008919 0.004955 0.999948
0.550116300583 -0.215575903654 -0.323302865028 -0.008919 0.004955 0.999948
0.575188219547 -0.106968328357 -0.372544735670 0.973432 0.001174 0.228974
0.581173121929 -0.042354539037 -0.398215860128 0.973432 0.001174 0.228974
0.579046905041 -0.237178936601 -0.388987630606 0.970622 0.003555 0.240582
0.572390854359 -0.287125766277 -0.361789524555 0.970622 0.003555 0.240582
0.506932199001 -0.320152819157 -0.400969535112 -0.974582 0.003518 0.224001
0.506692349911 -0.124539524317 -0.404141753912 -0.974582 0.003518 0.224001
0.518244147301 -0.216384634376 -0.349690705538 -0.977717 0.001160 0.209925
0.518126547337 -0.231963336468 -0.350217223167 -0.977717 0.001160 0.209925
0.550660610199 0.019379066303 -0.388724088669 0.004074 0.835164 -0.549986
0.529493629932 -0.314716577530 -0.315965205431 -0.008867 0.000985 0.999960
0.214189544320 -0.173955619335 -0.326785087585 -0.008919 0.004955 0.999948
0.226342707872 -0.016158469021 -0.327572971582 -0.008919 0.004955 0.999948
0.238514751196 -0.238745719194 -0.330066293478 0.973432 0.001174 0.228974
0.240566447377 -0.181651979685 -0.338915556669 0.973432 0.001174 0.228974
0.247398570180 -0.369256794453 -0.368324041367 0.970622 0.003555 0.240582
0.250752389431 -0.196202024817 -0.383509606123 0.970622 0.003555 0.240582
0.260015040636 -0.183854997158 -0.420989811420 0.984919 -0.001131 0.173011
0.179485037923 -0.253762960434 -0.410978764296 -0.974582 0.003518 0.224001
0.182459890842 -0.276933670044 -0.397730827332 -0.974582 0.003518 0.224001
0.197172164917 -0.372960478067 -0.329437524080 -0.984983 -0.010272 0.172344
0.181824266911 -0.059103876352 -0.401646435261 -0.977717 0.001160 0.209925
0.195915639400 -0.216848835349 -0.335461497307 -0.977717 0.001160 0.209925
0.229342758656 0.003771577962 -0.415175378323 0.006918 0.640577 -0.767863
0.201392486691 -0.343993127346 -0.323844015598 -0.826370 -0.001357 -0.563126
0.307332277298 0.002012242563 -0.399672448635 -0.001114 0.988281 0.152643
0.438763320446 0.002905208850 -0.404208123684 -0.001114 0.988281 0.152643
0.406634271145 -0.001705323579 -0.375536650419 -0.006946 0.707090 0.707090
0.519991934299 -0.170197337866 -0.362153828144 -0.008867 0.000985 0.999960
0.454153448343 -0.144240677357 -0.362789511681 -0.008867 0.000985 0.999960
0.495916783810 -0.145670086145 -0.362386286259 -0.008867 0.000985 0.999960
0.429563641548 -0.030759572983 -0.363026916981 -0.008867 0.000985 0.999960
0.463148057461 -0.276043355465 -0.362702637911 -0.008867 0.000985 0.999960
0.298962056637 -0.234348103404 -0.364287853241 -0.008867 0.000985 0.999960
0.481704682112 -0.307568937540 -0.362523496151 -0.008867 0.000985 0.999960
0.289541304111 -0.177674219012 -0.364378839731 -0.008867 0.000985 0.999960
0.267647475004 -0.328421562910 -0.367859035730 -0.008900 -0.362371 0.931992
0.468463718891 -0.329747319221 -0.366435766220 -0.008900 -0.362371 0.931992
0.364666342735 -0.360390096903 -0.398823589087 -0.006851 -0.806995 0.590518
0.520881533623 -0.353246897459 -0.387574195862 -0.006851 -0.806995 0.590518
-0.250729829073 -0.189572021365 -0.190579622984 0.788642 0.067271 0.611162
-0.250008940697 -0.132022231817 -0.209637865424 0.780192 -0.158453 0.605139
-0.324284821749 -0.401852011681 -0.166629120708 -0.003934 -0.439324 0.898320
-0.313176602125 -0.070396453142 -0.207827925682 -0.011070 0.293981 0.955747
-0.423936575651 -0.366839289665 -0.161073550582 -0.011768 -0.088793 0.995981
-0.439241588116 -0.336424380541 -0.163561433554 -0.010078 0.148935 0.988796
-0.431769847870 -0.278048187494 -0.172286152840 -0.010078 0.148935 0.988796
-0.314346164465 -0.242562115192 -0.181328937411 -0.008013 -0.182001 0.983266
-0.320740908384 -0.227571621537 -0.179915159941 -0.009776 0.109711 0.993915
-0.329154819250 -0.086872264743 -0.203582376242 -0.009441 0.068187 0.997628
-0.410532802343 -0.101266048849 -0.203392833471 -0.009461 0.068330 0.997618
-0.480060696602 -0.092899948359 -0.204680427909 -0.009461 0.068330 0.997618
-0.403594344854 -0.238913878798 -0.181458503008 -0.012653 -0.180592 0.983477
-0.482593208551 -0.015538663603 -0.222139045596 -0.500389 0.217494 0.838038
-0.328830540180 -0.019538918510 -0.218784183264 -0.010796 0.250698 0.968005
-0.488416045904 -0.191912502050 -0.195003107190 0.692618 0.139726 0.707642
-0.496763646603 -0.038552243263 -0.218803629279 0.485300 0.176608 0.856325
-0.412762284279 -0.005526339635 -0.235847041011 0.004025 0.862651 -0.505784
-0.572089254856 -0.201201826334 -0.179071009159 -0.963408 -0.010907 -0.267815
-0.529746055603 -0.104634322226 -0.246090427041 -0.768122 0.232151 -0.596736
-0.434723794460 -0.403684377670 -0.226077675819 0.006935 -0.744860 -0.667184
-0.230509310961 -0.386622130871 -0.239695161581 0.166266 -0.712351 -0.681844
-0.201780170202 -0.369695484638 -0.222459360957 0.868376 -0.149820 -0.472734
-0.223210155964 -0.039724003524 -0.247156232595 0.486326 0.157211 -0.859518
-0.199120655656 -0.388930648565 -0.159726664424 0.061798 -0.199934 0.977859
-0.202690035105 -0.398424535990 -0.163964331150 0.054270 -0.519048 0.853020
-0.233911707997 -0.416469931602 -0.200515091419 0.003813 -0.929082 -0.369854
-0.187672302127 -0.112863197923 -0.214658260345 0.856992 0.376580 -0.351785
-0.230866760015 -0.233438640833 -0.163385421038 -0.699161 0.149497 0.699161
-0.238721102476 -0.045305512846 -0.212661325932 -0.530692 0.136716 0.836465
-0.245304375887 -0.024804024026 -0.220798492432 -0.499307 0.177366 0.848077
-0.519659221172 -0.350554078817 -0.315265864134 0.006855 -0.804727 -0.593606
-0.285872429609 -0.366709172726 -0.291117757559 0.006855 -0.804727 -0.593606
-0.170615851879 -0.181114181876 -0.262636095285 0.999960 -0.000985 0.008867
-0.170221313834 -0.157603278756 -0.303498119116 0.999960 -0.000985 0.008867
-0.170805573463 0.039352092892 -0.242985859513 0.999960 0.000985 0.008867
-0.175697281957 -0.128208294511 -0.320127665997 0.562529 -0.004086 -0.826768
-0.176851049066 -0.094792559743 -0.320779502392 0.298479 -0.006142 -0.954396
-0.236922338605 0.087979115546 -0.194631129503 -0.006934 0.664262 0.747468
-0.298344194889 0.100012242794 -0.237920135260 0.003604 0.964758 -0.263116
-0.542622268200 0.093086019158 -0.265549838543 0.003604 0.964758 -0.263116
-0.573382496834 0.023665720597 -0.203561872244 -0.999960 0.000985 -0.008867
-0.572445154190 -0.196320161223 -0.300649702549 -0.999960 0.000985 -0.008867
-0.481591135263 -0.386143863201 -0.264753878117 -0.001106 -0.990081 0.140492
-0.233224153519 -0.289860785007 -0.234100654721 -0.008251 0.222785 0.974833
-0.302809894085 -0.265101552010 -0.240414142609 -0.008251 0.222785 0.974833
-0.257252037525 -0.231655329466 -0.245503306389 -0.010158 0.156882 0.987565
-0.525948286057 -0.219613611698 -0.250019282103 -0.010158 0.156882 0.987565
-0.548162817955 -0.159937769175 -0.253126949072 -0.009097 0.025269 0.999639
-0.423414051533 -0.186953455210 -0.251223772764 -0.009097 0.025269 0.999639
-0.248668655753 -0.167607307434 -0.250036925077 -0.009097 0.025269 0.999639
-0.242534652352 -0.343997716904 -0.231771200895 -0.010268 -0.174557 0.984594
-0.476078093052 -0.309023648500 -0.232661113143 -0.009025 -0.017048 0.999814
-0.383967787027 -0.329094737768 -0.232117831707 -0.009025 -0.017048 0.999814
-0.531910121441 -0.073680959642 -0.253747016191 -0.008919 0.004955 0.999948
-0.545303702354 -0.140970692039 -0.253519564867 -0.008919 0.004955 0.999948
-0.194466128945 -0.098162382841 -0.250359117985 -0.008919 0.004955 0.999948
-0.224108144641 0.016858955845 -0.186005726457 -0.008324 -0.236647 0.971560
-0.449780702591 -0.017931871116 -0.215574637055 -0.006932 -0.700124 0.713988
-0.471705585718 -0.028133884072 -0.225777149200 -0.006932 -0.700124 0.713988
-0.357809722424 -0.056708812714 -0.244502946734 -0.009122 -0.418297 0.908265
-0.199290767312 -0.029317876324 -0.217778503895 0.603668 -0.383255 -0.699071
-0.178762629628 0.002479532734 -0.186329528689 0.831420 0.146200 -0.536066
-0.165863528848 0.065916478634 -0.114154823124 0.978355 0.145079 -0.147559
-0.156683355570 -0.010897710919 -0.129959195852 0.979150 0.147306 -0.139879
-0.154379323125 -0.070098422468 -0.093698747456 -0.001102 -0.990471 0.137718
-0.152596965432 -0.014598039910 -0.062188051641 0.988298 0.136197 0.068680
-0.152136430144 -0.026940481737 -0.043144121766 0.989797 0.131896 0.053906
-0.174178779125 -0.017526734620 0.036600980908 -0.006944 -0.723559 0.690228
-0.198080420494 0.023924835026 0.076420202851 -0.275970 -0.725816 0.630104
-0.216028854251 0.002110483125 0.038097143173 -0.725734 -0.564460 0.393312
-0.205636054277 -0.057128205895 -0.086640119553 -0.257410 -0.953619 0.156047
-0.224766924977 -0.038081400096 -0.061999954283 -0.602929 -0.781239 0.161688
-0.243464216590 0.014355577528 -0.012003585696 -0.938978 -0.301078 0.166349
-0.239478036761 0.021623577923 0.022880185395 -0.933947 -0.300147 0.194049
-0.228185519576 -0.036072511226 -0.184264555573 -0.578200 -0.748922 -0.323728
-0.159373655915 -0.049557257444 -0.161867246032 0.932281 0.150101 -0.329122
-0.174370259047 0.045034013689 -0.161449328065 0.934661 0.149601 -0.322534
-0.175381168723 -0.039886530489 0.005869596731 -0.361587 -0.863192 0.352355
-0.202839002013 0.091244101524 0.144896209240 -0.006931 -0.691678 0.722173
-0.174507096410 0.071923151612 0.049700696021 0.986198 0.127290 0.105877
-0.188162490726 0.110493481159 0.124209143221 0.985226 0.152941 0.077063
-0.214905455709 0.223858356476 0.201312810183 0.951670 0.306385 -0.021259
-0.207671880722 0.166990265250 0.076973244548 0.087757 0.887325 -0.452717
-0.234663471580 0.196655362844 0.240648329258 -0.039671 -0.493832 0.868652
-0.268141418695 0.148922532797 0.187980636954 -0.006907 -0.777741 0.628547
-0.288189888000 0.185384571552 0.232408910990 -0.015286 -0.776830 0.629524
-0.253075748682 0.258923798800 0.169066503644 0.531358 0.825043 -0.192258
-0.404021531343 0.264399290085 0.178895711899 0.008426 0.966539 -0.256380
-0.316545188427 0.243914276361 0.250331878662 -0.010590 0.220032 0.975435
-0.530284345150 0.112904548645 0.162432715297 -0.361388 -0.606673 0.708058
-0.567246019840 -0.026915587485 0.015975074843 -0.581759 -0.527799 0.618857
-0.562526106834 0.032217070460 0.010083848611 -0.988357 0.127492 0.083045
-0.557391405106 0.057523533702 0.031732406467 -0.988051 0.128059 0.085764
-0.544181883335 0.094555832446 0.126651838422 -0.986379 0.153281 0.059674
-0.524508833885 0.110265620053 -0.101996332407 -0.190965 0.977002 -0.094867
-0.532280802727 0.033949453384 -0.201174631715 -0.821402 0.147050 -0.551067
-0.542616248131 0.073394075036 -0.173587590456 -0.926443 0.148620 -0.345854
-0.570223808289 -0.015480335802 -0.128396168351 -0.976302 0.146633 -0.159166
-0.484758943319 0.059495899826 0.055728182197 0.863495 -0.383262 0.327851
-0.500225067139 0.138348117471 0.167950645089 0.789152 -0.429415 0.439138
-0.324378997087 0.016461391002 -0.051469713449 -0.003896 -0.907762 0.419467
-0.250048667192 -0.016626050696 -0.203961178660 0.951829 -0.281974 -0.120468
-0.276453137398 0.040664300323 -0.012912021950 -0.003905 -0.907304 -0.420458
-0.323762118816 0.071493379772 0.070733778179 -0.004032 -0.858906 0.512118
-0.277764737606 0.115023188293 0.143135190010 -0.006766 -0.848511 0.529135
-0.358885109425 0.110383801162 0.134850457311 -0.004051 -0.849278 0.527930
-0.362397223711 0.105053164065 0.111242964864 -0.009984 -0.136443 0.990598
-0.545641243458 -0.060199387372 -0.064108692110 0.307882 -0.944971 0.110624
-0.409369945526 0.035497587174 -0.023332439363 -0.006910 -0.631566 0.775292
-0.364479184151 -0.025689391419 -0.198250710964 -0.001131 -0.985302 0.170816
-0.389843612909 -0.018565226346 -0.157577067614 -0.001131 -0.985302 0.170816
-0.268456816673 0.271458417177 0.244286194444 0.003520 0.221772 0.975092
-0.373055398464 0.311658084393 0.385049760342 -0.017324 0.982842 -0.183633
-0.338834732771 0.297460645437 0.311426281929 0.022051 0.983012 -0.182211
-0.267590939999 0.276390194893 0.299020558596 0.999960 -0.000985 0.008867
-0.337604135275 0.248767331243 0.442293107510 -0.034936 -0.358413 0.932909
-0.311934053898 0.309429436922 0.424333989620 -0.004137 0.776403 0.630224
-0.388356238604 0.312157839537 0.414928168058 -0.001102 0.990769 0.135556
-0.397210359573 0.308813095093 0.371190071106 0.001152 0.980402 -0.197002
-0.470260173082 0.247163236141 0.383793741465 -0.999960 0.000985 -0.008867
-0.429891645908 0.282698631287 0.277463346720 0.008919 0.004955 -0.999948
-0.268535763025 0.245678514242 0.396874457598 0.999960 -0.000985 0.008867
-0.418712079525 0.212411031127 0.387446194887 0.168256 -0.985169 0.033651
-0.332621812820 0.236933246255 0.120175272226 0.511971 0.776839 -0.366616
-0.235495984554 0.179112896323 0.042238384485 0.003915 0.901862 -0.432006
-0.287961989641 0.253785938025 0.150791898370 0.067579 0.774999 -0.628339
-0.263091206551 0.132092282176 -0.113054379821 0.003115 0.997987 -0.063348
-0.340817868710 0.152018383145 -0.111209817231 -0.023661 0.955161 -0.295141
-0.259797602892 0.190760657191 0.093386441469 -0.375766 0.785399 -0.491882
-0.267662137747 0.229028329253 0.130673199892 -0.263694 0.440506 -0.858149
-0.400669008493 0.185648173094 0.035484254360 -0.975895 0.203055 -0.079991
-0.392247915268 0.137420281768 -0.186175882816 0.001016 0.999131 -0.041673
-0.515751063824 0.149632230401 -0.018774218857 -0.704663 0.695648 -0.139731
-0.479887664318 0.186509370804 0.065564386547 0.733419 0.552935 -0.395423
-0.227762818336 0.137050524354 -0.125365138054 0.417496 0.898677 -0.134448
-0.209860071540 0.130893200636 -0.099224731326 0.702947 0.693838 -0.156379
-0.299415111542 0.148218750954 -0.000782684423 0.001165 0.977028 -0.213106
-0.283124983311 0.133963868022 -0.084457144141 0.001034 0.998136 -0.061026
-0.523999631405 -0.403161793947 -0.342608034611 -0.004016 -0.863335 0.504616
-0.492678970098 -0.088528677821 -0.427145987749 0.970622 0.003555 0.240582
-0.491926699877 -0.202296033502 -0.429888486862 0.984919 0.001131 0.173011
-0.575646877289 -0.105782002211 -0.433201402426 -0.987889 0.001116 0.155160
-0.574519157410 -0.232084408402 -0.426224380732 -0.974582 0.003518 0.224001
-0.569670617580 -0.201918974519 -0.405369788408 -0.974582 0.003518 0.224001
-0.558314383030 -0.326570689678 -0.352600306273 -0.984983 -0.010272 0.172344
-0.511054933071 -0.336838781834 -0.349163979292 0.981145 -0.010401 0.192993
-0.510631024837 -0.197592183948 -0.350573182106 0.973432 0.001174 0.228974
-0.504584789276 -0.083306699991 -0.376575678587 0.973432 0.001174 0.228974
-0.557056367397 -0.306551188231 -0.346055269241 -0.977717 0.001160 0.209925
-0.559775114059 -0.000422924757 -0.359246045351 -0.977717 0.001160 0.209925
-0.545133948326 -0.250820666552 -0.333675444126 -0.008919 0.004955 0.999948
-0.536682188511 -0.052832473069 -0.334729641676 -0.008919 0.004955 0.999948
-0.520781159401 -0.319506108761 -0.326105713844 -0.008867 0.000985 0.999960
-0.215977042913 -0.108302354813 -0.331315010786 -0.008919 0.004955 0.999948
-0.211785182357 -0.113864138722 -0.331242620945 -0.008919 0.004955 0.999948
-0.176284134388 -0.083802863955 -0.383082419634 0.973432 0.001174 0.228974
-0.184536442161 -0.044726520777 -0.347865611315 0.973432 0.001174 0.228974
-0.172694846988 -0.415048450232 -0.396430492401 0.970622 0.003555 0.240582
-0.166106015444 -0.391574472189 -0.425490200520 0.984919 0.001131 0.173011
-0.249585375190 -0.139142990112 -0.429926693439 -0.987889 0.001116 0.155160
-0.248003959656 -0.092010259628 -0.422528803349 -0.974582 0.003518 0.224001
-0.241268634796 -0.011624529958 -0.391343861818 -0.977717 0.001160 0.209925
-0.243830636144 -0.056763648987 -0.403264433146 -0.977717 0.001160 0.209925
-0.246684983373 0.006010378711 -0.413740813732 -0.969359 -0.070929 0.235185
-0.462456673384 0.003237245139 -0.415067881346 -0.001114 0.988281 0.152643
-0.311615765095 -0.063370227814 -0.370183110237 -0.008867 0.000985 0.999960
-0.377852439880 -0.068756289780 -0.370822638273 -0.008867 0.000985 0.999960
-0.355673611164 -0.096866145730 -0.370608478785 -0.008867 0.000985 0.999960
-0.241890147328 -0.085804291070 -0.369509875774 -0.008867 0.000985 0.999960
-0.313192814589 -0.100294992328 -0.370198309422 -0.008867 0.000985 0.999960
-0.446680217981 -0.288426518440 -0.371487170458 -0.008867 0.000985 0.999960
-0.391530215740 -0.267884105444 -0.370954662561 -0.008867 0.000985 0.999960
-0.513407230377 -0.130842700601 -0.372131437063 -0.008867 0.000985 0.999960
-0.499335825443 -0.076474845409 -0.371995568275 -0.008867 0.000985 0.999960
-0.403152555227 -0.358478903770 -0.403630703688 -0.006851 -0.806995 0.590518
-0.385003864765 -0.365325957537 -0.412792742252 -0.006851 -0.806995 0.590518
0.542581737041 0.682671964169 -0.225244328380 0.449352 0.114819 -0.885946
0.554284274578 0.641940534115 -0.184916913509 0.998575 -0.015619 -0.051022
0.540749430656 0.390624165535 -0.191829532385 0.531594 -0.274422 -0.801312
0.555531859398 0.384405851364 -0.092646442354 0.889513 -0.452318 -0.064617
0.475834101439 0.359212130308 -0.070648051798 -0.001359 -0.569351 0.822094
0.204518258572 0.547421216965 -0.106338627636 0.957295 0.065009 0.281707
0.187198564410 0.438294172287 -0.074045516551 -0.012513 0.164939 0.986224
0.175895690918 0.566616535187 -0.102348715067 -0.013095 0.232137 0.972595
-0.009946709499 0.352389484644 -0.080538325012 -0.009309 -0.466767 0.884331
0.154997006059 0.619886875153 -0.133137449622 0.930969 -0.144817 0.335149
-0.011894588359 0.734614372253 -0.154544532299 -0.001380 0.727510 0.686096
-0.047204539180 0.729745864868 -0.150967448950 -0.015933 0.280670 0.959672
0.054752834141 0.648171067238 -0.128668114543 -0.010192 0.164207 0.986373
0.015984259546 0.618638277054 -0.124750807881 -0.009075 -0.405761 0.913934
0.019208880141 0.612418830395 -0.129655212164 -0.003818 0.927854 0.372924
-0.122008830309 0.597753822803 -0.119767062366 -0.008900 0.362371 0.931992
0.042084284127 0.571200489998 -0.107885979116 -0.008900 0.362371 0.931992
-0.044192224741 0.554241836071 -0.105279706419 -0.010177 0.159438 0.987156
0.047203943133 0.513301432133 -0.097744435072 -0.010177 0.159438 0.987156
-0.053796283901 0.481098681688 -0.089540414512 -0.008708 0.314723 0.949144
0.088882200420 0.491854876280 -0.091739982367 -0.008708 0.314723 0.949144
-0.096354253590 0.397644609213 -0.073673307896 -0.009949 0.129333 0.991551
0.077522739768 0.419219136238 -0.074817731977 -0.009949 0.129333 0.991551
0.128657132387 0.424636363983 -0.075032927096 -0.009949 0.129333 0.991551
0.012354749255 0.497610569000 -0.094886615872 -0.006946 0.704306 0.709863
0.028216369450 0.502494513988 -0.103669345379 -0.004083 -0.828889 0.559398
0.072169139981 0.684431135654 -0.136473745108 -0.008590 0.293299 0.955982
-0.103533178568 0.737475872040 -0.117178447545 -0.001184 -0.970072 0.242814
0.146018922329 0.732978463173 -0.132803007960 -0.001184 -0.970072 0.242814
0.154052257538 0.769025325775 -0.052572257817 0.941434 -0.302944 0.148076
-0.100610345602 0.779850423336 0.005615225993 -0.001177 -0.973308 0.229498
0.111638382077 0.832654118538 0.171833500266 -0.001179 -0.972654 0.232258
0.020584654063 0.829722821712 0.158666744828 -0.001179 -0.972654 0.232258
-0.128411352634 0.859153389931 0.234416872263 -0.003871 -0.914813 0.403860
0.042230829597 0.869765102863 0.260151088238 -0.003871 -0.914813 0.403860
0.203331977129 0.773821949959 -0.016927823424 0.961735 -0.255521 0.098870
0.191882953048 0.726034998894 -0.135752290487 -0.006086 -0.960349 0.278733
0.195234075189 0.754455208778 -0.048662099987 -0.006254 -0.944326 0.328951
0.147290796041 0.824747800827 0.134772151709 -0.938971 -0.328171 0.103139
0.153839111328 0.738103866577 -0.099920094013 -0.549044 -0.791316 0.269016
0.337387830019 0.899226486683 0.286410331726 -0.009063 -0.402635 0.915316
0.230018556118 0.877529561520 0.273090124130 -0.006920 -0.765359 0.643566
0.452582955360 0.876055181026 0.273464947939 0.452854 -0.680116 0.576511
0.214098483324 0.867856204510 0.259876370430 -0.003870 -0.917125 0.398582
0.313915282488 0.841689169407 0.200743839145 -0.003870 -0.917125 0.398582
0.264260381460 0.788190424442 0.027057301253 -0.003813 -0.929082 0.369854
0.398011922836 0.794733941555 0.044904068112 -0.003813 -0.929082 0.369854
0.318610727787 0.782642066479 0.010851768777 -0.003574 -0.968503 0.248976
0.254471600056 0.758555531502 -0.059215247631 -0.003915 -0.904368 0.426736
0.347426950932 0.742027163506 -0.109043084085 -0.003629 -0.961563 0.274560
0.248515069485 0.740223705769 -0.116423539817 -0.003629 -0.961563 0.274560
0.231973528862 0.780399620533 -0.027715975419 -0.010329 -0.180189 0.983578
0.312571465969 0.779124736786 -0.025438785553 0.006925 -0.649520 -0.760313
0.373755693436 0.833043456078 0.179264545441 -0.003506 -0.975822 0.218537
0.492312341928 0.857682466507 0.246297955513 -0.056215 -0.937349 0.343826
0.513982176781 0.857070386410 0.242618754506 0.098904 -0.928069 0.359034
-0.385133385658 0.729806780815 -0.171977162361 0.009448 -0.519624 -0.854343
-0.523351728916 0.760829925537 -0.039353154600 -0.102203 -0.943716 0.314572
-0.537481486797 0.829788088799 0.155306547880 -0.113077 -0.927780 0.355581
-0.514932334423 0.787539184093 0.042974829674 -0.110999 -0.942821 0.314274
-0.285713851452 0.797388374805 0.044863879681 -0.003813 -0.929082 0.369854
-0.327462524176 0.809548258781 0.075048677623 -0.003813 -0.929082 0.369854
-0.282734662294 0.821084260941 0.104699037969 0.003670 -0.955534 -0.294858
-0.248998999596 0.826532959938 0.144112408161 -0.001169 -0.975828 0.218539
-0.395176768303 0.823658049107 0.130055740476 -0.001169 -0.975828 0.218539
-0.409440815449 0.836264252663 0.181378394365 -0.003870 -0.917125 0.398582
-0.394249886274 0.866497755051 0.251028954983 -0.003870 -0.917125 0.398582
-0.201185941696 0.779362559319 -0.012223766185 0.375233 -0.896144 0.236912
-0.407677412033 0.740309476852 -0.122307218611 -0.001210 -0.961569 0.274561
-0.247353404760 0.735795378685 -0.136757045984 -0.001210 -0.961569 0.274561
-0.158670589328 0.822234988213 0.148574888706 0.001236 -0.948187 0.317711
-0.198866277933 0.735407769680 -0.120067015290 -0.752726 -0.633634 0.178639
-0.166997909546 0.905850768089 0.280025392771 -0.008526 0.276480 0.960982
-0.123747333884 0.907952547073 0.279846936464 -0.008526 0.276480 0.960982
0.539674699306 0.737208545208 -0.109367601573 0.585614 -0.810533 0.009600
0.513262569904 0.743344247341 -0.077676407993 0.093998 -0.943952 0.316416
0.503749608994 0.752202093601 -0.172662496567 0.494440 -0.314356 -0.810376
0.360147356987 0.796995639801 -0.180714920163 0.006810 0.554373 -0.832241
-0.100640527904 0.792629599571 -0.188063830137 0.006810 0.554373 -0.832241
-0.552456736565 0.800219297409 -0.051744922996 -0.999960 0.000985 -0.008867
-0.554145932198 0.883971154690 0.123178802431 -0.999960 -0.000985 -0.008867
-0.549950182438 0.814674556255 0.083744041622 -0.746445 -0.631608 0.209501
0.553672075272 0.843342125416 0.114702865481 0.999960 0.000985 0.008867
0.544482350349 0.941134691238 0.216530770063 0.627393 0.740607 -0.240579
0.540237545967 0.911383688450 0.113458506763 0.642121 0.730040 -0.233927
0.373091280460 0.922425806522 0.279774069786 -0.008830 0.341831 0.939720
0.211743861437 0.950957298279 0.267845749855 -0.008830 0.341831 0.939720
0.435681372881 0.956064045429 0.268151760101 -0.008830 0.341831 0.939720
-0.135394737124 0.942399621010 0.267604619265 -0.008830 0.341831 0.939720
-0.305329740047 0.948227465153 0.263845592737 -0.008830 0.341831 0.939720
0.158498197794 0.916334152222 0.279916316271 -0.008830 0.341831 0.939720
-0.369610369205 0.922643840313 0.272523969412 -0.008830 0.341831 0.939720
-0.104528814554 0.961834311485 0.254992216825 -0.003610 0.963976 0.265966
0.397331982851 0.964343190193 0.250781029463 -0.003610 0.963976 0.265966
0.555860459805 0.771316170692 -0.111944399774 0.999960 -0.000985 0.008867
-0.014516619034 0.746908485889 -0.177375763655 0.008909 -0.360158 -0.932849
-0.253391057253 0.751859962940 -0.181593030691 0.008909 -0.360158 -0.932849
0.190444841981 0.761715769768 -0.181111335754 0.008909 -0.360158 -0.932849
-0.052241615951 0.766420185566 -0.185270026326 0.008909 -0.360158 -0.932849
-0.043647915125 0.772342622280 -0.187472641468 0.008909 -0.360158 -0.932849
-0.435052096844 0.807224452496 -0.173678636551 0.003953 0.892036 -0.451947
-0.117861531675 0.818041980267 0.096922598779 -0.006930 -0.752644 0.658391
-0.002696294338 0.802815437317 0.068410381675 -0.003833 -0.926251 0.376888
-0.003368787700 0.795144319534 0.049606438726 -0.003833 -0.926251 0.376888
-0.057017870247 0.767192840576 -0.035304635763 -0.003895 -0.910182 0.414191
0.085462242365 0.773611605167 -0.029909817502 -0.009757 -0.107332 0.994175
-0.455979675055 0.718530595303 -0.157140880823 -0.896558 0.119635 0.426463
-0.364884018898 0.610107243061 -0.135344967246 -0.003562 0.969926 0.243372
-0.238253176212 0.403335422277 -0.075033381581 -0.009965 0.133970 0.990935
-0.452000677586 0.391783297062 -0.075465194881 -0.009965 0.133970 0.990935
-0.249147027731 0.474837660789 -0.089007891715 -0.008789 0.332742 0.942977
-0.223710224032 0.576429128647 -0.114998176694 -0.008822 0.344056 0.938908
-0.252735882998 0.698730826378 -0.147421494126 -0.008454 0.262086 0.965007
-0.326332002878 0.688417971134 -0.145302549005 -0.008454 0.262086 0.965007
-0.387953907251 0.644746303558 -0.135802820325 -0.010154 0.159082 0.987213
-0.494261145592 0.596101462841 -0.114018000662 0.096263 0.257984 0.961342
-0.486718684435 0.645746350288 -0.128135576844 0.093718 0.258047 0.961576
-0.520179390907 0.500295937061 -0.092677742243 -0.103193 0.233139 0.966953
-0.540129303932 0.609429419041 -0.123219601810 -0.686504 0.189753 0.701931
-0.524028837681 0.686885654926 -0.140890493989 -0.104657 0.259704 0.960000
-0.088228374720 0.753122329712 -0.173027843237 -0.001032 0.998267 0.058843
0.413230955601 0.739094972610 -0.225486516953 0.008562 0.287450 -0.957757
-0.058251667768 0.725657880306 -0.234065905213 0.008562 0.287450 -0.957757
-0.090792022645 0.748886883259 -0.198857501149 0.001143 0.982047 -0.188635
-0.326187998056 0.750952005386 -0.190330669284 0.001143 0.982047 -0.188635
-0.351278662682 0.744184017181 -0.225967705250 0.001143 0.982047 -0.188635
-0.522856056690 0.730704367161 -0.216918185353 -0.471043 0.863826 -0.178672
-0.548047065735 0.601850748062 -0.196628704667 -0.997349 -0.015898 -0.071012
-0.549294054508 0.442359298468 -0.157732933760 -0.998316 -0.009369 -0.057255
-0.547226369381 0.408742040396 -0.187691345811 -0.997961 -0.005214 -0.063611
-0.253070652485 0.361359208822 -0.196960911155 0.006821 -0.560654 -0.828022
0.486288875341 0.357138931751 -0.186960056424 0.006821 -0.560654 -0.828022
0.555768966675 0.467929363251 -0.102483749390 0.999960 0.000985 0.008867
-0.551540255547 0.617893517017 -0.146647691727 -0.999960 0.000985 -0.008867
-0.503875672817 0.348727136850 -0.118139073253 -0.151600 -0.984802 -0.084753
-0.396373480558 0.351698935032 -0.164663314819 0.001052 -0.996710 -0.081042
-0.340214908123 0.351996034384 -0.167768970132 0.001052 -0.996710 -0.081042
-0.258257389069 0.350906103849 -0.153595134616 0.001052 -0.996710 -0.081042
-0.452933192253 0.350869953632 -0.155030369759 0.001052 -0.996710 -0.081042
0.115721404552 0.349802732468 -0.136435836554 0.001052 -0.996710 -0.081042
0.313605427742 0.348566234112 -0.119342781603 0.001052 -0.996710 -0.081042
-0.105993598700 0.346670806408 -0.100120142102 0.001052 -0.996710 -0.081042
-0.035718977451 0.348028719425 -0.116115123034 0.001052 -0.996710 -0.081042
0.489926844835 0.349869489670 -0.133642911911 0.001052 -0.996710 -0.081042
0.160163193941 0.753269195557 -0.173516348004 0.001143 0.982047 -0.188635
0.360057920218 0.750483572483 -0.186154276133 0.001143 0.982047 -0.188635
-0.144684284925 0.463522076607 -0.091495968401 0.918562 0.063025 0.390221
-0.146659433842 0.487339079380 -0.091798059642 0.916555 0.091519 0.389297
-0.166671514511 0.739041388035 -0.151719957590 -0.004071 0.546843 0.837225
-0.202660337090 0.504375457764 -0.107143849134 -0.963293 0.064220 0.260656
-0.183262869716 0.532590806484 -0.097674325109 -0.005912 0.230551 0.973042
-0.193030476570 0.443777024746 -0.078599728644 -0.005648 0.166045 0.986102
-0.200397521257 0.397215276957 -0.077721014619 -0.961386 0.046257 0.271288
0.350370675325 0.352740496397 -0.076392315328 -0.009512 -0.544916 0.838437
0.226299613714 0.457154631615 -0.078181110322 -0.008789 0.332742 0.942977
0.435885518789 0.365838289261 -0.067566297948 -0.009816 -0.112341 0.993621
0.434876590967 0.445951551199 -0.074234694242 -0.009965 0.133970 0.990935
0.209424242377 0.405092000961 -0.070958822966 -0.009965 0.133970 0.990935
0.319512337446 0.520999312401 -0.098731078207 -0.010291 0.174950 0.984524
0.290317088366 0.569836437702 -0.107715494931 -0.010291 0.174950 0.984524
0.261599063873 0.598186552525 -0.118272885680 -0.008822 0.344056 0.938908
0.376544684172 0.697809398174 -0.141064584255 -0.008454 0.262086 0.965007
0.250278949738 0.729621767998 -0.150986477733 -0.008454 0.262086 0.965007
0.314347058535 0.608987689018 -0.124685652554 -0.003975 0.881059 0.472990
0.206145569682 0.508667051792 -0.099050298333 -0.391939 -0.071384 0.917218
0.245084762573 0.503289401531 -0.101094543934 -0.006914 -0.756401 0.654072
0.497431814671 0.348312109709 -0.198533236980 -0.003780 -0.936167 0.351535
-0.439228743315 0.350864946842 -0.200767338276 -0.003780 -0.936167 0.351535
-0.522395193577 0.437405943871 -0.205705642700 0.005296 0.081554 0.996655
-0.201906651258 0.517117023468 -0.209412276745 -0.009552 0.081724 0.996609
-0.346965700388 0.520826041698 -0.211116284132 -0.009552 0.081724 0.996609
-0.367729425430 0.507956266403 -0.210263907909 -0.009552 0.081724 0.996609
0.190163075924 0.413285702467 -0.197132423520 -0.009552 0.081724 0.996609
0.358005732298 0.358813762665 -0.191055595875 -0.009552 0.081724 0.996609
-0.467967152596 0.473022878170 -0.208373859525 -0.009552 0.081724 0.996609
-0.360772907734 0.454222649336 -0.205800861120 -0.009552 0.081724 0.996609
-0.200810670853 0.367704123259 -0.197178393602 -0.009552 0.081724 0.996609
0.057917445898 0.407383531332 -0.197926446795 -0.009552 0.081724 0.996609
-0.477827399969 0.515254199505 -0.211923956871 -0.009552 0.081724 0.996609
0.141996756196 0.384280383587 -0.195224598050 -0.009552 0.081724 0.996609
0.229841247201 0.377964287996 -0.193859741092 -0.009552 0.081724 0.996609
-0.437997996807 0.484818667173 -0.209049507976 -0.009552 0.081724 0.996609
0.203663736582 0.465396821499 -0.201265260577 -0.009552 0.081724 0.996609
0.481095016003 0.512221574783 -0.202417343855 -0.009552 0.081724 0.996609
0.267860233784 0.448423504829 -0.199256852269 -0.009552 0.081724 0.996609
0.228351175785 0.495812624693 -0.203515186906 -0.009552 0.081724 0.996609
0.390624880791 0.586466312408 -0.209364756942 -0.009552 0.081724 0.996609
0.507350862026 0.479803740978 -0.199511751533 -0.009552 0.081724 0.996609
0.465030729771 0.403738856316 -0.193697527051 -0.009552 0.081724 0.996609
0.128239542246 0.590975701809 -0.212267026305 -0.009552 0.081724 0.996609
0.291413843632 0.412368953228 -0.196079835296 -0.009552 0.081724 0.996609
0.096730589867 0.519579768181 -0.206730380654 -0.009552 0.081724 0.996609
0.483817189932 0.560336351395 -0.206327304244 -0.009552 0.081724 0.996609
0.291665822268 0.551357150078 -0.207447946072 -0.009552 0.081724 0.996609
-0.032291084528 0.602885961533 -0.214791327715 -0.009552 0.081724 0.996609
0.108345702291 0.624384522438 -0.205944016576 -0.008998 -0.381769 0.924214
-0.190719246864 0.634179234505 -0.204779878259 -0.008998 -0.381769 0.924214
0.403195858002 0.654012382030 -0.190841466188 -0.008998 -0.381769 0.924214
0.453976839781 0.679711103439 -0.179720699787 -0.008998 -0.381769 0.924214
0.288749873638 0.661732196808 -0.188753083348 -0.008998 -0.381769 0.924214
0.385584414005 0.705773234367 -0.169600248337 -0.008998 -0.381769 0.924214
-0.375946164131 0.610102832317 -0.216527625918 -0.008998 -0.381769 0.924214
-0.245193272829 0.703646540642 -0.176570162177 -0.008998 -0.381769 0.924214
-0.373149275780 0.684599578381 -0.185684502125 -0.008998 -0.381769 0.924214
0.083187371492 0.715098142624 -0.168662592769 -0.008998 -0.381769 0.924214
-0.148860871792 0.651803672314 -0.197085231543 -0.008998 -0.381769 0.924214
-0.163349121809 0.652350544930 -0.196998894215 -0.008998 -0.381769 0.924214
-0.375231862068 0.654694914818 -0.198074877262 -0.008998 -0.381769 0.924214
-0.511541545391 0.618384957314 -0.214410841465 -0.008998 -0.381769 0.924214
-0.520555973053 0.755918800831 -0.177607744932 -0.009001 0.387064 0.922009
0.438416779041 0.733683705330 -0.159000366926 -0.009001 0.387064 0.922009
-0.206186056137 0.767113447189 -0.179279088974 -0.009001 0.387064 0.922009
0.209469974041 0.770997703075 -0.176899030805 -0.009001 0.387064 0.922009
0.208735883236 0.777597248554 -0.179680854082 -0.009001 0.387064 0.922009
0.445717126131 0.737859845161 -0.160685673356 -0.009001 0.387064 0.922009
0.559484243393 0.673660755157 -0.211659803987 0.999960 -0.000985 0.008867
0.559695720673 0.478962302208 -0.233589917421 0.999960 -0.000985 0.008867
0.302382349968 0.349730491638 -0.217409208417 0.003682 -0.953706 -0.300718
0.160273164511 0.349117100239 -0.216841146350 0.003682 -0.953706 -0.300718
-0.069933444262 0.346572518349 -0.211015447974 0.003682 -0.953706 -0.300718
-0.484878242016 0.356671363115 -0.246963858604 0.003682 -0.953706 -0.300718
-0.384358167648 0.348312377930 -0.219554319978 0.003682 -0.953706 -0.300718
-0.553153336048 0.517712473869 -0.255176931620 -0.999960 -0.000985 -0.008867
-0.553275704384 0.728731751442 -0.242510125041 -0.999960 0.000985 -0.008867
-0.553602755070 0.775453388691 -0.208638504148 -0.999960 -0.000985 -0.008867
-0.530399024487 0.722450554371 -0.170063406229 0.076871 -0.381657 0.921102
-0.525238811970 0.737918257713 -0.169707909226 0.041372 0.415057 0.908854
0.437156349421 0.783839941025 -0.214465141296 0.003703 0.951597 -0.307325
0.032281607389 0.781552493572 -0.225443512201 0.003703 0.951597 -0.307325
0.354690790176 0.787846505642 -0.202878758311 0.003703 0.951597 -0.307325
0.329174816608 0.782927632332 -0.218326970935 0.003703 0.951597 -0.307325
-0.526803612709 0.777356445789 -0.243809849024 0.003703 0.951597 -0.307325
-0.221386432648 0.771612823009 -0.258612066507 0.003703 0.951597 -0.307325
0.230876728892 0.773783981800 -0.247535213828 0.003703 0.951597 -0.307325
0.116625115275 0.761206507683 -0.275100767612 0.000978 0.999999 -0.000978
0.248778566718 0.761210262775 -0.262494862080 0.000978 0.999999 -0.000978
0.067787095904 0.761203467846 -0.284713298082 0.000978 0.999999 -0.000978
-0.457538813353 0.761197030544 -0.309057921171 0.000978 0.999999 -0.000978
-0.373008459806 0.761204779148 -0.285264015198 0.000978 0.999999 -0.000978
0.153783306479 0.761195063591 -0.309021741152 0.000978 0.999999 -0.000978
-0.391624897718 0.758790135384 -0.325024783611 0.006915 0.770352 -0.637581
0.208339884877 0.746010899544 -0.329969078302 0.009110 0.415158 -0.909704
-0.416650652885 0.737515807152 -0.339875131845 0.009110 0.415158 -0.909704
-0.259372979403 0.383422464132 -0.329015582800 0.009329 -0.473125 -0.880946
-0.165948987007 0.375857532024 -0.324043959379 0.009329 -0.473125 -0.880946
0.480029553175 0.380012989044 -0.319935798645 0.084040 -0.428466 -0.899641
0.511891961098 0.391085773706 -0.321089327335 0.195779 -0.350116 -0.916018
0.513946771622 0.667246043682 -0.333122998476 0.532730 -0.017712 -0.846100
0.531883656979 0.440699547529 -0.316580682993 0.869274 -0.009376 -0.494241
0.530746579170 0.381040930748 -0.298414498568 0.484515 -0.874782 0.001327
0.527297079563 0.379192292690 -0.261070251465 0.479317 -0.877641 0.001328
0.536740958691 0.678339242935 -0.259677141905 0.999960 0.000985 0.008867
0.536888659000 0.717819511890 -0.274721771479 0.999960 0.000985 0.008867
0.536972761154 0.512791752815 -0.283212363720 0.999960 0.000985 0.008867
-0.398497939110 0.367742210627 -0.259419560432 0.000978 -0.999999 -0.000978
-0.099563471973 0.367772072554 -0.275131285191 0.000978 -0.999999 -0.000978
0.472003519535 0.367760717869 -0.262640029192 0.000978 -0.999999 -0.000978
-0.210049539804 0.367769390345 -0.274530112743 0.000978 -0.999999 -0.000978
0.065692082047 0.367809325457 -0.296724557877 0.000978 -0.999999 -0.000978
-0.087837964296 0.367823928595 -0.307271540165 0.000978 -0.999999 -0.000978
-0.529402613640 0.396217435598 -0.312346816063 -0.999960 0.000985 -0.008867
-0.529717922211 0.677059948444 -0.279036998749 -0.999960 0.000985 -0.008867
-0.337591648102 0.371309250593 -0.319467991590 0.006842 -0.811489 -0.584327
-0.148806497455 0.887895822525 -0.005954761058 -0.003791 0.933859 -0.357621
-0.127866297960 0.856835603714 -0.086429044604 0.024342 0.936525 -0.349755
0.005308669060 0.891587018967 0.007295146585 0.003789 0.935854 -0.352366
-0.058548651636 0.931289672852 0.112030059099 0.003789 0.935854 -0.352366
0.108961872756 0.882486879826 -0.015851244330 0.003789 0.935854 -0.352366
