-0.746674954891 -0.128470838070 0.037623219192 0.999344 0.013270 -0.033686
-0.738598644733 -0.260364621878 0.226358994842 0.999344 0.013270 -0.033686
-0.746698498726 -0.141563490033 0.031705811620 0.999344 0.013270 -0.033686
-0.738206923008 -0.236864566803 0.247418746352 0.999344 0.013270 -0.033686
-0.737901628017 -0.314840257168 0.225486218929 0.999344 0.013270 -0.033686
-0.744330406189 -0.047584004700 0.130072951317 0.999414 0.007102 -0.033483
-0.748186111450 -0.093949012458 0.005943201482 0.999414 0.007102 -0.033483
-0.750738382339 -0.071602202952 -0.066037684679 0.999414 0.007102 -0.033483
-0.742354691029 -0.005252318457 0.197246462107 0.999414 0.007102 -0.033483
-0.740134656429 -0.049169011414 0.255154728889 0.999414 0.007102 -0.033483
-0.744933485985 0.136759161949 0.107955619693 0.999691 -0.009061 -0.023155
-0.742875218391 0.165534079075 0.185456365347 0.999691 -0.009061 -0.023155
-0.743822395802 0.115978844464 0.163559466600 0.999691 -0.009061 -0.023155
-0.686195254326 0.193728953600 -0.165457889438 0.706855 -0.026700 0.706855
-0.678953588009 0.209152922034 -0.172124102712 0.706855 -0.026700 0.706855
-0.698159039021 -0.073372006416 -0.163311585784 0.706855 -0.026700 0.706855
0.777303934097 -1.030119895935 0.223560363054 -0.088083 -0.092659 0.991794
0.776220321655 -1.122559309006 0.215238541365 -0.063877 -0.088532 0.994023
0.749162256718 -0.974319577217 0.223627671599 -0.663526 -0.052797 0.746288
0.756854236126 -0.710581421852 0.251393198967 -0.593369 -0.067201 0.802121
0.753226041794 -0.695955038071 0.249924600124 -0.595217 -0.067087 0.800760
0.772606492043 -0.545671403408 0.268288046122 -0.097655 -0.086166 0.991483
0.774648785591 -0.329899549484 0.287679195404 -0.107951 -0.089379 0.990130
0.783609509468 0.001606725156 0.315555095673 -0.114490 -0.055545 0.991870
0.750084638596 0.183991551399 0.306485861540 -0.600561 0.145273 0.786271
0.758038938046 -0.135757058859 0.299396723509 -0.596580 -0.067240 0.799732
0.740404307842 -0.510490536690 0.255130350590 -0.982383 -0.003439 0.186848
0.740186095238 -0.298369705677 0.259114116430 -0.982277 -0.008042 0.187264
0.740809619427 -0.191837579012 0.266490608454 -0.982277 -0.008042 0.187264
0.741566538811 0.106636479497 0.280618369579 -0.982292 -0.005744 0.187267
0.742947280407 0.037497796118 0.285658299923 -0.982292 -0.005744 0.187267
0.784598231316 0.298804312944 0.299505889416 -0.113159 0.185282 0.976148
0.770708262920 0.685487210751 0.293933808804 -0.105864 -0.016371 0.994246
0.753606438637 0.843417227268 0.291053146124 -0.600092 -0.020788 0.799661
0.752128660679 1.009085297585 0.294381201267 -0.600092 -0.020788 0.799661
0.775722563267 0.919515132904 0.298467338085 -0.094231 -0.018413 0.995380
0.767696738243 0.806752562523 0.295725464821 -0.094032 -0.016212 0.995437
0.791046917439 0.929929375648 0.300086587667 -0.089356 -0.018302 0.995832
0.749667584896 1.018647193909 0.292790740728 -0.600092 -0.020788 0.799661
0.736352145672 0.879450798035 0.266131311655 -0.981953 -0.015036 0.188526
0.740339994431 1.074972033501 0.031239613891 -0.999134 -0.011295 -0.040048
0.737545311451 0.927412569523 0.141353100538 -0.999134 -0.011295 -0.040048
0.732600748539 1.061737418175 0.224351704121 -0.999134 -0.011295 -0.040048
0.739242434502 1.036973476410 0.068841144443 -0.999134 -0.011295 -0.040048
0.736078560352 0.931535065174 0.176075011492 -0.999134 -0.011295 -0.040048
0.740243256092 0.859826564789 0.088189877570 -0.999162 -0.009204 -0.039885
0.745911419392 0.937715291977 -0.073902681470 -0.999162 -0.009204 -0.039885
0.735192537308 0.865264117718 0.215567946434 -0.999162 -0.009204 -0.039885
0.744763016701 1.051695108414 -0.070633366704 -0.999162 -0.009204 -0.039885
0.735311150551 0.820438385010 0.226173758507 -0.999109 -0.013349 -0.040046
0.742603123188 0.745905458927 0.064187258482 -0.999109 -0.013349 -0.040046
0.735958039761 0.713691353798 0.243790701032 -0.999109 -0.013349 -0.040046
0.736811578274 0.775075852871 0.202433034778 -0.999109 -0.013349 -0.040046
0.743890583515 0.827930927277 0.005179882050 -0.999109 -0.013349 -0.040046
0.749209105968 0.640450656414 -0.094477489591 -0.999339 -0.007131 -0.035654
0.748724818230 0.625181853771 -0.077607020736 -0.999339 -0.007131 -0.035654
0.748281717300 0.604281008244 -0.060640186071 -0.999339 -0.007131 -0.035654
0.744421243668 0.653811335564 0.036096900702 -0.999339 -0.007131 -0.035654
0.740178048611 0.622375428677 0.161359697580 -0.999339 -0.007131 -0.035654
0.726367473602 0.755442917347 -0.125792384148 -0.567506 -0.004083 0.823359
0.685586333275 0.745931625366 -0.154783964157 -0.601424 -0.020835 0.798658
0.722696423531 0.629551529884 -0.130018636584 -0.601424 -0.020835 0.798658
0.661137938499 0.850961506367 -0.378152906895 -0.999976 -0.006883 0.000983
0.662083089352 0.723360657692 -0.244174301624 -0.999976 -0.006883 0.000983
0.661570429802 0.792575359344 -0.326415717602 -0.999976 -0.006883 0.000983
0.700923025608 0.885153293610 -0.344319045544 -0.600218 0.799835 0.001367
0.703660607338 0.913428008556 -0.252211004496 -0.905365 0.372286 -0.204250
0.710227131844 0.941514432430 -0.230162054300 -0.905365 0.372286 -0.204250
0.717724740505 0.883591532707 -0.144478514791 -0.529571 0.364384 0.766015
0.746210217476 1.049173593521 -0.164532870054 -0.999956 -0.008884 0.002961
0.662916302681 0.610876142979 -0.316535115242 -0.999976 -0.006883 0.000983
0.662326633930 0.690486788750 -0.422551989555 -0.999976 -0.006883 0.000983
0.662793397903 0.627470016479 -0.318706989288 -0.999976 -0.006883 0.000983
0.664312839508 0.417248994112 -0.219499766827 -0.999976 -0.006883 0.000983
0.664240777493 0.427267372608 -0.231347203255 -0.999976 -0.006883 0.000983
0.664065122604 0.451681047678 -0.227847978473 -0.999976 -0.006883 0.000983
0.677507698536 0.339080691338 -0.171154245734 -0.633858 -0.020896 0.773167
0.740400671959 0.310917079449 -0.119903117418 -0.633537 0.001374 0.773712
0.726780712605 0.176203176379 -0.131068661809 -0.633537 0.001374 0.773712
0.674242615700 -0.080063953996 -0.187442421913 -0.706855 -0.026700 0.706855
0.700738370419 0.147978931665 -0.152612626553 -0.706855 -0.026700 0.706855
0.683894395828 0.190773710608 -0.167864203453 -0.706855 -0.026700 0.706855
0.697003006935 -0.143389374018 -0.164917945862 -0.705713 0.004159 0.708486
0.707977354527 -0.293639183044 -0.156004011631 -0.748971 -0.023799 0.662175
0.686536073685 -0.241256833076 -0.178314343095 -0.748971 -0.023799 0.662175
0.712414622307 -0.387832134962 -0.152624770999 -0.748688 0.006919 0.662886
0.702706515789 -0.412620007992 -0.163398504257 -0.748688 0.006919 0.662886
0.743379950523 -0.604348838329 -0.005169011652 -0.998906 0.007186 -0.046198
0.740532696247 -0.550062894821 0.066911436617 -0.998906 0.007186 -0.046198
0.748783469200 -0.390105813742 -0.087985210121 -0.998906 0.007186 -0.046198
0.739616811275 -0.572521924973 0.083306841552 -0.998906 0.007186 -0.046198
0.740589439869 -0.908987283707 -0.041347473860 -0.998888 0.015527 -0.044510
0.742479741573 -0.957962393761 -0.099606908858 -0.998888 0.015527 -0.044510
0.740360796452 -0.844014763832 -0.014357544482 -0.998888 0.015527 -0.044510
0.741052925587 -0.975219130516 -0.073945492506 -0.998888 0.015527 -0.044510
0.739126443863 -0.676379680634 0.069500304759 -0.998888 0.015527 -0.044510
0.739612996578 -0.701982259750 0.050116412342 -0.998888 0.015527 -0.044510
0.736394941807 -0.761701583862 0.100966356695 -0.998888 0.015527 -0.044510
0.737706184387 -0.662832379341 0.105420194566 -0.998888 0.015527 -0.044510
0.731476366520 -0.815750598907 0.173822432756 -0.998208 0.022042 -0.055631
0.731730937958 -0.786886334419 0.180659398437 -0.998208 0.022042 -0.055631
0.729243636131 -0.928282737732 0.169558793306 -0.998208 0.022042 -0.055631
0.734708309174 -0.875315070152 0.091875858605 -0.998208 0.022042 -0.055631
0.730989575386 -1.004829406738 0.105688184500 -0.997954 0.026457 -0.058205
0.730256736279 -0.963694989681 0.136791557074 -0.997954 0.026457 -0.058205
0.729239583015 -0.987170577049 0.143606483936 -0.997954 0.026457 -0.058205
0.730859994888 -1.020619273186 0.195654273033 -0.982697 -0.008045 0.185046
0.736544132233 -0.606848597527 0.232866749167 -0.982463 -0.003431 0.186428
0.736250042915 -0.465190112591 0.207638084888 -0.999122 0.017492 -0.038072
0.742663443089 -0.352868139744 0.086100831628 -0.999122 0.017492 -0.038072
0.743375837803 -0.433787822723 0.031481713057 -0.999122 0.017492 -0.038072
0.737317621708 -0.369734525681 0.221201807261 -0.999122 0.017492 -0.038072
0.749061167240 -0.352684915066 -0.084392443299 -0.999122 0.017492 -0.038072
0.750337004662 -0.158207908273 -0.077090673149 -0.999261 0.007145 -0.037766
0.748262286186 -0.183370292187 -0.026944905519 -0.999261 0.007145 -0.037766
0.747350394726 -0.187819525599 -0.003545075655 -0.999261 0.007145 -0.037766
0.747490406036 -0.259841322899 -0.022085905075 -0.999261 0.007145 -0.037766
0.740768611431 -0.161988452077 0.200713574886 -0.999344 0.013270 -0.033686
0.739550232887 -0.123810075223 0.252312421799 -0.999344 0.013270 -0.033686
0.745992362499 -0.193069621921 0.032287150621 -0.999344 0.013270 -0.033686
0.741966605186 -0.197469666600 0.150795266032 -0.999344 0.013270 -0.033686
0.739938437939 -0.013941913843 0.267783910036 -0.999414 0.007102 -0.033483
0.740706205368 0.085485152900 0.263938784599 -0.999414 0.007102 -0.033483
0.745225489140 0.048704616725 0.121816769242 -0.999414 0.007102 -0.033483
0.742389500141 -0.076455384493 0.182529747486 -0.999414 0.007102 -0.033483
0.744619727135 0.038242101669 0.137909919024 -0.999414 0.007102 -0.033483
0.742550909519 0.198624074459 0.186840057373 -0.999691 -0.009061 -0.023155
0.741675496101 0.228835701942 0.212985128164 -0.999691 -0.009061 -0.023155
0.749217808247 -0.009907845408 -0.020460493863 -0.999691 -0.009061 -0.023155
0.746043682098 0.140341654420 0.068756036460 -0.999445 0.001009 -0.033281
0.748152017593 0.058677956462 0.006069190800 -0.999445 0.001009 -0.033281
0.750734150410 0.025364503264 -0.070472627878 -0.999445 0.001009 -0.033281
0.747064948082 0.167542114854 0.038624711335 -0.999445 0.001009 -0.033281
0.749530255795 0.154457777739 -0.034386008978 -0.999445 0.001009 -0.033281
0.742607176304 0.252042561769 0.170857608318 -0.999445 0.001009 -0.033281
0.746832609177 0.126822337508 0.045358963311 -0.999445 0.001009 -0.033281
0.749485075474 0.163083970547 -0.033018812537 -0.999445 0.001009 -0.033281
0.747557878494 0.472997218370 -0.007494870573 -0.999412 -0.007117 -0.033551
0.748261749744 0.538207650185 -0.042494837195 -0.999412 -0.007117 -0.033551
0.746735990047 0.428584039211 0.026475153863 -0.999412 -0.007117 -0.033551
0.742974162102 0.328461140394 0.159544497728 -0.999412 -0.007117 -0.033551
0.742855608463 0.578396737576 0.097353503108 -0.999319 -0.009187 -0.035726
0.741870403290 0.506392836571 0.145088061690 -0.999319 -0.009187 -0.035726
0.749192297459 0.593081593513 -0.083491846919 -0.999319 -0.009187 -0.035726
0.737731993198 0.554750561714 0.246889024973 -0.999319 -0.009187 -0.035726
0.744576692581 0.526739120483 0.063892394304 -0.999319 -0.009187 -0.035726
0.737165987492 0.520513653755 -0.120489314198 -0.602847 -0.004120 0.797846
0.708264052868 -0.828754901886 -0.156031712890 -0.780402 0.012475 0.625153
0.734291076660 -0.904519259930 -0.122126132250 -0.780402 0.012475 0.625153
0.692403793335 -0.778801202774 -0.176765263081 -0.780402 0.012475 0.625153
0.695921599865 -0.541288971901 -0.172759637237 -0.780372 -0.015247 0.625129
0.685643851757 -0.621007323265 -0.187584906816 -0.780372 -0.015247 0.625129
0.662897109985 -0.368194282055 -0.339968502522 -0.999976 0.006883 0.000983
0.662642776966 -0.406098842621 -0.230990201235 -0.999976 0.006883 0.000983
0.662672638893 -0.401645004749 -0.299383044243 -0.999976 0.006883 0.000983
0.664521038532 -0.154391199350 -0.379789322615 -0.999976 0.006883 0.000983
0.664556026459 -0.149847343564 -0.401454955339 -0.999976 0.006883 0.000983
0.663667976856 -0.265294909477 -0.355529963970 -0.999976 0.006883 0.000983
0.664417564869 -0.167849183083 -0.262921899557 -0.999976 0.006883 0.000983
0.664688467979 -0.132626250386 -0.203960180283 -0.999976 0.006883 0.000983
0.664919734001 -0.102563008666 -0.318292319775 -0.999976 0.006883 0.000983
0.664971947670 0.191404789686 -0.409598439932 -0.999999 0.000978 0.000978
0.664971947670 0.280394613743 -0.412847727537 -0.999999 0.000978 0.000978
0.664971947670 -0.003726609051 -0.277878046036 -0.999999 0.000978 0.000978
0.664971947670 -0.065712727606 -0.228773698211 -0.999999 0.000978 0.000978
0.664971947670 0.197718799114 -0.426742702723 -0.999999 0.000978 0.000978
0.664971947670 0.211852833629 -0.252385437489 -0.999999 0.000978 0.000978
0.664971947670 0.161232620478 -0.220520064235 -0.999999 0.000978 0.000978
0.664971947670 0.072873547673 -0.272805333138 -0.999999 0.000978 0.000978
0.664971947670 0.033969137818 -0.225492253900 -0.999999 0.000978 0.000978
0.664971947670 0.133370250463 -0.278968691826 -0.999999 0.000978 0.000978
0.664958477020 0.327506601810 -0.335052341223 -0.999976 -0.006883 0.000983
0.663481235504 0.532842636108 -0.373922407627 -0.999976 -0.006883 0.000983
0.663420140743 0.541337311268 -0.397954642773 -0.999976 -0.006883 0.000983
0.663475930691 0.533579587936 -0.398354232311 -0.999976 -0.006883 0.000983
0.661322951317 -0.602748990059 -0.392312020063 -0.999976 0.006883 0.000983
0.661237776279 -0.615441143513 -0.420253872871 -0.999976 0.006883 0.000983
0.662773787975 -0.386574983597 -0.400455564260 -0.999976 0.006883 0.000983
0.659735381603 -0.722465872765 -0.376344442368 -0.999889 0.014865 0.000991
0.658164799213 -0.822587192059 -0.235595241189 -0.999889 0.014865 0.000991
0.658671498299 -0.790287196636 -0.326376020908 -0.999889 0.014865 0.000991
0.660157382488 -0.695564389229 -0.297248572111 -0.999889 0.014865 0.000991
0.660815834999 -0.653586149216 -0.414673924446 -0.999889 0.014865 0.000991
0.659403681755 -0.903545439243 -0.223395049572 -0.818133 -0.004097 0.575015
0.693896591663 -0.869360804558 -0.174028575420 -0.818133 -0.004097 0.575015
0.661419272423 -0.872927308083 -0.220250874758 -0.818133 -0.004097 0.575015
0.654590964317 -1.016576170921 -0.413358002901 -0.999852 0.016947 0.002991
0.656685888767 -0.910996317863 -0.343431174755 -0.999852 0.016947 0.002991
0.657246768475 -0.871167182922 -0.375474154949 -0.999852 0.016947 0.002991
0.657730937004 -0.846436381340 -0.360770046711 -0.999852 0.016947 0.002991
0.654627323151 -1.042279720306 -0.291227489710 -0.999852 0.016947 0.002991
-0.645784795284 2.188060522079 0.322075605392 0.161010 -0.579334 0.799029
-0.739064335823 2.048052072525 0.290769636631 0.583439 -0.177305 0.792567
-0.741861283779 1.901282310486 0.287490189075 0.588380 -0.026428 0.808153
-0.763777554035 1.737617015839 0.297664910555 0.588334 -0.029208 0.808090
-0.755353868008 1.663642287254 0.289912313223 0.562491 -0.020629 0.826546
-0.770293712616 1.445329546928 0.292874515057 0.561162 -0.029097 0.827194
-0.775087833405 1.323157072067 0.292627245188 0.562521 -0.006810 0.826755
-0.752301573753 1.254912018776 0.275681197643 0.633516 -0.023774 0.773365
-0.742294311523 1.348123908043 0.253431022167 0.999999 0.000978 0.000978
-0.742294311523 1.341718435287 0.233669742942 0.999999 0.000978 0.000978
-0.742294311523 1.279667258263 0.230376973748 0.999999 0.000978 0.000978
-0.742294311523 1.244642496109 0.223231956363 0.999999 0.000978 0.000978
-0.742294311523 1.187267065048 0.165934488177 0.999999 0.000978 0.000978
-0.742294311523 1.176240801811 0.226175531745 0.999999 0.000978 0.000978
-0.742294311523 1.216781497002 -0.173402875662 0.999999 0.000978 0.000978
-0.742294311523 1.127390742302 0.180273547769 0.999999 0.000978 0.000978
-0.742294311523 1.034987688065 -0.128666877747 0.999999 0.000978 0.000978
-0.742294311523 1.038493752480 -0.025677874684 0.999999 0.000978 0.000978
-0.742294311523 1.294493794441 -0.157419934869 0.999999 0.000978 0.000978
-0.742294311523 1.068388700485 -0.180401444435 0.999999 0.000978 0.000978
-0.742294311523 1.055121421814 0.012225076556 0.999999 0.000978 0.000978
-0.742294311523 1.201244831085 -0.166114211082 0.999999 0.000978 0.000978
-0.742294311523 1.146435737610 -0.142210319638 0.999999 0.000978 0.000978
-0.741321623325 1.480475902557 0.168772205710 0.999976 -0.006883 0.000983
-0.741347849369 1.477012991905 0.109745934606 0.999976 -0.006883 0.000983
-0.741592526436 1.444719195366 0.211961463094 0.999976 -0.006883 0.000983
-0.742026865482 1.387385845184 -0.108078032732 0.999976 -0.006883 0.000983
-0.741896271706 1.404622673988 0.249947547913 0.999976 -0.006883 0.000983
-0.741836249828 1.412547826767 0.102239802480 0.999976 -0.006883 0.000983
-0.741198241711 1.523701786995 -0.096703305840 0.999987 -0.004916 -0.000983
-0.741406619549 1.491708874702 -0.120439685881 0.999987 -0.004916 -0.000983
-0.741582572460 1.462025642395 -0.123990789056 0.999987 -0.004916 -0.000983
-0.741438448429 1.491663217545 -0.154150128365 0.999987 -0.004916 -0.000983
-0.740992426872 1.549014449120 -0.034135401249 0.999987 -0.004916 -0.000983
-0.740522146225 1.594288825989 0.186882913113 0.999987 -0.004916 -0.000983
-0.740652859211 1.699213027954 -0.261308491230 0.999995 -0.002944 -0.000981
-0.740678250790 1.653151512146 -0.142159938812 0.999995 -0.002944 -0.000981
-0.740667760372 1.685712814331 -0.232941746712 0.999995 -0.002944 -0.000981
-0.740706145763 1.686015963554 -0.267735064030 0.999995 -0.002944 -0.000981
-0.740878045559 1.591360092163 -0.128239572048 0.999995 -0.002944 -0.000981
-0.740688025951 1.605406284332 -0.003992080688 0.999995 -0.002944 -0.000981
-0.740391671658 1.616571187973 0.222798898816 0.999995 -0.002944 -0.000981
-0.740597009659 1.629826784134 -0.338837444782 0.999995 0.000979 0.002938
-0.740399479866 1.785084009171 -0.399188160896 0.999995 0.000979 0.002938
-0.740361213684 1.758509159088 -0.127705335617 0.999999 0.000978 0.000978
-0.740361213684 1.683943152428 0.097789555788 0.999999 0.000978 0.000978
-0.740361213684 1.694067239761 0.277503967285 0.999999 0.000978 0.000978
-0.740361213684 1.747273206711 0.137587025762 0.999999 0.000978 0.000978
-0.740361213684 1.735277891159 0.208330333233 0.999999 0.000978 0.000978
-0.740361213684 1.781813025475 -0.241193771362 0.999999 0.000978 0.000978
-0.740361213684 1.786894440651 -0.263365596533 0.999999 0.000978 0.000978
-0.740361213684 1.827607870102 -0.008771570399 0.999999 0.000978 0.000978
-0.739729642868 1.901591539383 -0.403505086899 0.999960 -0.008867 0.000985
-0.739830732346 1.890368938446 0.005260020494 0.999960 -0.008867 0.000985
-0.739006578922 1.981853842735 -0.225402891636 0.999960 -0.008867 0.000985
-0.740353703499 1.832317829132 -0.054189354181 0.999960 -0.008867 0.000985
-0.740327775478 1.835194706917 -0.055133223534 0.999960 -0.008867 0.000985
-0.739707887173 1.904006481171 -0.000132054090 0.999960 -0.008867 0.000985
-0.739332675934 1.945656657219 -0.187730520964 0.999960 -0.008867 0.000985
-0.738755464554 2.009729862213 0.281107157469 0.999960 -0.008867 0.000985
-0.738747835159 2.010569095612 -0.118387050927 0.999960 -0.008867 0.000985
-0.738812148571 2.003435134888 0.240017175674 0.999960 -0.008867 0.000985
-0.739767611027 1.897379279137 0.072996608913 0.999960 -0.008867 0.000985
-0.738817691803 2.002815723419 0.163255438209 0.999960 -0.008867 0.000985
-0.739049017429 1.977135777473 0.234389230609 0.999960 -0.008867 0.000985
-0.738466620445 2.041786670685 -0.326015919447 0.999960 -0.008867 0.000985
-0.738811314106 2.003526926041 0.187371879816 0.999960 -0.008867 0.000985
-0.735530078411 2.061993598938 -0.167919605970 0.983996 -0.178186 0.001135
-0.735511183739 2.062097549438 0.009578108788 0.983996 -0.178186 0.001135
-0.734897017479 2.065475463867 0.109948404133 0.983996 -0.178186 0.001135
-0.726838767529 2.093922138214 -0.176443621516 0.811146 -0.584843 0.001363
-0.726629316807 2.094212055206 0.122268319130 0.811146 -0.584843 0.001363
-0.726808786392 2.093963623047 0.289670377970 0.811146 -0.584843 0.001363
-0.722723782063 2.099619865417 0.161072641611 0.811146 -0.584843 0.001363
-0.698083162308 2.127778291702 -0.158435702324 0.506611 -0.862174 0.001337
-0.676503479481 2.140472173691 -0.004488289356 0.506611 -0.862174 0.001337
-0.669069051743 2.143663644791 0.038775596768 0.254023 -0.967197 0.001193
-0.636934340000 2.152120113373 -0.077362954617 0.254023 -0.967197 0.001193
-0.611361265182 2.158849954605 0.150764942169 0.254023 -0.967197 0.001193
-0.606318891048 2.160176992416 -0.117022186518 0.254023 -0.967197 0.001193
-0.612932980061 2.158436298370 -0.267892837524 0.254023 -0.967197 0.001193
-0.591775119305 2.162995576859 0.137627050281 0.127937 -0.991782 0.001093
-0.502464830875 2.174445867538 -0.048202574253 0.127937 -0.991782 0.001093
-0.441849231720 2.182217121124 -0.266992360353 0.127937 -0.991782 0.001093
-0.436215549707 2.182939291000 -0.331027567387 0.127937 -0.991782 0.001093
-0.595092177391 2.162570476532 -0.234211474657 0.127937 -0.991782 0.001093
-0.526652753353 2.171344757080 -0.056063458323 0.127937 -0.991782 0.001093
-0.474988609552 2.177968263626 -0.346657335758 0.127937 -0.991782 0.001093
-0.470842987299 2.178499937057 -0.245729178190 0.127937 -0.991782 0.001093
-0.501497089863 2.174569845200 -0.321172267199 0.127937 -0.991782 0.001093
-0.404209554195 2.187042713165 -0.058393627405 0.127937 -0.991782 0.001093
-0.488817662001 2.176195383072 -0.023765325546 0.127937 -0.991782 0.001093
-0.399233520031 2.187680721283 -0.030794352293 0.127937 -0.991782 0.001093
-0.555608630180 2.167632341385 0.167423725128 0.127937 -0.991782 0.001093
-0.438973069191 2.182585954666 -0.203955799341 0.127937 -0.991782 0.001093
-0.487984299660 2.176302194595 0.033549129963 0.127937 -0.991782 0.001093
-0.474365413189 2.178048372269 0.278322845697 0.127937 -0.991782 0.001093
-0.400588393211 2.187506914139 0.124699249864 0.127937 -0.991782 0.001093
-0.336821675301 2.192956447601 0.114800766110 0.052343 -0.998629 0.001026
-0.316291481256 2.194045066833 -0.161198392510 0.052343 -0.998629 0.001026
-0.191587224603 2.200658082962 -0.289741843939 0.052343 -0.998629 0.001026
-0.344184219837 2.192565917969 -0.363207846880 0.052343 -0.998629 0.001026
-0.327697604895 2.193440198898 -0.210855662823 0.052343 -0.998629 0.001026
-0.341850578785 2.192689657211 -0.257206410170 0.052343 -0.998629 0.001026
-0.258886575699 2.197089195251 -0.300002425909 0.052343 -0.998629 0.001026
-0.304643332958 2.194662809372 -0.250650107861 0.052343 -0.998629 0.001026
-0.331310570240 2.193248510361 0.062727518380 0.052343 -0.998629 0.001026
-0.251501142979 2.197480678558 0.150693461299 0.052343 -0.998629 0.001026
-0.173767387867 2.201603174210 0.159826695919 0.052343 -0.998629 0.001026
-0.144280195236 2.203166723251 -0.298971951008 0.052343 -0.998629 0.001026
-0.148813709617 2.202926158905 -0.204150646925 0.052343 -0.998629 0.001026
-0.151786595583 2.202768802643 0.018146455288 0.052343 -0.998629 0.001026
-0.124863982201 2.204196453094 0.066455334425 0.052343 -0.998629 0.001026
-0.169732376933 2.201817035675 0.197105705738 0.052343 -0.998629 0.001026
-0.163412660360 2.202152252197 -0.216868579388 0.052343 -0.998629 0.001026
-0.265601485968 2.196733236313 0.158332571387 0.052343 -0.998629 0.001026
-0.069194525480 2.204564809799 -0.194641351700 0.000978 -0.999999 0.000978
0.024215564132 2.204564809799 -0.175203159451 0.000978 -0.999999 0.000978
-0.040655270219 2.204564809799 -0.207693427801 0.000978 -0.999999 0.000978
-0.045430146158 2.204564809799 0.037862181664 0.000978 -0.999999 0.000978
-0.102209500968 2.204564809799 -0.397783994675 0.000978 -0.999999 0.000978
-0.113667882979 2.204564809799 -0.170482695103 0.000978 -0.999999 0.000978
-0.094499781728 2.204564809799 0.070779182017 0.000978 -0.999999 0.000978
-0.107769392431 2.204564809799 0.256262391806 0.000978 -0.999999 0.000978
0.042368456721 2.204564809799 -0.394534856081 0.000978 -0.999999 0.000978
0.093708507717 2.204564809799 -0.103956133127 0.000978 -0.999999 0.000978
0.061229731888 2.204564809799 -0.115924954414 0.000978 -0.999999 0.000978
-0.061494819820 2.204564809799 0.198751643300 0.000978 -0.999999 0.000978
0.102636635303 2.204564809799 0.110970243812 0.000978 -0.999999 0.000978
0.061250358820 2.204564809799 0.115217834711 0.000978 -0.999999 0.000978
0.060751579702 2.204564809799 0.158127725124 0.000978 -0.999999 0.000978
0.000052824616 2.204564809799 0.148732513189 0.000978 -0.999999 0.000978
0.073549821973 2.204564809799 0.084123477340 0.000978 -0.999999 0.000978
0.146616309881 2.203042984009 -0.182423144579 -0.052343 -0.998629 0.001026
0.198849648237 2.200273036957 -0.087066099048 -0.052343 -0.998629 0.001026
0.263474911451 2.196846008301 -0.347159326077 -0.052343 -0.998629 0.001026
0.179219946265 2.201313972473 -0.215715214610 -0.052343 -0.998629 0.001026
0.180491358042 2.201246500015 -0.376640558243 -0.052343 -0.998629 0.001026
0.304409503937 2.194675207138 -0.279962331057 -0.052343 -0.998629 0.001026
0.262169182301 2.196915149689 -0.206503897905 -0.052343 -0.998629 0.001026
0.192627906799 2.200603008270 -0.270428031683 -0.052343 -0.998629 0.001026
0.162906646729 2.202178955078 -0.187016874552 -0.052343 -0.998629 0.001026
0.218295693398 2.199241638184 0.058136925101 -0.052343 -0.998629 0.001026
0.349407434464 2.192288875580 0.182903170586 -0.052343 -0.998629 0.001026
0.306057214737 2.194587707520 0.061116784811 -0.052343 -0.998629 0.001026
0.345057964325 2.192519426346 -0.160515099764 -0.052343 -0.998629 0.001026
0.342159211636 2.192673206329 -0.167048871517 -0.052343 -0.998629 0.001026
0.343330949545 2.192611217499 0.255415320396 -0.052343 -0.998629 0.001026
0.354099124670 2.192039966583 -0.328068554401 -0.052343 -0.998629 0.001026
0.223935991526 2.198942661285 0.008497655392 -0.052343 -0.998629 0.001026
0.326437592506 2.193506956100 0.086153566837 -0.052343 -0.998629 0.001026
0.464709728956 2.179286241531 -0.241525828838 -0.127937 -0.991782 0.001093
0.479482173920 2.177392244339 -0.117732614279 -0.127937 -0.991782 0.001093
0.389147073030 2.188973665237 0.154361262918 -0.127937 -0.991782 0.001093
0.386789262295 2.189275979996 0.007087264210 -0.127937 -0.991782 0.001093
0.537615716457 2.169939279556 -0.338934898376 -0.127937 -0.991782 0.001093
0.443604409695 2.181992053986 -0.086226344109 -0.127937 -0.991782 0.001093
0.409282177687 2.186392307281 0.092112787068 -0.127937 -0.991782 0.001093
0.403778791428 2.187097787857 -0.403496772051 -0.127937 -0.991782 0.001093
0.483562648296 2.176869153976 0.192852139473 -0.127937 -0.991782 0.001093
0.460278093815 2.179854393005 0.292397171259 -0.127937 -0.991782 0.001093
0.559083640575 2.167186975479 0.189196467400 -0.127937 -0.991782 0.001093
0.453454405069 2.180729150772 0.173158079386 -0.127937 -0.991782 0.001093
0.440329849720 2.182411670685 0.220305860043 -0.127937 -0.991782 0.001093
0.593751251698 2.162742376328 -0.173405557871 -0.127937 -0.991782 0.001093
0.517759025097 2.172484874725 0.151395738125 -0.127937 -0.991782 0.001093
0.471700876951 2.178389787674 0.179417878389 -0.127937 -0.991782 0.001093
0.607253909111 2.159930706024 0.035649403930 -0.254023 -0.967197 0.001193
0.659431934357 2.146199703217 -0.381093591452 -0.254023 -0.967197 0.001193
0.640652596951 2.151141643524 0.164052054286 -0.254023 -0.967197 0.001193
0.633248150349 2.153090238571 0.235736519098 -0.254023 -0.967197 0.001193
0.674704849720 2.141530275345 0.123962879181 -0.506611 -0.862174 0.001337
0.698898971081 2.127298355103 0.292760699987 -0.506611 -0.862174 0.001337
0.727285146713 2.093303918839 -0.338653355837 -0.811146 -0.584843 0.001363
0.714294195175 2.111291408539 -0.052211433649 -0.811146 -0.584843 0.001363
0.722537577152 2.099877595901 0.053718984127 -0.811146 -0.584843 0.001363
0.728254139423 2.091962337494 -0.033526808023 -0.811146 -0.584843 0.001363
0.730774104595 2.088151693344 0.292043209076 -0.983996 -0.178186 0.001135
0.733123958111 2.075227022171 -0.314569413662 -0.983996 -0.178186 0.001135
0.739124774933 1.968728184700 -0.357970148325 -0.999960 -0.008867 0.000985
0.739436984062 1.934069991112 -0.160507112741 -0.999960 -0.008867 0.000985
0.738921761513 1.991263151169 -0.205247446895 -0.999960 -0.008867 0.000985
0.739197790623 1.960622787476 -0.250451833010 -0.999960 -0.008867 0.000985
0.738727688789 2.012810230255 -0.006156921387 -0.999960 -0.008867 0.000985
0.738451361656 2.043481588364 0.049498707056 -0.999960 -0.008867 0.000985
0.739275753498 1.951968669891 -0.029545873404 -0.999960 -0.008867 0.000985
0.738923132420 1.991116404533 -0.340117007494 -0.999960 -0.008867 0.000985
0.740155160427 1.854353666306 -0.054233461618 -0.999960 -0.008867 0.000985
0.739749848843 1.899348258972 -0.094461262226 -0.999960 -0.008867 0.000985
0.739422678947 1.935662388802 0.134543821216 -0.999960 -0.008867 0.000985
0.740066528320 1.864192008972 -0.178065747023 -0.999960 -0.008867 0.000985
0.739735126495 1.900983929634 -0.089298129082 -0.999960 -0.008867 0.000985
0.739913642406 1.881167650223 0.027270972729 -0.999960 -0.008867 0.000985
0.739008188248 1.981671333313 0.231252938509 -0.999960 -0.008867 0.000985
0.756319344044 1.954529166222 0.299991279840 -0.594653 -0.026460 0.803547
0.751647830009 1.406034827232 0.278796523809 -0.561162 -0.029097 0.827194
0.741169571877 1.538790464401 -0.091340392828 -0.999976 -0.006896 -0.000985
0.741897761822 1.408100843430 0.236977905035 -0.999976 -0.006896 -0.000985
0.740683078766 1.572522878647 0.202588319778 -0.999976 -0.006896 -0.000985
0.740855455399 1.544620037079 0.251289576292 -0.999976 -0.006896 -0.000985
0.741069495678 1.529085040092 0.128579214215 -0.999976 -0.006896 -0.000985
0.741309583187 1.517409801483 -0.064100325108 -0.999976 -0.006896 -0.000985
0.740470051765 1.614122867584 0.202640831470 -0.999999 0.000978 -0.000978
0.740814328194 1.591405749321 -0.037733547390 -0.999999 0.000978 -0.000978
0.740578234196 1.623455643654 0.127518013120 -0.999999 0.000978 -0.000978
0.740427076817 1.756474018097 0.236244261265 -0.999999 0.000978 -0.000978
0.740466594696 1.634320378304 0.205556064844 -0.999999 0.000978 -0.000978
0.740970313549 1.596299648285 -0.224233150482 -0.999995 -0.002938 0.000979
0.740367591381 1.829025268555 -0.187213212252 -0.999995 -0.002938 0.000979
0.740566372871 1.752266049385 0.098159700632 -0.999995 -0.002938 0.000979
0.740436196327 1.802532315254 -0.060099057853 -0.999995 -0.002938 0.000979
0.740666031837 1.713801860809 -0.286960750818 -0.999995 -0.002938 0.000979
0.740541696548 1.761788487434 -0.152460962534 -0.999995 -0.002938 0.000979
0.740536153316 1.763954401016 0.100027516484 -0.999995 -0.002938 0.000979
0.740973830223 1.594951033592 -0.175158530474 -0.999995 -0.002938 0.000979
0.740533053875 1.765136361122 -0.251628547907 -0.999995 -0.002938 0.000979
0.740885019302 1.619536042213 -0.250841796398 -0.999995 0.000979 0.002938
0.740378856659 1.822297096252 -0.405472934246 -0.999995 0.000979 0.002938
0.741846144199 1.429129004478 -0.085279315710 -0.999987 -0.004907 0.000981
0.742187678814 1.370414376259 -0.089520543814 -0.999987 -0.004907 0.000981
0.741399884224 1.505849719048 -0.132178485394 -0.999987 -0.004907 0.000981
0.741972208023 1.407455563545 -0.010136365891 -0.999987 -0.004907 0.000981
0.742139697075 1.378664731979 0.074103802443 -0.999987 -0.004907 0.000981
0.741995453835 1.403461694717 0.125681161880 -0.999987 -0.004907 0.000981
0.742294311523 1.088714838028 -0.081304065883 -0.999999 0.000978 0.000978
0.742294311523 1.005501747131 -0.173614472151 -0.999999 0.000978 0.000978
0.742294311523 1.227765917778 0.081929348409 -0.999999 0.000978 0.000978
0.742294311523 1.286392569542 0.063145183027 -0.999999 0.000978 0.000978
0.742294311523 1.254178285599 -0.083188116550 -0.999999 0.000978 0.000978
0.742294311523 1.124349236488 -0.105515040457 -0.999999 0.000978 0.000978
0.742294311523 1.317647337914 0.037365347147 -0.999999 0.000978 0.000978
0.742294311523 1.245660424232 -0.198093786836 -0.999999 0.000978 0.000978
0.742294311523 1.000164747238 -0.201997488737 -0.999999 0.000978 0.000978
0.742294311523 1.179206252098 0.264514923096 -0.999999 0.000978 0.000978
0.742294311523 1.066447257996 -0.012183897197 -0.999999 0.000978 0.000978
0.742294311523 1.154790043831 0.031100004911 -0.999999 0.000978 0.000978
0.742294311523 1.143291592598 0.204545855522 -0.999999 0.000978 0.000978
0.742294311523 1.074610233307 0.055296108127 -0.999999 0.000978 0.000978
0.742294311523 1.295865058899 0.204649180174 -0.999999 0.000978 0.000978
0.744086146355 1.312394022942 0.270501136780 -0.561814 -0.026227 0.826847
0.784849464893 1.173484325409 0.297858864069 -0.634886 -0.001377 0.772605
0.782534897327 1.365731596947 0.298378646374 -0.561162 -0.029097 0.827194
0.580782949924 2.198745489120 0.318682819605 -0.100688 -0.593911 0.798205
0.447914719582 2.194086790085 0.302343249321 -0.072571 -0.562072 0.823898
0.418174564838 2.214631319046 0.314293295145 -0.061083 -0.589520 0.805441
0.244696110487 2.238892555237 0.323275864124 -0.032019 -0.583308 0.811620
0.141255944967 2.241562366486 0.322378456593 -0.020846 -0.604529 0.796310
-0.026488255709 2.219714403152 0.304964363575 0.001366 -0.597153 0.802126
-0.167816951871 2.231152296066 0.315164566040 0.020846 -0.604529 0.796310
-0.245875060558 2.217933416367 0.308230161667 0.032019 -0.583308 0.811620
-0.742802917957 1.105009198189 0.381866604090 0.982330 -0.053452 -0.179361
-0.758621335030 1.199678897858 0.273313343525 0.982424 -0.046107 -0.180880
-0.743407070637 1.236067295074 0.358046501875 0.985139 -0.007954 -0.171576
-0.755939543247 1.331255793571 0.286541640759 0.983996 0.001135 -0.178186
-0.749198019505 1.316450715065 0.323662251234 0.983996 0.001135 -0.178186
-0.743429720402 1.452767252922 0.354925930500 0.982383 -0.003439 -0.186848
-0.740785479546 1.550979137421 0.367150992155 0.982383 -0.003439 -0.186848
-0.739410340786 1.745015501976 0.365657478571 0.982175 -0.010363 -0.187684
-0.745703995228 1.610897898674 0.339407533407 0.982175 -0.010363 -0.187684
-0.746038079262 1.820255160332 0.327372193336 0.982196 -0.008060 -0.187688
-0.745123744011 1.754172325134 0.335356533527 0.982196 -0.008060 -0.187688
-0.746812224388 2.000188350677 0.322906732559 0.982957 0.003425 -0.183805
-0.749929845333 1.919225931168 0.305109173059 0.982957 0.003425 -0.183805
-0.738361895084 2.091217756271 0.375340610743 0.988721 0.012345 -0.149262
-0.734507858753 1.975826501846 0.391797065735 0.988721 0.012345 -0.149262
-0.728621423244 1.977129101753 0.432525873184 0.985139 0.007954 -0.171576
-0.724408030510 1.993927598000 0.461642354727 0.988796 0.010078 -0.148935
-0.718662083149 1.884222984314 0.485615670681 0.984789 0.014904 -0.173112
-0.729438126087 1.842112302780 0.567269802094 0.281366 -0.894715 -0.346869
-0.689284026623 2.019325494766 0.651273429394 0.978231 0.079382 -0.191738
-0.665600180626 1.810454726219 0.694670200348 0.962319 0.053810 -0.266546
-0.690944910049 1.919730305672 0.614207386971 0.982827 0.053350 -0.176648
-0.683624625206 1.836951613426 0.632665574551 0.971313 0.030240 -0.235873
-0.708516597748 2.016942977905 0.552298545837 0.986195 0.031143 -0.162636
-0.719659984112 2.014769792557 0.491303086281 0.976376 0.015311 -0.215533
-0.650136232376 1.836594104767 0.776822626591 0.999291 0.037537 0.003044
-0.675646901131 1.672542810440 0.760383367538 0.278398 -0.018396 -0.960290
-0.685121893883 1.429443836212 0.762095868587 0.277765 -0.013460 -0.960555
-0.696377396584 1.395136713982 0.759311318398 0.280022 -0.013451 -0.959899
-0.681447625160 1.130053281784 0.766445636749 0.277440 -0.001212 -0.960742
-0.687763094902 0.995036780834 0.643813133240 0.957277 -0.038792 -0.286558
-0.736802399158 1.055874943733 0.427855759859 0.978611 -0.041719 -0.201444
-0.755380034447 1.173167586327 0.409723222256 0.406717 0.629166 0.662368
-0.780878365040 1.167647004128 0.448657572269 0.402915 0.894558 0.193457
-0.697102248669 1.024239063263 0.603423893452 0.967165 -0.038000 -0.251291
-0.708818554878 1.099541068077 0.546597659588 0.973818 -0.039920 -0.223797
-0.721885442734 1.088200211525 0.491976588964 0.973818 -0.039920 -0.223797
-0.764490902424 1.328109622002 0.398379385471 0.339702 -0.024174 0.940223
-0.759906172752 1.659181833267 0.404806762934 0.341969 -0.021611 0.939463
-0.777771532536 1.818655490875 0.414609372616 0.351181 -0.021709 0.936056
-0.748739540577 1.871236443520 0.421232074499 0.400389 -0.713451 0.575045
-0.571812629700 -2.038969755173 0.035224288702 -0.364457 -0.865778 0.342928
0.770875036716 1.032243013382 0.281275212765 -0.439107 -0.852021 -0.285034
0.759228825569 1.069327116013 0.302750676870 -0.982330 -0.053452 -0.179361
0.736823379993 1.104895949364 0.417795896530 -0.978611 -0.041719 -0.201444
0.722138524055 0.986264050007 0.509150266647 -0.973818 -0.039920 -0.223797
0.709366261959 1.058750152588 0.551403343678 -0.966149 -0.040615 -0.254768
0.690998673439 1.077195525169 0.618896961212 -0.967165 -0.038000 -0.251291
0.658334910870 1.015587925911 0.733438670635 -0.982790 -0.070455 -0.170764
0.648540973663 1.117527842522 0.776888906956 -0.999999 0.000978 0.000978
0.647588193417 1.479416131973 0.794859826565 -0.999995 -0.002938 0.000979
0.647131145000 1.602345108986 0.788982927799 -0.999995 -0.002938 0.000979
0.647305369377 1.544804692268 0.771696388721 -0.999948 -0.004945 0.008902
0.648438036442 1.791062235832 0.787915289402 -0.999291 0.037537 0.003044
0.667273819447 1.914536595345 0.719455540180 -0.978231 0.079382 -0.191738
0.686427533627 1.989322543144 0.654905378819 -0.962319 0.053810 -0.266546
0.687378466129 1.862431526184 0.620538949966 -0.971313 0.030240 -0.235873
0.716151416302 2.036557197571 0.509687006474 -0.986195 0.031143 -0.162636
0.713050663471 1.904723644257 0.513149380684 -0.976376 0.015311 -0.215533
0.721783757210 2.065536022186 0.484006732702 -0.988796 0.010078 -0.148935
0.769457995892 1.858138442039 0.419365853071 -0.400389 -0.713451 0.575045
0.732382595539 2.025931835175 0.409749805927 -0.988721 0.012345 -0.149262
0.743424415588 1.915823221207 0.339825570583 -0.982957 0.003425 -0.183805
0.749451518059 1.879836201668 0.307112067938 -0.982957 0.003425 -0.183805
0.773674190044 1.814618706703 0.412982523441 -0.351181 -0.021709 0.936056
0.761684954166 1.705455660820 0.406454145908 -0.338928 -0.019041 0.940620
0.780030548573 1.599812626839 0.410821884871 -0.341969 -0.021611 0.939463
0.749797224998 1.593792080879 0.318825483322 -0.982175 -0.010363 -0.187684
0.736711204052 1.595605015755 0.387272715569 -0.982175 -0.010363 -0.187684
0.743312716484 1.783591628075 0.343390733004 -0.982196 -0.008060 -0.187688
0.754460215569 1.673844337463 0.290474981070 -0.982196 -0.008060 -0.187688
0.735905647278 1.843824744225 0.380439072847 -0.983039 0.001139 -0.183394
0.742084860802 1.550990581512 0.360334753990 -0.982383 -0.003439 -0.186848
0.749868333340 1.447114109993 0.396081268787 -0.339702 -0.024174 0.940223
0.757300376892 1.212827324867 0.279063612223 -0.985139 -0.007954 -0.171576
0.714131772518 1.120288968086 0.530961632729 -0.402313 0.896126 0.187359
0.665663659573 1.075178861618 0.767074644566 -0.376074 0.538877 -0.753777
0.696186363697 1.223691701889 0.761761486530 -0.280022 -0.013451 -0.959899
0.656851291656 1.256596088409 0.772761106491 -0.277765 -0.013460 -0.960555
0.664238929749 1.516340970993 0.766701281071 -0.276133 -0.018409 -0.960943
0.693329989910 1.679361343384 0.755129814148 -0.278398 -0.018396 -0.960290
0.754022717476 1.871331930161 0.465242266655 -0.235154 -0.962702 -0.133817
0.757759213448 1.152897953987 0.289950430393 -0.982424 -0.046107 -0.180880
0.755687832832 1.365218520164 0.288101464510 -0.983996 0.001135 -0.178186
0.755183100700 1.471147060394 0.291420310736 -0.983996 0.001135 -0.178186
0.778172075748 1.555115580559 0.409081399441 -0.340516 -0.024231 0.939926
0.546835303307 -0.734724164009 -0.117924049497 0.001131 -0.984919 -0.173011
0.503556549549 -0.731617391109 -0.135529637337 0.001131 -0.984919 -0.173011
0.481335550547 -0.731038868427 -0.138807386160 -0.001131 -0.984919 -0.173011
0.381933718920 -0.712583005428 -0.243390560150 0.001131 -0.984919 -0.173011
0.297908067703 -0.739325940609 -0.091846533120 0.001131 -0.984919 -0.173011
0.263709634542 -0.726230084896 -0.166058570147 0.001131 -0.984919 -0.173011
0.226648449898 -0.728714883327 -0.124053753912 -0.248066 -0.950242 -0.188422
0.157560214400 -0.668177664280 -0.119099095464 -0.868124 -0.465644 -0.171862
0.567546010017 -0.712136566639 -0.207493513823 0.247554 -0.950984 -0.185327
0.634941816330 -0.678390085697 -0.091875657439 0.869704 -0.464918 -0.165728
0.623422622681 -0.647427916527 -0.238566845655 0.858338 -0.483092 -0.172850
0.634080946445 -0.628571569920 -0.207271426916 0.975427 -0.161943 -0.149390
0.642621099949 -0.608724892139 -0.171007797122 0.979710 -0.141719 -0.141719
0.634197473526 -0.542094767094 -0.235493421555 0.989995 0.032886 -0.137216
0.642994105816 -0.518090307713 -0.167933270335 0.988845 0.019168 -0.147707
0.638461589813 -0.433319419622 -0.177433341742 0.985710 0.072010 -0.152283
0.645382344723 -0.409726291895 -0.126390099525 0.983931 0.038608 -0.174323
0.631270945072 -0.329517811537 -0.185382425785 0.979954 0.091527 -0.176953
0.551196157932 -0.189780399203 -0.182858541608 0.001184 0.970072 -0.242814
0.488254100084 -0.200550243258 -0.225914627314 0.001184 0.970072 -0.242814
0.406389117241 -0.196504905820 -0.209744095802 0.001184 0.970072 -0.242814
0.380549699068 -0.195753961802 -0.206742197275 0.001184 0.970072 -0.242814
0.257969945669 -0.196407318115 -0.209351897240 -0.001184 0.970072 -0.242814
0.168604344130 -0.215574994683 -0.194718182087 -0.967485 0.068660 -0.243432
0.174915894866 -0.308979123831 -0.251590520144 -0.964595 0.090232 -0.247821
0.162117257714 -0.304574638605 -0.189198374748 -0.984533 0.028991 -0.172786
0.166620284319 -0.418428659439 -0.252087533474 -0.981719 0.070895 -0.176637
0.147413671017 -0.395599275827 -0.127096235752 -0.987462 0.045042 -0.151295
0.154040917754 -0.550194263458 -0.210314810276 -0.988183 0.033130 -0.149655
0.151400804520 -0.574964821339 -0.195103019476 -0.990257 0.019065 -0.137941
0.148722842336 -0.618575572968 -0.149961382151 -0.978808 -0.142305 -0.147254
0.491299211979 -0.706100642681 -0.075796380639 0.001012 -0.037461 0.999298
0.336002767086 -0.721390247345 -0.076360322535 0.001012 -0.037461 0.999298
0.409986108541 -0.673962891102 -0.077893987298 -0.001067 0.097074 0.995277
0.454483389854 -0.630696475506 -0.082071252167 0.001067 0.097074 0.995277
0.642225444317 -0.331235677004 -0.124374210835 0.916845 0.213787 0.337181
0.532790482044 -0.318611770868 -0.157798826694 0.001059 0.087863 0.996132
0.632791459560 -0.514584898949 -0.075798608363 0.190593 0.089763 0.977557
0.539955079556 -0.577082812786 -0.090392924845 -0.453307 0.164706 0.876005
0.434395194054 -0.533341825008 -0.100909039378 0.001164 0.215328 0.976541
0.351151913404 -0.644861876965 -0.080685511231 0.001067 0.097074 0.995277
0.231925055385 -0.644948959351 -0.084323830903 -0.035572 0.150322 0.987997
0.291412562132 -0.547070741653 -0.097925901413 -0.008203 0.216799 0.976182
0.328357875347 -0.565385103226 -0.093829713762 0.001164 0.215328 0.976541
0.461222708225 -0.496858775616 -0.114118821919 0.001268 0.368984 0.929435
0.426357239485 -0.335322797298 -0.156308725476 0.001059 0.087863 0.996132
0.511544823647 -0.256752014160 -0.163314849138 0.001059 0.087863 0.996132
0.382078558207 -0.243029907346 -0.164538443089 0.001059 0.087863 0.996132
0.295142501593 -0.462218344212 -0.127933487296 -0.006370 0.370724 0.928721
0.265181660652 -0.280639320612 -0.161184832454 0.001059 0.087863 0.996132
0.253317207098 -0.343992948532 -0.150176808238 0.688834 0.098405 0.718209
0.243459060788 -0.384207189083 -0.132181376219 0.774364 0.148858 0.614981
0.213971003890 -0.484410673380 -0.090940192342 0.457346 0.082016 0.885499
0.188026711345 -0.641056299210 -0.073815651238 0.180586 -0.014953 0.983446
0.170551642776 -0.246853873134 -0.145689129829 -0.087408 0.359046 0.929218
0.164243370295 -0.358934521675 -0.105929546058 -0.077545 0.260604 0.962327
0.276459157467 -0.259354889393 -0.163082748652 0.001059 0.087863 0.996132
0.255361497402 -0.204319640994 -0.167990222573 0.001059 0.087863 0.996132
0.184197902679 -0.214176043868 0.251841306686 0.132020 -0.799535 0.585930
0.462851226330 -0.137750238180 0.331162691116 0.001381 -0.724826 0.688930
0.431450605392 -0.155883848667 0.311203777790 0.001350 -0.840871 0.541234
0.398382514715 -0.157965496182 0.307957917452 0.001350 -0.840871 0.541234
0.283458173275 -0.199480175972 0.243224769831 0.001350 -0.840871 0.541234
0.440335988998 -0.111450076103 0.358748823404 0.001381 -0.724826 0.688930
0.555534839630 -0.175782188773 0.287628948689 -0.267707 -0.799991 0.536980
0.392045706511 -0.206552252173 0.231354758143 0.001338 -0.860313 0.509765
0.267297655344 -0.219847097993 0.208901822567 0.001338 -0.860313 0.509765
0.168592944741 -0.187971323729 0.182589784265 -0.990081 0.140492 -0.001106
0.321086823940 -0.047548785806 0.384572952986 0.000978 0.000978 0.999999
0.538558661938 -0.233088508248 0.186143785715 0.001307 -0.897798 0.440405
0.545562863350 -0.263154804707 0.124917142093 0.001307 -0.897798 0.440405
0.413894116879 -0.280316919088 0.089968383312 0.001307 -0.897798 0.440405
0.321927160025 -0.246014505625 0.159821435809 0.001307 -0.897798 0.440405
0.267053604126 -0.247385039926 0.157030463219 0.001307 -0.897798 0.440405
0.391510844231 -0.310971766710 0.006955765188 0.001205 -0.962562 0.271059
0.224779769778 -0.312612354755 0.025603178889 0.439907 -0.872358 0.213243
0.174356669188 -0.149149522185 0.089247033000 -0.990032 0.140800 -0.003326
0.156131550670 -0.276780217886 0.075784921646 -0.990032 0.140800 -0.003326
0.202481493354 -0.021909497678 0.300580859184 -0.810648 0.556089 -0.183343
0.420790523291 0.020979765803 0.368779182434 0.001221 0.955752 0.294171
0.466308474541 -0.063060864806 0.384572952986 0.000978 0.000978 0.999999
0.443613439798 -0.314976841211 -0.029850536957 0.001052 -0.996710 0.081042
0.264491319656 -0.314796358347 -0.027649082243 0.001052 -0.996710 0.081042
0.154861897230 -0.284215778112 0.017083954066 -0.989726 0.142973 0.001108
0.423397064209 0.020362196490 0.321100771427 0.001100 0.990809 -0.135260
0.574533522129 0.005191285629 0.324104398489 0.608082 0.770441 -0.191461
0.599117517471 -0.078686535358 0.188058659434 0.695219 0.636606 -0.333770
0.608154892921 -0.150764569640 0.001587071689 0.677798 0.705716 -0.206286
0.624542117119 -0.194318577647 -0.060792211443 0.881325 0.462450 -0.096988
0.629848182201 -0.220347508788 -0.141121968627 0.987887 0.154675 0.012419
0.262225687504 0.008738208562 0.273522317410 0.001221 0.955752 -0.294171
0.494821518660 0.006967443507 0.267795741558 0.001221 0.955752 -0.294171
0.561910808086 -0.025563772768 0.208145171404 0.545177 0.572182 -0.612691
0.517823457718 -0.168671458960 -0.170733079314 0.001174 0.973432 -0.228974
0.368485778570 -0.162390202284 -0.143973141909 0.001174 0.973432 -0.228974
0.322620004416 -0.151173472404 -0.100401587784 0.001195 0.966452 -0.256844
0.367481827736 -0.156254142523 -0.119588777423 0.001195 0.966452 -0.256844
0.556552529335 -0.150232523680 -0.094975516200 0.138088 0.958723 -0.248558
0.473095297813 -0.146357312799 -0.082858495414 0.001215 0.958392 -0.285453
0.302662521601 -0.142559006810 -0.070039294660 0.001215 0.958392 -0.285453
0.209905400872 -0.153656095266 -0.081849694252 -0.414997 0.876437 -0.244204
0.388594299555 -0.118910513818 0.004895592108 0.001236 0.948187 -0.317711
0.497557878494 -0.120641171932 -0.000274531543 0.001236 0.948187 -0.317711
0.537518799305 -0.108312100172 0.035282883793 0.001259 0.935342 -0.353743
0.501747608185 -0.065369635820 0.148445636034 0.001259 0.935342 -0.353743
0.340306401253 -0.085161149502 0.096290670335 0.001259 0.935342 -0.353743
0.319114655256 -0.075900018215 0.120695769787 0.001259 0.935342 -0.353743
0.249791592360 -0.072806775570 0.128847151995 0.001259 0.935342 -0.353743
0.156800374389 -0.261863738298 -0.092068135738 -0.988040 0.153995 0.007868
0.152518197894 -0.282379895449 -0.125179857016 -0.986312 0.164574 0.010215
0.166983276606 -0.320790797472 -0.095563776791 -0.027562 -0.914812 -0.402937
0.186866581440 -0.315400570631 -0.107856445014 0.048433 -0.930690 -0.362589
0.348389476538 -0.309470027685 -0.103218533099 0.001180 -0.971447 -0.237255
0.508895218372 -0.308601260185 -0.106795564294 0.001180 -0.971447 -0.237255
0.221098244190 -0.085814222693 0.110260918736 -0.426048 0.850548 -0.308304
0.231599614024 -0.068048179150 0.147691071033 -0.136407 0.927294 -0.348596
