0.569767653942 -2.078507900238 -0.491585254669 0.296563 -0.926582 0.231291
-0.567302167416 -1.949707984924 -0.028685521334 -0.822744 -0.502356 -0.265953
-0.755012273788 -1.767795801163 -0.003006111598 -0.758988 -0.333568 0.559169
-0.735062539577 -1.821606278419 -0.010270306841 -0.738994 -0.370313 0.562810
-0.688925564289 -1.885885834694 -0.006797210313 -0.473433 -0.476732 0.740667
-0.733379662037 -1.797386884689 0.007891212590 -0.727287 -0.392374 0.563114
-0.702007532120 -1.883741140366 -0.016396494582 -0.556347 -0.472811 0.683321
-0.359446316957 -2.098423719406 -0.369251430035 -0.138008 -0.935992 -0.323840
-0.297443658113 -2.113795280457 -0.350913226604 -0.129175 -0.936858 -0.324977
-0.322120249271 -2.102420568466 -0.373596638441 -0.138008 -0.935992 -0.323840
-0.288563132286 -2.111465930939 -0.361162543297 -0.126274 -0.935517 -0.329943
0.432777374983 -2.091860532761 -0.343963921070 0.190304 -0.926147 -0.325632
0.046845894307 -2.128171682358 -0.365731030703 0.003670 -0.955534 -0.294858
-0.008201008663 -2.133384704590 -0.354244649410 0.016438 -0.942043 -0.335089
-0.035190552473 -2.175239324570 -0.220068559051 -0.006166 -0.953247 -0.302129
0.081247955561 -2.165005445480 -0.247960582376 0.031378 -0.952638 -0.302484
0.369567692280 -2.112285375595 -0.318454861641 0.158855 -0.932410 -0.324617
0.134609386325 -2.159502744675 -0.257585138083 0.044073 -0.955744 -0.290879
0.282147765160 -2.149612188339 -0.249469786882 0.122366 -0.942624 -0.310622
0.509727597237 -2.094748258591 -0.280252099037 0.275884 -0.917206 -0.287439
-0.443198382854 0.040166184306 0.627122223377 -0.664375 -0.189601 0.722951
0.139267787337 -0.042111456394 0.647415339947 0.065799 -0.513793 0.855388
0.088817447424 -0.152762264013 0.611254513264 0.043572 -0.997905 0.047823
-0.118036769331 -0.156944915652 0.610336899757 -0.045992 -0.111053 0.992750
-0.547895431519 -0.136805623770 0.557045817375 -0.210491 -0.336500 0.917857
-0.430574893951 -0.118267469108 0.590789854527 -0.157309 -0.343851 0.925754
0.695311069489 -0.634018778801 0.277680516243 0.230358 -0.450177 0.862714
0.574872195721 -0.229330062866 0.508843779564 0.290926 -0.341651 0.893665
-0.684267163277 -0.628336846828 0.290408074856 -0.220328 -0.451148 0.864825
0.608439326286 -0.379011273384 0.420681804419 0.940997 0.332808 -0.061341
-0.551147282124 -0.236472249031 0.507640302181 0.940380 -0.335943 0.053180
-0.046791229397 -0.184518858790 0.600043416023 -0.009001 -0.387064 0.922009
-0.318955808878 -0.159983277321 0.587402284145 -0.113202 -0.901426 -0.417871
0.686831176281 -0.738945245743 0.213716387749 -0.973868 -0.180627 0.137680
0.640060484409 -0.517091929913 0.342006236315 -0.951060 -0.297938 0.081965
-0.591484904289 -0.364322096109 0.439072042704 0.944564 -0.322629 0.060898
-0.815822064877 0.491083472967 -0.394412785769 -0.944596 -0.006239 -0.328175
-0.822841942310 0.732831716537 -0.360505759716 -0.999111 -0.005103 0.041842
-0.834821224213 0.853128075600 -0.270891904831 -0.984778 -0.003408 -0.173784
-0.829561889172 0.811320543289 -0.299287676811 -0.983836 -0.005700 -0.178983
-0.838654935360 0.696413159370 -0.239076793194 -0.992653 -0.003269 -0.120949
-0.841493785381 0.838629007339 -0.221606075764 -0.992280 -0.005482 -0.123898
-0.842261612415 0.939053118229 -0.215726897120 -0.987304 0.017042 -0.157923
-0.844907820225 0.648806333542 -0.111675195396 -0.998750 -0.017668 -0.046768
-0.844856441021 0.679035842419 -0.122428834438 -0.998411 -0.011452 -0.055178
-0.846043348312 0.752887785435 -0.118005588651 -0.998348 -0.015648 -0.055290
-0.849598407745 0.938969075680 -0.096621870995 -0.998536 -0.011406 -0.052882
-0.847878873348 0.800830304623 -0.097131051123 -0.998504 -0.013507 -0.052990
-0.848666548729 0.796533286572 -0.080623321235 -0.999773 -0.015072 -0.015072
-0.846656799316 0.625925362110 -0.022167004645 -0.999642 -0.023295 -0.013167
-0.762145638466 0.629318416119 0.238132745028 -0.509370 -0.062799 0.858253
-0.753730893135 0.853195130825 0.256352812052 -0.350941 -0.059147 0.934528
-0.694979727268 1.569096922874 0.295371383429 -0.300201 0.031402 0.953359
-0.676647603512 1.641263723373 0.297524690628 -0.292216 0.049335 0.955079
-0.658987820148 1.752349138260 0.296394407749 -0.274402 0.059433 0.959777
-0.677318572998 1.789197087288 0.288765460253 -0.276280 0.067479 0.958705
-0.809822022915 1.793973326683 -0.041297871619 -0.983852 0.178359 0.014959
-0.855203270912 1.198775887489 -0.024876790121 -0.995318 -0.020623 0.094430
-0.853620409966 1.081164360046 -0.059547003359 -0.999156 -0.036089 0.019591
-0.848764955997 0.971730649471 0.045093387365 -0.998902 -0.007201 0.046293
-0.849759578705 0.837472319603 -0.034944839776 -0.999900 -0.010944 -0.008954
-0.840802788734 0.552218735218 0.061642765999 -0.994765 -0.016272 0.100887
-0.848381161690 0.860323250294 0.031802698970 -0.998923 -0.013429 0.044420
-0.850163459778 1.120594978333 0.035990089178 -0.997999 0.001036 0.063217
-0.853271722794 1.276733994484 -0.000949308276 -0.992533 -0.007677 0.121736
-0.847333133221 1.198285818100 0.065363436937 -0.991203 0.012182 0.131791
-0.838975608349 1.129803895950 0.118216790259 -0.952066 -0.001228 0.305890
-0.835025846958 0.755463719368 0.112108528614 -0.947253 -0.018820 0.319933
-0.812009453773 1.284057736397 0.193810001016 -0.929758 0.021922 0.367519
-0.840797960758 1.281984329224 0.107106551528 -0.991272 0.018956 0.130460
-0.777843296528 1.833692789078 0.143306717277 -0.927728 0.192866 0.319567
-0.831206738949 1.625478148460 0.013067661785 -0.992449 0.101177 0.069346
-0.838018238544 1.480127215385 0.078518003225 -0.992410 0.055448 0.109765
-0.698168873787 1.756216526031 0.284068554640 -0.333515 0.066703 0.940382
-0.711318135262 1.763385653496 0.279049277306 -0.325744 0.060996 0.943489
-0.646978676319 1.951809763908 0.281402975321 -0.310111 0.151640 0.938529
-0.767562925816 1.771309375763 0.200487032533 -0.908480 0.142258 0.392971
-0.788270115852 1.657476067543 0.190542459488 -0.914443 0.117948 0.387147
-0.762553691864 1.502581000328 0.267328321934 -0.669876 0.046934 0.740988
-0.768947064877 1.595548391342 0.244092300534 -0.831675 0.099455 0.546283
-0.845871090889 1.268177151680 0.070327229798 -0.991227 0.009968 0.131794
-0.830760419369 0.807555556297 0.128025591373 -0.953295 -0.023739 0.301106
-0.792020976543 0.618809819221 0.204476892948 -0.871961 -0.045314 0.487474
-0.779614388943 0.933866083622 0.248371571302 -0.642769 -0.043986 0.764796
-0.787543177605 1.248214006424 0.243098244071 -0.876393 0.006670 0.481550
-0.795805454254 1.260024070740 0.227705836296 -0.877635 0.003983 0.479313
-0.824700653553 1.241581201553 0.162369132042 -0.953483 0.003691 0.301424
-0.792498528957 0.913924038410 0.226047858596 -0.882903 -0.022845 0.469000
-0.785363733768 0.940486311913 0.240773513913 -0.881132 -0.025560 0.472179
-0.644274950027 1.668666958809 0.304743975401 -0.263640 0.064333 0.962474
-0.657870829105 1.615434646606 0.304083675146 -0.296974 0.065566 0.952632
-0.706024885178 1.322615265846 0.298123925924 -0.542283 0.015025 0.840061
-0.708178877831 1.173581242561 0.304991036654 -0.854252 0.054349 0.517011
-0.516414940357 0.033691883087 0.607420265675 -0.210108 -0.160518 0.964411
-0.457066416740 0.570220828056 0.630042135715 -0.728534 0.055821 0.682732
-0.407843053341 0.757194399834 0.617322981358 -0.121397 0.186476 0.974931
-0.052643872797 0.789019465446 0.637118816376 -0.045145 0.151641 0.987404
-0.152536064386 0.807973623276 0.629616320133 -0.045145 0.151641 0.987404
-0.177657216787 0.776831984520 0.633616864681 -0.040572 0.158810 0.986475
-0.243314892054 0.812184929848 0.624438405037 -0.077520 0.161003 0.983905
-0.357260257006 0.742005586624 0.625497281551 -0.119045 0.126260 0.984828
-0.441949129105 0.613608419895 0.629807054996 -0.125695 0.090453 0.987937
-0.398464709520 0.600709795952 0.636426091194 -0.121040 0.092836 0.988297
-0.089391112328 0.735665917397 0.642844617367 -0.044174 0.125726 0.991081
0.189925327897 0.702686786652 0.642462193966 0.034822 0.122439 0.991865
0.208565011621 0.706025004387 0.640965878963 0.068000 0.123322 0.990034
0.249914601445 0.737296044827 0.634073019028 0.070758 0.126436 0.989448
0.304104477167 0.718233227730 0.632693707943 0.070899 0.129014 0.989105
0.342433422804 0.681504547596 0.632979691029 0.119291 0.128931 0.984452
0.596468508244 1.579461574554 0.315516412258 0.532800 0.136502 0.835160
0.379650831223 0.761864900589 0.618152081966 0.116397 0.125997 0.985178
0.356703847647 0.722318768501 0.625969231129 0.119009 0.128626 0.984526
0.338640421629 0.634344220161 0.638493359089 0.121013 0.095166 0.988079
0.273756057024 0.654287815094 0.642604589462 0.066526 0.093588 0.993386
0.142325311899 0.677945017815 0.647350132465 0.037221 0.125198 0.991433
0.124769724905 0.751341879368 0.638758718967 0.034890 0.124929 0.991552
0.004443270620 0.641485989094 0.655282497406 0.027142 0.090111 0.995562
-0.211735144258 0.624709010124 0.650807201862 -0.034212 0.100429 0.994356
-0.370321601629 0.596018433571 0.640224397182 -0.107050 0.079424 0.991076
-0.419522911310 0.438503593206 0.643362998962 -0.157421 0.031025 0.987044
-0.161815151572 0.508674502373 0.660158813000 -0.043225 0.036899 0.998384
-0.419795155525 0.332105159760 0.643563270569 -0.112339 -0.011997 0.993598
-0.447389692068 0.208882972598 0.636584520340 -0.115022 -0.034618 0.992760
-0.419798254967 0.206614539027 0.640418767929 -0.141365 -0.028273 0.989554
-0.431665688753 0.190576583147 0.638204097748 -0.141877 -0.051906 0.988523
0.604001283646 1.035797476768 0.440937161446 0.803562 0.118992 0.583206
0.573589742184 0.959358811378 0.494848936796 0.742825 0.133021 0.656137
0.524949848652 0.787275254726 0.573287248611 0.683012 0.095475 0.724140
0.510510146618 0.778340339661 0.584042370319 0.502233 0.132473 0.854525
-0.127512246370 -0.148753926158 0.612723052502 -0.054961 -0.300370 0.952238
0.735996425152 -0.683136641979 0.233783200383 0.607976 -0.282445 0.742018
0.520676612854 0.674193620682 0.587417244911 0.496215 0.062548 0.865944
0.625577688217 1.090021252632 0.398099005222 0.846837 0.083972 0.525181
0.725814044476 1.078467607498 0.266343384981 0.418536 -0.035874 0.907492
0.726664185524 0.800343334675 0.251752376556 0.400872 -0.046613 0.914947
0.739967286587 0.695129036903 0.239506527781 0.399945 -0.063291 0.914351
0.761253774166 0.633487820625 0.216788932681 0.861685 -0.028677 0.506633
0.775505781174 0.563978850842 0.190529882908 0.855192 -0.017675 0.518010
0.798716783524 0.545709908009 0.140285968781 0.928213 0.001270 0.372047
0.770054578781 0.848052561283 0.210216030478 0.887631 -0.011941 0.460401
0.784260690212 0.780200421810 0.179832533002 0.931149 -0.006352 0.364584
0.814182162285 0.712581396103 0.094699546695 0.951334 -0.008660 0.308039
0.798646986485 0.866658806801 0.143259331584 0.947678 -0.003726 0.319205
0.780351638794 1.069123387337 0.190363481641 0.931498 0.003802 0.363728
0.727267742157 1.546787381172 0.251176208258 0.831715 0.093370 0.547295
0.748973488808 1.517859458923 0.218276262283 0.881099 0.070765 0.467607
0.806884646416 0.952544569969 0.116292983294 0.953483 0.003691 0.301424
0.804849088192 0.853861033916 0.123977676034 0.953483 0.003691 0.301424
0.820575773716 0.653606712818 0.039841048419 0.994811 -0.001071 0.101730
0.815738439560 1.009608626366 -0.152660489082 0.997753 -0.024335 -0.062426
0.814331114292 1.199057579041 0.034196570516 0.997374 0.035353 0.063206
0.807105123997 1.327468991280 0.065009020269 0.990518 0.042077 0.130780
0.800747573376 1.370988845825 0.099588416517 0.990893 0.041901 0.127967
0.789687097073 1.526497006416 0.111149467528 0.991760 0.064903 0.110449
0.761648058891 1.700212478638 0.128300175071 0.933021 0.147030 0.328412
0.630525469780 2.006980657578 0.223986789584 0.708619 0.603881 0.364947
0.624005675316 2.029636144638 0.191348969936 0.484279 0.833951 0.264574
0.653498530388 2.004739999771 0.186311513186 0.650396 0.686078 0.326009
0.701713442802 1.928774476051 0.156180664897 0.912383 0.260473 0.315769
0.721962511539 1.874460935593 0.142023712397 0.912715 0.256837 0.317782
0.753609478474 1.782448053360 0.105143278837 0.970051 0.167869 0.175558
0.755408167839 1.836950778961 -0.035902589560 0.977445 0.208347 0.034526
0.758174836636 1.818506002426 0.001694180071 0.975699 0.203014 0.082436
0.732742011547 1.878954410553 0.097875699401 0.950937 0.257630 0.171304
-0.614799976349 1.919216632843 0.292003154755 -0.936889 0.058965 -0.344618
-0.677026093006 1.152562499046 0.358173489571 -0.859132 0.059875 0.508239
-0.606565654278 0.869748950005 0.502358317375 -0.810175 0.020774 0.585819
-0.592138707638 0.790162920952 0.525763213634 -0.802610 0.037819 0.595304
-0.564837992191 0.691647410393 0.565349817276 -0.785247 0.012464 0.619057
-0.556728720665 0.688593208790 0.574504435062 -0.740951 0.012511 0.671443
-0.555305659771 0.651837468147 0.576811432838 -0.739807 0.029592 0.672168
-0.672710001469 -0.467924565077 0.372585684061 -0.484807 -0.332212 0.809072
-0.518144309521 0.195807293057 0.616389691830 -0.556696 -0.029009 0.830209
-0.625162005424 1.859873294830 0.294776797295 0.935939 -0.064502 0.346205
-0.669199228287 1.170443654060 0.369003385305 -0.812566 0.100299 0.574175
-0.569595575333 0.831334948540 0.549064576626 -0.722064 0.079907 0.687196
-0.580811977386 0.888723492622 0.529329419136 -0.299191 0.331938 0.894596
-0.466249704361 0.692188620567 0.612206101418 -0.476256 0.079609 0.875696
-0.520499467850 0.657146453857 0.606797993183 -0.280733 0.114666 0.952912
-0.519782602787 0.618230402470 0.611035406590 -0.279415 0.097470 0.955210
0.250363051891 0.812988877296 0.622560083866 0.072577 0.163001 0.983953
0.592101275921 1.666167855263 0.302871912718 -0.940925 -0.047888 0.335213
0.595235168934 2.028359413147 0.239073172212 0.582260 0.675688 0.452127
0.596465170383 1.976365327835 0.278796702623 0.312246 0.158186 0.936739
0.619606256485 1.791918992996 0.292027860880 0.275028 0.062103 0.959428
0.585821092129 1.798466563225 0.299808621407 0.188360 0.061187 0.980192
0.604519903660 1.773966193199 0.297545939684 0.215415 0.057201 0.974846
0.597851097584 1.596176981926 0.310686260462 -0.229984 0.042590 0.972262
0.627991020679 1.995786070824 0.241127416492 0.642750 0.555026 0.528033
0.645443737507 1.974998593330 0.236763641238 0.718786 0.446544 0.532865
0.741850435734 1.840321421623 0.100134879351 0.959926 0.220506 0.172972
0.808289408684 0.966896295547 -0.237331613898 0.991772 0.030257 -0.124392
0.814386844635 0.663535237312 -0.239904612303 0.992221 0.018847 -0.123058
0.799640119076 0.581866621971 -0.358140438795 0.998690 0.015556 0.048742
0.800528168678 0.517148256302 -0.378939568996 0.944791 0.011292 -0.327478
0.808098435402 0.829286754131 -0.264294326305 0.983741 0.017299 -0.178757
0.798709034920 0.620259642601 -0.351351678371 0.998650 0.017666 0.048841
0.807292580605 0.906157553196 -0.259662091732 0.983993 0.031367 -0.175423
0.791217982769 0.896767079830 -0.392474174500 0.984306 -0.005690 -0.176379
0.818204104900 0.863438427448 0.054472818971 0.992858 0.007646 0.119056
0.819683253765 0.853591740131 0.035048615187 0.998885 0.009258 0.046292
0.821082293987 0.652451872826 0.029105996713 0.999040 0.001018 0.043791
0.822888672352 0.618565082550 -0.032198000699 0.999936 -0.002967 -0.010880
0.819186270237 0.928878247738 -0.100549452007 0.998530 0.011430 -0.052992
0.819424808025 1.016773462296 -0.011665280908 0.999884 0.014924 -0.002985
0.815907597542 1.132911205292 0.026658998802 0.998656 0.021914 0.046959
0.809686183929 1.217081904411 0.075976975262 0.990728 0.032686 0.131872
0.796897828579 1.246981501579 0.133893460035 0.953007 0.026298 0.301806
0.780399143696 1.496914982796 0.149078696966 0.944032 0.069203 0.322512
0.822939038277 0.693046152592 -0.019231569022 0.999884 0.002985 -0.014924
0.822656989098 0.644544482231 -0.050313204527 0.999917 0.000989 -0.012857
0.820954263210 0.848541200161 -0.081954881549 0.998446 0.009331 -0.054951
0.705766260624 1.393738746643 0.281549036503 0.385351 0.022057 0.922507
0.722714245319 1.442418694496 0.270770817995 0.671290 0.047033 0.739701
0.729630827904 1.363376975060 0.269397526979 0.678421 0.020982 0.734374
0.481549739838 0.694397091866 0.607214391232 0.276165 0.137416 0.951236
0.466982066631 0.539361953735 0.626564502716 0.367440 0.053997 0.928478
0.503303945065 0.439314007759 0.615657091141 0.575097 0.020687 0.817824
0.475062519312 0.230646103621 0.629230737686 0.319885 -0.029080 0.947010
0.478197902441 0.113920256495 0.620745539665 0.235917 -0.089573 0.967636
0.495639294386 0.148281916976 0.619518280029 0.223450 -0.054947 0.973166
0.494814962149 -0.071314848959 0.584441900253 0.421311 -0.172289 0.890401
0.528612852097 0.015087714419 0.590296745300 0.737090 -0.018182 0.675550
0.541781306267 -0.011316884309 0.575066328049 0.951833 0.134455 0.275566
0.538415610790 -0.106494456530 0.563761115074 0.344706 -0.234167 0.909034
0.225921571255 -0.083525590599 0.623628973961 0.092980 -0.248372 0.964192
0.314502149820 -0.998159825802 0.231403067708 -0.174694 0.962786 0.206217
-0.391572296619 -0.049114122987 0.616217434406 -0.156670 -0.233030 0.959767
-0.430767953396 -0.087811715901 0.600435853004 -0.146631 -0.281155 0.948394
-0.269268333912 -0.136321991682 0.606738448143 -0.092250 -0.281948 0.954984
-0.242261782289 -0.086941763759 0.623083651066 -0.086857 -0.235394 0.968011
0.405761033297 0.779319703579 0.611833512783 0.116122 0.188542 0.975176
0.412219226360 0.583301067352 0.634290516376 0.123095 0.090270 0.988281
0.270996391773 0.562162101269 0.650706470013 0.077165 0.074928 0.994199
0.197875857353 0.604478716850 0.652893304825 0.072691 0.079401 0.994189
-0.023120326921 0.546956241131 0.662620306015 -0.028518 0.053868 0.998141
0.157519087195 0.528844177723 0.658799231052 0.043221 0.039004 0.998304
0.355684012175 0.510990619659 0.645468771458 0.113775 0.046186 0.992432
0.424850195646 0.379325330257 0.640443682671 0.111859 0.007602 0.993695
0.139421224594 0.550652623177 0.658696055412 0.024484 0.067064 0.997448
-0.453758627176 0.400040864944 0.638150453568 -0.443515 0.006580 0.896243
-0.486198633909 0.148053854704 0.625291764736 0.099930 -0.086146 0.991258
0.160065516829 0.493468165398 0.662495851517 0.045240 0.032615 0.998444
-0.627923905849 1.773084759712 0.297533839941 -0.189609 0.068839 0.979444
0.387867003679 0.285109966993 0.646878540516 0.121651 -0.027902 0.992181
-0.411362677813 0.286684036255 0.646215200424 -0.136316 -0.028165 0.990265
-0.404319792986 0.108420237899 0.640620470047 -0.104376 -0.050504 0.993255
-0.738206624985 0.818681538105 0.268756151199 -0.798374 -0.017988 0.601894
-0.737754702568 0.801548480988 0.268872350454 -0.792650 -0.018046 0.609410
-0.644949138165 0.943472087383 0.432616323233 -0.927039 -0.046023 0.372130
-0.659287869930 1.009151697159 0.405700862408 -0.866115 0.039806 0.498257
-0.702384054661 1.149604916573 0.317902684212 -0.880306 0.056307 0.471053
-0.650969862938 0.985256254673 0.421760231256 -0.530040 0.292709 0.795851
0.136281937361 1.782349705696 0.348486542702 -0.005960 -0.246736 0.969064
0.720889568329 0.662376284599 0.254145026207 0.764168 -0.012482 0.644897
0.723704755306 0.706978738308 0.251142740250 0.793179 -0.004124 0.608975
0.693553805351 1.051434636116 0.285785734653 0.784306 0.023682 0.619922
0.683685898781 1.168039083481 0.288086444139 0.287344 -0.076024 0.954806
-0.225596815348 0.830231547356 0.621324121952 -0.036713 -0.107915 0.993482
-0.498182713985 0.814581692219 0.589242517948 -0.219803 0.185168 0.957810
0.593204736710 1.151224374771 0.428065419197 0.767621 0.148717 0.623411
0.479950129986 1.682266116142 0.336179405451 0.549556 0.712264 0.436656
0.018651418388 0.880232691765 0.617514252663 0.027112 0.199217 0.979580
0.048724502325 0.858156800270 0.621182680130 0.027062 0.196497 0.980131
0.043200783432 0.938029050827 0.605341970921 0.022215 0.192919 0.980963
0.090987086296 1.104032158852 0.562208652496 0.023252 0.268013 0.963135
0.084320530295 1.219221234322 0.529810607433 0.023527 0.288518 0.957185
0.098446309566 1.422905087471 0.466996669769 0.021191 0.300407 0.953576
0.085926532745 1.545599579811 0.428586065769 0.026298 0.301806 0.953007
0.195274367929 1.750940084457 0.354101032019 0.077122 0.317638 0.945071
0.184255674481 1.702087759972 0.371324539185 0.077058 0.312151 0.946902
0.180260807276 1.668161630630 0.382819861174 0.077058 0.312151 0.946902
0.116890870035 1.492140769958 0.444363296032 0.054961 0.300370 0.952238
0.128421381116 1.437029242516 0.461140602827 0.054919 0.302693 0.951504
0.151849389076 1.271519660950 0.510797739029 0.049205 0.283873 0.957599
0.146276175976 1.141807675362 0.548810660839 0.053903 0.269517 0.961486
0.110588386655 1.161443233490 0.545315980911 0.048699 0.265974 0.962749
0.149938642979 0.856590569019 0.617992103100 0.036786 0.200545 0.978994
0.157359108329 1.008163213730 0.583784282207 0.045451 0.241996 0.969212
0.228029504418 1.437675476074 0.454218417406 0.076484 0.302048 0.950220
0.210802614689 1.495501160622 0.436928659678 0.076930 0.309025 0.947937
0.217530116439 1.654370188713 0.384095549583 0.090767 0.311764 0.945814
0.336198925972 1.673558354378 0.363625556231 0.126178 0.324263 0.937514
0.329625397921 1.593690276146 0.392123520374 0.127547 0.304770 0.943847
0.310289651155 1.477745532990 0.432345777750 0.119111 0.309154 0.943523
0.306075990200 1.400454044342 0.457617282867 0.104647 0.303343 0.947118
0.279525399208 1.196636080742 0.523451566696 0.100896 0.286963 0.952613
0.230914190412 1.019929409027 0.576213479042 0.103385 0.236127 0.966207
0.257899016142 0.916481256485 0.598715662956 0.077467 0.207808 0.975097
-0.034468531609 0.857974112034 0.622348129749 -0.031838 0.196924 0.979902
-0.034111998975 0.913021266460 0.611268281937 -0.024699 0.198770 0.979735
-0.013673674315 1.147537112236 0.552608728409 0.020770 0.265128 0.963990
0.033676970750 1.433415055275 0.465106129646 0.021191 0.300407 0.953576
0.026929588988 1.564966797829 0.423975080252 0.026256 0.298813 0.953951
-0.067856825888 1.003122329712 0.589355289936 -0.027856 0.241016 0.970121
-0.088886819780 1.124564290047 0.556943058968 -0.028296 0.266966 0.963291
-0.073450982571 1.246058464050 0.522493243217 -0.031120 0.287551 0.957260
-0.019516309723 1.240259170532 0.525888144970 -0.026126 0.289874 0.956708
-0.040781293064 1.456364870071 0.458479881287 -0.028801 0.301785 0.952941
-0.084747232497 1.507886648178 0.441033393145 -0.028754 0.298792 0.953885
-0.514469087124 1.074851632118 0.523288846016 -0.274849 0.254912 0.927080
-0.492146104574 1.109199047089 0.518880963326 -0.175536 0.273509 0.945717
-0.457806140184 1.080190300941 0.533935308456 -0.151565 0.269598 0.950971
-0.381818979979 1.073260664940 0.547424435616 -0.127871 0.264971 0.955740
-0.385554611683 1.171838521957 0.520487844944 -0.150172 0.253831 0.955520
-0.343937873840 1.069399118423 0.553295254707 -0.110586 0.261504 0.958847
-0.298844397068 1.306948184967 0.490314900875 -0.111896 0.285664 0.951775
-0.215163260698 1.246926903725 0.515253365040 -0.078507 0.281853 0.956240
-0.197645127773 1.236592650414 0.519592463970 -0.059741 0.283451 0.957124
-0.082734219730 1.367083668709 0.485422939062 -0.028801 0.301785 0.952941
-0.148206055164 1.514855980873 0.436877369881 -0.028801 0.301785 0.952941
-0.103486493230 1.572347521782 0.420201033354 -0.033937 0.297888 0.953997
-0.470948249102 1.252909302711 0.480565011501 -0.177447 0.292993 0.939504
-0.386702120304 1.185643315315 0.516264736652 -0.173081 0.279383 0.944451
-0.377633512020 1.217501640320 0.507710516453 -0.112374 0.289528 0.950550
-0.356120765209 1.285997390747 0.489740312099 -0.125998 0.282502 0.950956
-0.347493082285 1.434310793877 0.444602042437 -0.124374 0.300905 0.945509
-0.321170121431 1.477428793907 0.434324353933 -0.124689 0.301667 0.945225
-0.303361654282 1.587899208069 0.400859445333 -0.082382 0.307296 0.948041
-0.181839093566 1.536394834518 0.427413582802 -0.081965 0.297938 0.951060
-0.197818711400 1.627071976662 0.397364914417 -0.082519 0.310430 0.947008
-0.245693325996 1.718017220497 0.363260984421 -0.085474 0.314281 0.945474
-0.419893473387 1.688229680061 0.349823862314 -0.161417 0.318695 0.934012
-0.614112377167 1.148978233337 0.440546035767 -0.769948 0.136049 0.623434
-0.591304004192 1.307623267174 0.423072755337 -0.509621 0.252487 0.822519
-0.573749065399 1.549466013908 0.355657696724 -0.376749 0.292019 0.879082
-0.454851150513 1.498573899269 0.406162112951 -0.191535 0.306176 0.932508
-0.415901631117 1.547264337540 0.397599875927 -0.160166 0.299798 0.940462
-0.362594664097 1.570902943611 0.398641824722 -0.133610 0.303659 0.943366
-0.334406822920 1.670958399773 0.369576245546 -0.133957 0.312566 0.940403
-0.419661551714 1.655705690384 0.360957384109 -0.158050 0.314726 0.935932
-0.555094540119 1.297401666641 0.444880545139 -0.301955 0.278615 0.911700
-0.093544222414 1.238939881325 0.524007856846 -0.031120 0.287551 0.957260
-0.124158665538 1.100880146027 0.562447845936 -0.030754 0.266946 0.963221
-0.192217245698 1.071641564369 0.566622197628 -0.059083 0.267760 0.961672
-0.247388705611 1.104648947716 0.554176211357 -0.056539 0.270131 0.961162
-0.375870496035 1.021124720573 0.562077820301 -0.126466 0.246413 0.960878
-0.391827344894 0.972375929356 0.572426617146 -0.132007 0.244409 0.960645
-0.490027070045 0.991919755936 0.551031708717 -0.180851 0.234436 0.955161
-0.163949787617 0.927501916885 0.603500306606 -0.051328 0.192183 0.980016
-0.183057293296 1.035247564316 0.576430022717 -0.050503 0.240197 0.969410
-0.243717014790 0.995862543583 0.582896888256 -0.092300 0.236439 0.967252
-0.253053486347 0.918764650822 0.600211203098 -0.090412 0.204355 0.974713
-0.305642247200 0.917893946171 0.595518648624 -0.090412 0.204355 0.974713
-0.336813330650 0.876906096935 0.601121306419 -0.093139 0.202423 0.974859
-0.342102468014 0.885326921940 0.598841249943 -0.130503 0.196388 0.971803
-0.395461350679 0.901762068272 0.588354527950 -0.147647 0.196435 0.969337
-0.460211127996 0.828178703785 0.593470990658 -0.154646 0.209227 0.965561
-0.202315747738 0.903713881969 0.606402158737 -0.051521 0.197699 0.978908
0.380656093359 1.618271470070 0.375648319721 0.155633 0.318153 0.935177
0.342105656862 1.335560321808 0.473963558674 0.119006 0.303532 0.945360
0.310794442892 1.318118095398 0.483268111944 0.106345 0.287525 0.951851
0.289877742529 1.012731075287 0.572441160679 0.084978 0.247324 0.965199
0.301746517420 0.884478151798 0.601543486118 0.085289 0.203951 0.975259
0.336352527142 0.959980547428 0.580926120281 0.126384 0.248859 0.960258
0.403505176306 1.409910082817 0.440237879753 0.184690 0.304114 0.934561
0.387525737286 1.459464073181 0.427265614271 0.185013 0.307428 0.933412
0.422247409821 1.558853745461 0.387508541346 0.197943 0.307443 0.930751
0.441769987345 1.687025427818 0.340977519751 0.179630 0.316093 0.931568
0.463640183210 1.472219586372 0.406408876181 0.249427 0.307098 0.918410
0.454182267189 1.396432638168 0.433667570353 0.216665 0.304464 0.927555
0.416977763176 1.133323073387 0.522926926613 0.169069 0.269158 0.948140
0.447007745504 1.096399307251 0.528069794178 0.169069 0.269158 0.948140
0.471205979586 1.323454022408 0.453396230936 0.226118 0.302913 0.925805
0.495879173279 1.528834939003 0.378709912300 0.272489 0.310375 0.910724
0.538586139679 1.561981439590 0.351763725281 0.369562 0.291124 0.882423
0.533837974072 1.446987390518 0.392924696207 0.336656 0.306731 0.890269
0.506996452808 1.264784097672 0.461798667908 0.295364 0.283724 0.912283
0.488638520241 1.159005403519 0.500345706940 0.278744 0.258731 0.924857
0.571799993515 1.212563395500 0.436426669359 0.646007 0.202942 0.735860
0.559164226055 1.260550737381 0.434493571520 0.656889 0.196294 0.727987
0.586477220058 1.379498124123 0.375375449657 0.658956 0.213421 0.721269
0.592978060246 1.381410598755 0.367848664522 0.732531 0.182749 0.655745
0.520940840244 1.234693050385 0.466471701860 0.475127 0.245966 0.844840
-0.407658994198 0.063224315643 0.650334298611 -0.014894 0.999885 -0.002979
-0.151930987835 0.066036604345 0.670953750610 -0.010858 0.999941 0.000987
0.008654881269 0.107494562864 0.684091687202 -0.011654 0.077339 -0.996937
-0.101822346449 0.089330762625 0.681884050369 0.011699 0.081895 -0.996572
-0.251776039600 0.109216570854 0.678975224495 0.047109 0.077784 -0.995857
-0.352644324303 0.107467189431 0.670435965061 0.126976 0.075719 -0.989012
0.403177946806 0.078627482057 0.657605111599 0.457530 -0.109071 0.882480
0.212575182319 -0.023548401892 0.653186440468 0.106478 -0.573233 0.812445
-0.381263762712 0.072953030467 0.665769934654 -0.226578 -0.086375 0.970155
-0.339971542358 0.108349859715 0.675212383270 -0.123341 -0.065705 0.990187
-0.151772841811 0.044983398169 0.684357941151 -0.040945 -0.174307 0.983840
-0.082003317773 0.088480234146 0.688545882702 -0.012908 0.004965 0.999904
0.205671235919 0.114696100354 0.684738218784 0.064539 -0.020102 0.997713
0.316846340895 0.122414961457 0.676911890507 0.088347 -0.061508 0.994189
0.226635038853 0.043540537357 0.678439557552 0.079920 -0.158648 0.984095
0.127966210246 0.063341826200 0.687382161617 0.031380 -0.173169 0.984392
-0.203157499433 -0.009418619797 0.666516125202 -0.059238 -0.354111 0.933326
-0.218999311328 0.001080645248 0.669260144234 -0.078606 -0.355725 0.931279
-0.367657363415 0.018274784088 0.659567713737 -0.120040 -0.275695 0.953721
-0.429972708225 0.101286247373 0.649882197380 -0.681246 -0.098582 0.725387
0.398559510708 0.072103731334 0.653814852238 -0.006910 0.999972 -0.002961
0.274479955435 0.088295146823 0.674787461758 -0.079729 0.077483 -0.993801
0.230481937528 0.070247851312 0.663766503334 -0.010858 0.999941 -0.000987
0.238019138575 0.108462162316 0.678573906422 -0.049295 0.077776 -0.995751
0.727713584900 -1.454971551895 0.126886129379 0.977464 0.015291 -0.210549
0.736492812634 -1.239994406700 0.159794420004 -0.979735 -0.024699 0.198770
0.736611545086 -1.369418978691 0.144102856517 -0.979178 -0.024745 0.201491
-0.587122678757 -0.920640110970 0.181306242943 0.401697 0.915765 0.003875
-0.549816906452 -0.939393699169 0.201365038753 0.442573 0.889388 0.114532
-0.686274409294 -0.808068156242 0.190169766545 -0.204272 -0.338548 0.918509
0.156487643719 -0.938526034355 0.216123849154 0.058873 -0.341465 0.938049
-0.431474834681 -0.886526763439 0.210602611303 -0.125003 -0.353032 0.927223
0.080881349742 -1.019334793091 0.204650580883 -0.080295 0.974663 0.208768
0.068400308490 -1.019368529320 0.200628712773 -0.057124 0.975974 0.210266
0.659219443798 -0.874095082283 0.176735550165 -0.517439 0.850995 -0.089803
0.633442759514 -0.833319723606 0.186707034707 0.184310 -0.266226 0.946126
0.140479028225 -0.925674378872 0.219080165029 -0.075723 0.933914 0.349387
-0.506278634071 -0.889189541340 0.196059256792 -0.115440 -0.211852 0.970460
-0.421794056892 -0.970904231071 0.188935697079 -0.086569 -0.184112 0.979086
-0.388548672199 -0.965121030807 0.193838551641 -0.112987 -0.180034 0.977150
-0.332653313875 -0.926094293594 0.204592332244 -0.057901 -0.166614 0.984321
0.493232369423 -0.911214172840 0.191663980484 0.134439 -0.206140 0.969243
0.474848002195 -0.887792348862 0.198739752173 0.099052 -0.214403 0.971710
0.391537725925 -0.937426149845 0.197182998061 0.086608 -0.181754 0.979523
0.239769518375 -0.977487206459 0.200017258525 0.039029 -0.192781 0.980465
0.235043793917 -0.995746552944 0.196624398232 0.032030 -0.202855 0.978685
0.019838497043 -1.019970297813 0.196746900678 0.013210 -0.246186 0.969133
0.206806898117 -1.008157253265 0.203138560057 -0.128447 0.970349 0.204753
-0.662486433983 -0.881449341774 0.173065498471 0.496503 0.839651 -0.220162
0.723479092121 -1.493392825127 -0.568401753902 -0.040928 -0.774816 -0.630861
0.692337453365 -1.494752287865 -0.564129889011 -0.067457 -0.773599 -0.630074
0.834846317768 -1.444546699524 -0.518367588520 0.998905 0.042441 0.019668
0.835040807724 -1.415464520454 -0.572488605976 0.999008 0.036233 0.025881
0.813788235188 -1.332579612732 -0.667728781700 0.287506 -0.316994 -0.903801
0.744026064873 -1.336452245712 -0.676235973835 0.053097 -0.332825 -0.941493
0.654938578606 -1.480656266212 -0.335554450750 -0.010925 0.962603 -0.270694
0.692520201206 -1.485875129700 -0.371974796057 -0.010858 0.999941 0.000987
0.828858971596 -1.484380960464 -0.400334060192 -0.010858 0.999941 0.000987
0.785865426064 -1.454632639885 -0.502482414246 -0.009448 0.854343 0.519624
0.640021741390 -1.440895915031 -0.526276051998 -0.009674 0.775274 0.631551
0.763240873814 -1.427773356438 -0.540746033192 -0.009674 0.775274 0.631551
0.732328414917 -1.402320265770 -0.566276133060 -0.006942 0.681659 0.731638
0.645462751389 -1.439335465431 -0.614476919174 -0.276465 -0.656805 -0.701551
0.776013135910 -1.549989342690 -0.381745755672 0.127937 -0.991782 0.001093
0.699986577034 -1.471608996391 -0.306632727385 -0.009060 0.917628 -0.397337
0.621556699276 -1.505790114403 -0.322462141514 -0.990224 -0.134979 0.035163
0.620714843273 -1.492251276970 -0.443428784609 -0.999690 0.023202 0.009079
0.631300568581 -1.463074326515 -0.583116412163 -0.567016 -0.567016 -0.597483
0.636276364326 -1.357300400734 -0.658551573753 -0.571636 -0.280276 -0.771154
0.688723683357 -1.275559663773 -0.685414016247 -0.074480 -0.067810 -0.994914
0.795539557934 -1.387579798698 -0.576728165150 -0.006844 0.576293 0.817214
0.620578408241 -1.449819087982 -0.518627583981 -0.999628 0.019282 0.019282
0.630053877831 -1.207117199898 -0.670729219913 -0.575939 0.160902 -0.801502
0.647082984447 -1.290644526482 -0.617527902126 -0.001156 0.202338 0.979315
0.790799498558 -1.156058311462 -0.666874945164 0.135653 0.332967 -0.933130
0.687719047070 -1.137619733810 -0.663464725018 -0.077942 0.334225 -0.939265
0.636907994747 -1.145930647850 -0.657949507236 -0.287506 0.316994 -0.903801
0.636704742908 -1.146402716637 -0.658050894737 -0.287506 0.316994 -0.903801
0.809616327286 -1.118442773819 -0.646723806858 0.278596 0.444831 -0.851181
0.792692363262 -1.232699990273 -0.619436919689 0.001043 -0.067764 0.997701
0.687410175800 -1.088159441948 -0.636638820171 -0.081937 0.573558 -0.815057
0.831244826317 -1.111160993576 -0.574994862080 0.999525 -0.009133 0.029428
0.776994884014 -1.158221364021 -0.600834965706 0.003966 -0.461432 0.887167
0.813573479652 -1.191524505615 -0.612641274929 0.001156 -0.202338 0.979315
0.821234285831 -1.059767127037 -0.597592592239 0.869967 0.340953 -0.356243
0.620553791523 -1.073867559433 -0.593501508236 -0.955676 0.194352 -0.221159
0.827752828598 -1.084838151932 -0.601196050644 0.951242 0.184851 -0.246918
0.788188636303 -1.022627949715 -0.573654413223 0.129632 0.770340 -0.624318
0.773333847523 -0.989292144775 -0.527067959309 0.107829 0.849690 -0.516140
0.796627283096 -0.977255344391 -0.493371099234 0.130378 0.909843 -0.393938
0.663757383823 -0.985649406910 -0.514400720596 -0.127155 0.909648 -0.395438
0.620060026646 -1.002907395363 -0.498061537743 -0.956457 0.266338 -0.119393
0.712714552879 -0.967267811298 -0.481103748083 -0.059226 0.961483 -0.268409
0.822499573231 -0.978014767170 -0.450696974993 0.869043 0.477037 -0.131149
0.822231888771 -1.021697521210 -0.421581059694 0.010006 -0.990556 0.136743
0.712469875813 -1.020419120789 -0.401394337416 0.010858 -0.999941 0.000987
0.707684755325 -1.024340629578 -0.343563109636 0.010006 -0.990556 -0.136743
0.732593953609 -1.032120704651 -0.313103318214 0.010925 -0.962603 -0.270694
0.802884697914 -0.969688951969 -0.309327006340 0.274648 0.926404 0.257572
0.646764934063 -1.063863992691 -0.252439886332 0.009674 -0.775274 -0.631551
0.830931127071 -1.071368336678 -0.205006316304 0.990745 0.098265 0.093641
0.620503127575 -1.100696921349 -0.212555989623 0.006942 -0.681659 -0.731638
0.695366263390 -1.077139854431 -0.235467210412 0.009674 -0.775274 -0.631551
0.831875085831 -1.149715304375 -0.170299574733 0.999494 -0.005063 -0.031392
0.744388639927 -0.972071707249 -0.281171262264 0.065881 0.915611 0.396630
0.645410120487 -1.119824409485 -0.197448134422 0.006844 -0.576293 -0.817214
0.827977240086 -1.107555389404 -0.204695597291 0.006844 -0.576293 -0.817214
0.667338788509 -1.239831805229 -0.155408769846 0.001043 -0.067764 -0.997701
0.732480347157 -1.246788978577 -0.154884174466 0.001043 -0.067764 -0.997701
0.661989331245 -1.268684625626 -0.155504062772 -0.001043 0.067764 -0.997701
0.694772660732 -1.284928083420 -0.156639456749 -0.001043 0.067764 -0.997701
0.778863608837 -1.011411190033 -0.213726386428 0.107448 0.772745 0.625556
0.640777587891 -1.010892271996 -0.224226236343 -0.293908 0.815712 0.498229
0.639093220234 -1.543215036392 -0.413779884577 -0.274272 -0.952664 -0.131173
0.656010746956 -1.548060178757 -0.385086208582 -0.127937 -0.991782 0.001093
0.705296278000 -1.465666770935 -0.293086707592 -0.009060 0.917628 -0.397337
0.835492014885 -1.441394329071 -0.220385968685 0.992680 -0.089830 0.080733
0.760399997234 -1.203029751778 -0.092759802938 0.072265 0.204546 0.976186
0.743442654610 -1.035933732986 -0.179739519954 0.041118 0.681994 0.730201
0.809753537178 -1.472037315369 -0.194472789764 0.292473 -0.739973 0.605723
0.733940601349 -1.457703232765 -0.167722553015 0.055930 -0.681199 0.729959
0.701235055923 -1.103398084641 -0.127662763000 -0.079254 0.457448 0.885697
0.683373570442 -1.335036158562 -0.169789284468 -0.003755 0.334192 -0.942497
0.806386172771 -1.310526490211 -0.162204667926 -0.001156 0.202338 -0.979315
0.826044559479 -0.999595403671 -0.282459974289 0.950141 0.287560 0.120590
0.826724171638 -1.484831452370 -0.416939705610 0.009949 -0.991551 -0.129333
0.732690215111 -1.473427295685 -0.414618968964 -0.999941 -0.010858 -0.000987
0.797032892704 -1.443618297577 -0.458108037710 0.538933 0.786938 0.300467
0.788931965828 -1.446672558784 -0.390085548162 0.795016 0.606321 0.018037
0.789903461933 -1.483357071877 -0.341911256313 0.010481 -0.979437 0.201478
0.816223204136 -1.339061617851 -0.400154531002 0.052942 -0.673934 -0.736892
0.731388747692 -1.354665875435 -0.357616752386 -0.999941 -0.010858 -0.000987
0.803444802761 -1.406329751015 -0.299228370190 0.135788 0.297119 0.945136
0.758738577366 -1.438087105751 -0.241608977318 0.009643 -0.792126 0.610281
0.783516108990 -1.442627191544 -0.247846409678 0.009643 -0.792126 0.610281
0.761556446552 -1.417649984360 -0.218960925937 0.006943 -0.726264 0.687381
0.788937807083 -1.303404331207 -0.200851485133 0.275686 -0.080782 -0.957847
0.820319592953 -1.311638474464 -0.159519717097 0.003685 -0.298483 0.954408
0.800429284573 -1.313719153404 -0.160103380680 0.003685 -0.298483 0.954408
0.775979101658 -1.354783773422 -0.175143808126 0.003920 -0.429880 0.902878
0.730850458145 -1.305551290512 -0.157618209720 -0.999941 -0.010858 -0.000987
0.730492949486 -1.272930979729 -0.231254801154 -0.999941 -0.010858 -0.000987
0.778913021088 -1.219079613686 -0.234307512641 -0.011162 0.999505 0.029427
0.794191956520 -1.218324899673 -0.254481524229 -0.011162 0.999505 0.029427
0.739441931248 -1.436823487282 -0.531610071659 0.009639 -0.802763 -0.596220
0.731554985046 -1.369832277298 -0.509667098522 -0.999941 -0.010858 0.000987
0.730259716511 -1.251647114754 -0.382670372725 -0.999941 -0.010858 0.000987
0.729605019093 -1.191900610924 -0.397289574146 -0.999941 -0.010858 -0.000987
0.777427077293 -1.196392655373 -0.321340203285 0.037813 0.366399 0.929689
0.747915387154 -1.217652678490 -0.205330595374 -0.007371 0.997174 -0.074762
0.841082811356 -1.313763499260 -0.326494157314 0.999414 0.033483 0.007102
0.829118788242 -1.437577486038 -0.349299132824 0.828693 -0.248454 -0.501537
0.841945111752 -1.357342958450 -0.376596450806 0.984443 -0.084722 -0.153931
0.817735433578 -1.367441415787 -0.486413657665 0.175287 -0.828495 0.531855
0.798792183399 -1.329944968224 -0.564366281033 0.548846 0.596132 0.585999
0.766471862793 -1.277483940125 -0.480958819389 -0.009657 0.784987 -0.619436
0.830886125565 -1.350502610207 -0.548042297363 0.877087 0.317697 -0.360259
0.797632157803 -1.182397007942 -0.543526291847 0.009481 -0.846511 -0.532286
0.729102373123 -1.146043300629 -0.585317194462 -0.999941 -0.010858 -0.000987
0.760553181171 -1.174562692642 -0.427574127913 -0.010310 0.984055 0.177565
0.745681524277 -1.142700672150 -0.479928314686 -0.009556 0.825872 0.563777
0.834888339043 -1.370178103447 -0.524352312088 0.680652 -0.627914 0.377408
0.822419404984 -1.166037917137 -0.446848392487 0.040075 0.852630 0.520975
0.829738318920 -1.174991011620 -0.428557097912 0.020651 0.965726 0.258742
0.745216369629 -1.131066203117 -0.383315771818 -0.003752 0.336413 -0.941707
0.840454280376 -1.178643345833 -0.332428604364 0.992817 0.039175 0.113049
0.817370176315 -1.308578133583 -0.370989978313 -0.008960 0.372479 -0.927997
0.815967679024 -1.268190741539 -0.366552770138 0.982486 -0.122963 0.140007
0.774019718170 -1.104358196259 -0.299851477146 0.027088 -0.359884 0.932604
0.798905253410 -1.275697708130 -0.618976116180 0.001036 -0.061152 -0.998128
0.812997341156 -1.293931365013 -0.616336822510 0.001142 -0.183806 -0.982962
0.834146380424 -1.274783372879 -0.612858951092 0.999538 0.013192 -0.027398
0.737724244595 -1.103784441948 -0.502652764320 -0.046156 -0.826617 0.560869
0.728457987309 -1.087244272232 -0.282700151205 -0.999941 -0.010858 -0.000987
0.807063281536 -1.089316487312 -0.516529738903 0.358395 -0.763819 0.536781
0.793794631958 -1.077264428139 -0.540699899197 -0.006942 0.728957 -0.684525
0.727912545204 -1.037471055984 -0.470553308725 -0.999941 -0.010858 -0.000987
0.751916050911 -1.019917726517 -0.400219470263 -0.010966 0.999880 0.010966
0.797068893909 -1.020136833191 -0.407490015030 -0.009949 0.991551 -0.129333
0.821917533875 -1.235054731369 -0.152409419417 -0.001079 0.111142 0.993804
0.815443158150 -1.088110327721 -0.219967678189 -0.006943 0.726264 0.687381
0.763423740864 -1.024587392807 -0.337211340666 -0.010481 0.979437 0.201478
0.797753870487 -1.173365116119 -0.196938976645 0.392864 -0.307259 -0.866747
0.810859560966 -1.042212009430 -0.377884358168 0.362378 -0.932010 0.006358
0.834487915039 -1.364133238792 -0.579109907150 0.740196 0.349763 0.574262
0.738874077797 -1.220852255821 -0.573741853237 0.001112 -0.147960 0.988993
0.755840420723 -1.217423677444 -0.573256969452 0.001112 -0.147960 0.988993
0.816161453724 -1.166070461273 -0.603264689445 -0.003717 0.318455 -0.947931
0.780160963535 -1.282976388931 -0.574267446995 -0.003337 0.147959 0.988988
0.810921192169 -1.338135242462 -0.560478031635 0.141481 0.802721 -0.579329
0.816290616989 -1.306813597679 -0.518333554268 0.148780 0.764941 -0.626681
0.747937679291 -1.288393616676 -0.226707443595 0.011563 -0.997596 -0.068328
0.792804300785 -1.370119452477 -0.308178871870 0.009456 -0.852408 0.522792
0.793083965778 -1.203745722771 -0.326865196228 0.999941 0.010858 0.000987
0.794176995754 -1.303483366966 -0.430392444134 0.999941 0.010858 -0.000987
0.789340257645 -1.231582403183 -0.320198237896 -0.999941 -0.010858 0.000987
0.789910316467 -1.283599972725 -0.423878133297 -0.999941 -0.010858 0.000987
0.789840996265 -1.277272820473 -0.255836665630 -0.999941 -0.010858 0.000987
0.792437255383 -1.213901758194 -0.521311640739 -0.003545 0.232790 -0.972520
0.788433313370 -1.148825526237 -0.369234979153 -0.999941 -0.010858 0.000987
0.705566585064 1.009029030800 -0.430682063103 0.058995 -0.989041 -0.135342
0.751229703426 1.099356412888 -0.600179374218 0.123830 -0.675843 -0.726569
0.797716140747 1.098178982735 -0.580378234386 0.877374 -0.368225 -0.307611
0.765458643436 1.055311322212 -0.542030632496 0.148863 -0.844539 -0.514387
0.737091541290 1.118442893028 -0.620071828365 0.081937 -0.573558 -0.815057
0.630935251713 1.133194327354 -0.626927971840 -0.134574 -0.572308 -0.808921
0.624721348286 1.113620400429 -0.610678911209 -0.133204 -0.677996 -0.722896
0.740897953510 1.039813995361 -0.521539092064 0.085820 -0.914054 -0.396408
0.747461140156 1.023535847664 -0.479140907526 0.127782 -0.955070 -0.267420
0.625034570694 1.073067307472 -0.375602304935 -0.010858 0.999941 0.000987
0.790976047516 1.074885964394 -0.376264780760 -0.010858 0.999941 0.000987
0.616014242172 1.103215098381 -0.502527356148 -0.009448 0.854343 0.519624
0.772856712341 1.135616779327 -0.545174539089 -0.009674 0.775274 0.631551
0.623154461384 1.157173871994 -0.567218005657 -0.006942 0.681659 0.731638
0.615399539471 1.245700240135 -0.673717319965 -0.281514 -0.198308 -0.938842
0.683327913284 1.020185470581 -0.296809792519 -0.038490 -0.962250 0.269430
0.791789710522 1.023111462593 -0.331301331520 0.584161 -0.803771 0.112733
0.751443207264 1.087854146957 -0.308434814215 -0.009060 0.917628 -0.397337
0.607329845428 1.032395482063 -0.480764895678 -0.566049 -0.794319 -0.220558
0.606595337391 1.046818256378 -0.514234125614 -0.564771 -0.757855 -0.326634
0.730578422546 1.267143130302 -0.684559285641 0.076690 -0.067798 -0.994747
0.736537396908 1.176417112350 -0.580229997635 -0.006844 0.576293 0.817214
0.806139171124 1.213022232056 -0.617156088352 0.999139 0.023715 0.034026
0.592331647873 1.071318030357 -0.485147416592 -0.990258 -0.129363 -0.051516
0.591032385826 1.199246764183 -0.609520912170 -0.999494 0.005063 0.031392
0.764502704144 1.240055322647 -0.610610246658 -0.003755 0.334192 0.942497
0.804818749428 1.267000436783 -0.643963575363 0.991743 -0.014405 -0.127431
0.802968561649 1.451831817627 -0.570652604103 0.999525 -0.009133 0.029428
0.804372847080 1.387561202049 -0.626692235470 0.999443 -0.001011 0.033348
0.670031428337 1.518149614334 -0.599513947964 -0.082937 0.679501 -0.728972
0.714860856533 1.466012239456 -0.557085037231 0.006942 -0.681659 0.731638
0.802846252918 1.479430675507 -0.578185975552 0.990745 0.098265 -0.093641
0.594519555569 1.533623456955 -0.550199687481 -0.877374 0.368225 -0.307611
0.663710117340 1.485093951225 -0.536207914352 0.009674 -0.775274 0.631551
0.604950428009 1.543303012848 -0.555000901222 -0.293908 0.815712 -0.498229
0.709250211716 1.582380771637 -0.506104052067 0.038355 0.916542 -0.398094
0.696302235126 1.591871380806 -0.483803927898 0.038398 0.962434 -0.268788
0.591924667358 1.573950529099 -0.448581933975 -0.956735 0.279423 -0.081123
0.689814984798 1.528032422066 -0.458782821894 0.010925 -0.962603 0.270694
0.700107753277 1.604388237000 -0.427831232548 0.037512 0.990098 -0.135272
0.695021927357 1.536358356476 -0.423268705606 0.010006 -0.990556 0.136743
0.627534866333 1.538332104683 -0.383260518312 0.010858 -0.999941 0.000987
0.795086622238 1.585836052895 -0.361810177565 0.868174 0.491919 0.065496
0.622562408447 1.529950857162 -0.325933039188 0.010925 -0.962603 -0.270694
0.793119311333 1.387540459633 -0.112874537706 0.571636 0.280276 0.771154
0.784819424152 1.583399415016 -0.297651469707 0.566049 0.794319 0.220558
0.760973513126 1.598319172859 -0.337421566248 0.127840 0.982544 0.135145
0.642608225346 1.600145816803 -0.346559375525 -0.127840 0.982544 0.135145
0.769366085529 1.523005723953 -0.300424695015 0.009060 -0.917628 -0.397337
0.782628595829 1.207683920860 -0.113288424909 0.287506 -0.316994 0.903801
0.775496661663 1.533462882042 -0.201367631555 0.275245 0.746185 0.606176
0.759243786335 1.580823183060 -0.275857448578 0.130378 0.909843 0.393938
0.749636590481 1.590334415436 -0.299016684294 0.105297 0.958068 0.266491
0.660597980022 1.597173213959 -0.318684041500 -0.086055 0.959445 0.268439
0.713477611542 1.581437945366 -0.267372041941 0.038355 0.916542 0.398094
0.752898097038 1.387712001801 -0.169414341450 0.003755 -0.334192 -0.942497
0.674895048141 1.310143828392 -0.154739320278 0.001043 -0.067764 -0.997701
0.694151222706 1.293101668358 -0.155384257436 -0.001043 0.067764 -0.997701
0.691929280758 1.287535905838 -0.155763208866 -0.001043 0.067764 -0.997701
0.804127156734 1.198348999023 -0.144773676991 0.955070 -0.127782 0.267420
0.756734192371 1.144280314445 -0.139752820134 0.122137 -0.572424 0.810811
0.756871819496 1.442277669907 -0.124261826277 0.112149 0.458532 0.881573
0.710529565811 1.573363542557 -0.248702928424 0.039981 0.853382 0.519750
0.681230783463 1.556197285652 -0.220767945051 -0.057263 0.853363 0.518163
0.589954555035 1.295646071434 -0.141295611858 -0.999322 -0.009168 -0.035654
0.758152008057 1.097687005997 -0.285966664553 -0.009060 0.917628 -0.397337
0.706832826138 1.124564766884 -0.242758870125 -0.009674 0.775274 -0.631551
0.712980628014 1.130532503128 -0.235506400466 -0.009674 0.775274 -0.631551
0.685738384724 1.169026732445 -0.199832201004 -0.006844 0.576293 -0.817214
0.723919332027 1.402953267097 -0.104110419750 0.072264 0.335041 0.939428
0.647689759731 1.546656250954 -0.211873084307 -0.126464 0.769200 0.626370
0.697902917862 1.418668866158 -0.108287334442 0.045194 0.334438 0.941333
