0.075935050845 2.047458648682 0.226918071508 0.034113 0.866475 -0.498053
0.694500863552 -1.142428040504 0.228708654642 -0.995717 0.092452 0.001063
0.661058127880 -1.383752107620 0.187896564603 -0.988665 0.150135 0.001112
0.642739534378 -1.503728508949 0.163281351328 -0.988665 0.150135 0.001112
0.512972891331 -2.003330945969 -0.404963701963 -0.007006 0.017014 0.999831
0.546481132507 -1.964331746101 -0.405396670103 -0.007006 0.017014 0.999831
0.600631058216 -2.014174222946 -0.404054552317 -0.011031 0.017048 0.999794
0.615585446358 -1.988782882690 -0.404323697090 -0.011031 0.017048 0.999794
0.609292685986 -1.837879896164 -0.406739145517 -0.017150 0.015132 0.999738
0.685156702995 -1.849810838699 -0.405051290989 -0.021184 0.013114 0.999690
0.707469522953 -1.780487179756 -0.405513435602 -0.021184 0.013114 0.999690
0.701174318790 -1.753838300705 -0.406790554523 0.003159 0.076857 0.997037
0.449890553951 -2.050510883331 -0.404508322477 -0.004994 0.016980 0.999843
0.437761068344 -2.071418523788 -0.404217064381 -0.004994 0.016980 0.999843
0.423908263445 -1.892674326897 -0.410262346268 -0.051758 0.030632 0.998190
0.476808488369 -1.915792942047 -0.406744241714 -0.051758 0.030632 0.998190
0.443144381046 -1.974665164948 -0.406694769859 -0.051758 0.030632 0.998190
0.486492514610 -1.820911169052 -0.409182399511 -0.051758 0.030632 0.998190
0.343484610319 -1.900833845139 -0.413223892450 -0.003067 0.046010 0.998936
0.340798854828 -1.659479260445 -0.420346051455 -0.052451 -0.001028 0.998623
0.444634497166 -1.666457176208 -0.414878576994 -0.052451 -0.001028 0.998623
0.468320071697 -1.699042201042 -0.413660764694 -0.052451 -0.001028 0.998623
0.354483932257 -1.578068971634 -0.419547528028 -0.052451 -0.001028 0.998623
0.479750186205 -1.558795809746 -0.412924617529 -0.052451 -0.001028 0.998623
0.461510479450 -1.395586848259 -0.413729697466 -0.052451 -0.001028 0.998623
0.511032640934 -1.628998041153 -0.411342233419 -0.052451 -0.001028 0.998623
0.467165172100 -1.531399726868 -0.413562029600 -0.052451 -0.001028 0.998623
0.361601173878 -1.201776623726 -0.415759295225 -0.053426 -0.021999 0.998329
0.397828549147 -1.286997556686 -0.415708363056 -0.053426 -0.021999 0.998329
0.453910797834 -1.318239688873 -0.413437724113 -0.053426 -0.021999 0.998329
0.510785818100 -1.320628523827 -0.410497248173 -0.053426 -0.021999 0.998329
0.362445384264 -1.041478991508 -0.413644462824 0.002979 0.014894 0.999885
0.387112259865 -1.055594444275 -0.413502454758 0.002979 0.014894 0.999885
0.542827486992 -1.218382239342 -0.411511391401 0.002979 0.014894 0.999885
0.394910365343 -1.089605093002 -0.413018584251 0.002979 0.014894 0.999885
0.437997102737 -0.971553981304 -0.415015637875 0.002996 0.018978 0.999815
0.363727122545 -0.987180650234 -0.414500147104 0.002996 0.018978 0.999815
0.475588262081 -0.934390246868 -0.415846973658 0.002996 0.018978 0.999815
0.680271029472 -0.981008410454 -0.415210515261 -0.000995 0.018902 0.999821
0.725118637085 -0.920271039009 -0.416486054659 0.000999 0.022971 0.999736
0.577325940132 -0.776664316654 -0.417514890432 0.000983 0.004916 0.999987
0.659601807594 -0.898726463318 -0.416891396046 0.000983 0.004916 0.999987
0.696100413799 -0.636074781418 -0.418436527252 0.000983 0.004916 0.999987
0.594376444817 -0.682085573673 -0.418074995279 0.000983 0.004916 0.999987
0.589139580727 -0.692728996277 -0.418008804321 0.000983 0.004916 0.999987
0.631443321705 -0.512450575829 -0.419085770845 0.000983 0.004916 0.999987
0.638256251812 -0.872866928577 -0.417019754648 0.000983 0.004916 0.999987
0.795235395432 -0.596569418907 -0.417703300714 -0.008867 0.000985 0.999960
0.840910971165 -0.473712325096 -0.417408704758 -0.008867 0.000985 0.999960
0.720373094082 -0.663630187511 -0.418279796839 -0.008867 0.000985 0.999960
0.685544669628 -0.411037057638 -0.418745696545 -0.008867 0.000985 0.999960
0.806598782539 -0.408535391092 -0.417739719152 -0.008867 0.000985 0.999960
0.779093146324 -0.671548545361 -0.417785465717 -0.008867 0.000985 0.999960
0.766134083271 -0.722676455975 -0.417857706547 -0.008867 0.000985 0.999960
0.758467495441 -0.356638997793 -0.417675077915 -0.008972 -0.012960 0.999876
0.734879910946 -0.381603747606 -0.418183863163 -0.008972 -0.012960 0.999876
0.609021067619 -0.227241620421 -0.417315751314 -0.008972 -0.012960 0.999876
0.694139540195 -0.327390164137 -0.417849928141 -0.008972 -0.012960 0.999876
0.630818426609 -0.314468085766 -0.418219774961 -0.008972 -0.012960 0.999876
0.623251378536 -0.132218062878 -0.416012585163 -0.008972 -0.012960 0.999876
0.819177091122 -0.170251965523 -0.414537489414 -0.011009 -0.015012 0.999827
0.787482798100 -0.152919501066 -0.414631068707 -0.011009 -0.015012 0.999827
0.712188899517 -0.094032645226 -0.414603531361 -0.011009 -0.015012 0.999827
0.818669259548 -0.247746050358 -0.415636122227 -0.011009 -0.015012 0.999827
0.682985663414 -0.148121863604 -0.415678083897 -0.011009 -0.015012 0.999827
0.815672039986 -0.024639980868 -0.412520706654 -0.011009 -0.015012 0.999827
0.699044108391 0.177792027593 -0.411461859941 -0.010966 -0.010966 0.999880
0.638276040554 0.047741744667 -0.413563609123 -0.010966 -0.010966 0.999880
0.595073103905 0.271098136902 -0.411525458097 -0.010966 -0.010966 0.999880
0.733243763447 0.063602626324 -0.412374854088 -0.010966 -0.010966 0.999880
0.816027760506 0.019074603915 -0.411991298199 -0.010966 -0.010966 0.999880
0.622575700283 0.198183402419 -0.412048131227 -0.010966 -0.010966 0.999880
0.689119637012 0.081630140543 -0.412643104792 -0.010966 -0.010966 0.999880
0.647878646851 0.341164052486 -0.410179466009 -0.015042 -0.013037 0.999802
0.812504768372 0.063893318176 -0.411490947008 -0.015042 -0.013037 0.999802
0.702336728573 0.384549796581 -0.408837318420 -0.015042 -0.013037 0.999802
0.756119430065 0.269965469837 -0.409581243992 -0.015042 -0.013037 0.999802
0.699068963528 0.435142487288 -0.408218592405 -0.015042 -0.013037 0.999802
0.784911394119 0.286095768213 -0.408961176872 -0.015042 -0.013037 0.999802
0.705001354218 0.262182116508 -0.410408079624 -0.015042 -0.013037 0.999802
0.593712329865 0.640026390553 -0.406033366919 -0.015132 -0.019167 0.999702
0.611563384533 0.624901950359 -0.406074494123 -0.015132 -0.019167 0.999702
0.680293142796 0.571619391441 -0.406136304140 -0.015132 -0.019167 0.999702
0.593062281609 0.572277605534 -0.407362759113 -0.015132 -0.019167 0.999702
0.499979823828 0.572715520859 -0.407850742340 -0.000995 -0.018902 0.999821
0.441345155239 0.782520830631 -0.404033899307 -0.000995 -0.018902 0.999821
0.502160787582 0.773552358150 -0.404161542654 -0.000995 -0.018902 0.999821
0.495697885752 0.572124421597 -0.407855719328 0.002985 -0.016913 0.999852
0.383005142212 0.635781526566 -0.406589627266 0.002985 -0.016913 0.999852
0.363934069872 0.634743928909 -0.406567394733 0.002985 -0.016913 0.999852
0.335657417774 0.573449134827 -0.407505810261 0.002985 -0.016913 0.999852
0.517316818237 0.376771360636 -0.410517215729 0.002967 -0.010880 0.999936
0.434210181236 0.397624015808 -0.410104811192 0.002967 -0.010880 0.999936
0.409751474857 0.331460356712 -0.410788774490 0.002967 -0.010880 0.999936
0.483158588409 0.417326778173 -0.409991443157 0.002967 -0.010880 0.999936
0.396420568228 0.485437572002 -0.409044772387 0.002967 -0.010880 0.999936
0.492444038391 0.449404239655 -0.409654259682 0.002967 -0.010880 0.999936
0.530728936195 0.377529352903 -0.410537809134 0.002967 -0.010880 0.999936
0.385612368584 0.014152662829 -0.414272427559 0.002967 -0.010880 0.999936
0.404948353767 0.065511159599 -0.413741827011 0.002967 -0.010880 0.999936
0.320645660162 0.009386084974 -0.414185345173 0.002967 -0.010880 0.999936
0.449343383312 0.047151334584 -0.414042234421 0.002967 -0.010880 0.999936
0.481392174959 0.013027472422 -0.414491653442 0.002967 -0.010880 0.999936
0.397989898920 0.252325892448 -0.411645025015 0.002967 -0.010880 0.999936
0.372271776199 0.005645612720 -0.414338409901 0.002967 -0.010880 0.999936
0.542986750603 -0.080610841513 -0.415758281946 0.002973 -0.012883 0.999913
0.448063462973 -0.118203125894 -0.416023105383 0.002973 -0.012883 0.999913
0.482942104340 -0.234907388687 -0.417546927929 0.002973 -0.012883 0.999913
0.489219337702 -0.206936523318 -0.417212873697 0.002973 -0.012883 0.999913
0.431385070086 -0.098560489714 -0.415743589401 0.002973 -0.012883 0.999913
0.438971668482 -0.280880957842 -0.418024420738 0.002973 -0.012883 0.999913
0.453126996756 -0.319682270288 -0.418536543846 0.002973 -0.012883 0.999913
0.427648931742 -0.186022907495 -0.416822016239 0.002973 -0.012883 0.999913
0.506003320217 -0.306929826736 -0.418490648270 0.002973 -0.012883 0.999913
0.455216199160 -0.336930930614 -0.418755233288 0.002973 -0.012883 0.999913
0.396348625422 -0.460946708918 -0.418880462646 0.002956 0.004926 0.999984
0.432284295559 -0.408169388771 -0.419275432825 0.002956 0.004926 0.999984
0.487894058228 -0.532420396805 -0.418701380491 0.002956 0.004926 0.999984
0.379615902901 -0.487985998392 -0.418682336807 0.002956 0.004926 0.999984
0.406162083149 -0.420106679201 -0.419140428305 0.002956 0.004926 0.999984
0.438748717308 -0.610759615898 -0.418125748634 0.002956 0.004926 0.999984
0.337156295776 -0.413976550102 -0.419000566006 0.002956 0.004926 0.999984
0.423174768686 -0.713137388229 -0.417495816946 0.002956 0.004926 0.999984
0.398831903934 -0.724693775177 -0.417366892099 0.002956 0.004926 0.999984
0.561532437801 -0.883254051208 -0.416868805885 0.002956 0.004926 0.999984
0.360170722008 -0.509962201118 -0.418506294489 0.002956 0.004926 0.999984
0.354988932610 -0.641422986984 -0.417734891176 0.002956 0.004926 0.999984
0.322719991207 -0.666384816170 -0.417508363724 0.002956 0.004926 0.999984
0.330152362585 -0.823705613613 -0.416620135307 0.002956 0.004926 0.999984
0.285879611969 -0.814812541008 -0.416610419750 -0.000981 0.004907 0.999987
0.240640729666 -0.611792981625 -0.417781591415 -0.000981 0.004907 0.999987
0.011929737404 -0.403524369001 -0.418992042542 -0.000981 0.004907 0.999987
0.203791946173 -0.413366526365 -0.418925881386 -0.000981 0.004907 0.999987
0.028103984892 -0.417454898357 -0.418911069632 -0.000981 0.004907 0.999987
0.027046039701 -0.421619027853 -0.418887108564 -0.000981 0.004907 0.999987
0.140957117081 -0.487226665020 -0.418503731489 -0.000981 0.004907 0.999987
0.182280361652 -0.471721559763 -0.418590962887 -0.000981 0.004907 0.999987
0.017785636708 -0.856841921806 -0.416378349066 -0.000981 0.004907 0.999987
-0.001577901770 -0.817230641842 -0.416607439518 -0.000981 0.004907 0.999987
0.238136306405 -0.798809230328 -0.416704803705 -0.000981 0.004907 0.999987
0.047705430537 -0.804914295673 -0.416676640511 -0.000981 0.004907 0.999987
0.159502595663 -0.698918700218 -0.417283624411 -0.000981 0.004907 0.999987
0.157847240567 -0.770045697689 -0.416873604059 -0.000981 0.004907 0.999987
0.076394513249 -0.808082938194 -0.416657269001 -0.000981 0.004907 0.999987
0.097183078527 -0.574140191078 -0.418005317450 -0.000981 0.004907 0.999987
0.194767370820 -0.945519626141 -0.415156513453 -0.000995 0.018902 0.999821
0.297807365656 -0.959728300571 -0.414871633053 -0.000995 0.018902 0.999821
0.171554550529 -0.991784632206 -0.414261192083 -0.000995 0.018902 0.999821
0.298281431198 -1.132535457611 -0.417120456696 0.000997 -0.020933 0.999780
0.232684507966 -1.144300341606 -0.417371720076 0.000997 -0.020933 0.999780
0.191874712706 -1.129878878593 -0.417058944702 0.000997 -0.020933 0.999780
0.087670303881 -1.064915895462 -0.415652990341 0.000997 -0.020933 0.999780
0.285887300968 -1.073656916618 -0.415849417448 0.000997 -0.020933 0.999780
0.102347448468 -1.198648452759 -0.418539345264 0.000997 -0.020933 0.999780
0.052613396198 -1.200519800186 -0.418577760458 0.000997 -0.020933 0.999780
0.139464512467 -1.159462451935 -0.417695254087 0.000997 -0.020933 0.999780
0.068376384676 -1.306565165520 -0.420866698027 0.000997 -0.020933 0.999780
0.030720572919 -1.144980430603 -0.417378425598 0.000997 -0.020933 0.999780
0.212420448661 -1.264694213867 -0.419968903065 0.000997 -0.020933 0.999780
0.184423983097 -1.380895972252 -0.421816825867 -0.000978 -0.000978 0.999999
0.135359480977 -1.356690764427 -0.421800106764 -0.000978 -0.000978 0.999999
0.214823037386 -1.437024354935 -0.421858340502 -0.000978 -0.000978 0.999999
0.247018903494 -1.612544775009 -0.421990156174 -0.000978 -0.000978 0.999999
0.079046182334 -1.429089307785 -0.421856671572 -0.000978 -0.000978 0.999999
0.228871867061 -1.658358931541 -0.422025054693 -0.000978 -0.000978 0.999999
0.187197536230 -1.600417971611 -0.421982645988 -0.000978 -0.000978 0.999999
0.237689390779 -1.692863345146 -0.422050684690 -0.000978 -0.000978 0.999999
0.197022512555 -1.651198744774 -0.422020435333 -0.000978 -0.000978 0.999999
0.057527441531 -1.594390273094 -0.421981096268 -0.000978 -0.000978 0.999999
0.238650560379 -2.022070884705 -0.408786296844 -0.001016 0.041673 0.999131
0.089006878436 -1.733138322830 -0.421055555344 -0.001016 0.041673 0.999131
0.147836148739 -1.874962449074 -0.415035605431 -0.001016 0.041673 0.999131
0.116513252258 -1.856641888618 -0.415817290545 -0.001016 0.041673 0.999131
0.061224330217 -1.773965597153 -0.419330179691 -0.001016 0.041673 0.999131
0.146331623197 -1.892585396767 -0.414289027452 -0.001016 0.041673 0.999131
0.212146148086 -2.039726734161 -0.408042579889 -0.001016 0.041673 0.999131
0.148402392864 -1.949205994606 -0.411894738674 -0.005093 0.039723 0.999198
0.171921104193 -2.041325092316 -0.408130079508 -0.005093 0.039723 0.999198
0.087701164186 -1.879923701286 -0.414913773537 -0.005093 0.039723 0.999198
0.007498145569 -2.002520322800 -0.410037100315 -0.001016 0.041673 0.999131
0.041077304631 -2.117847919464 -0.405271083117 -0.001016 0.041673 0.999131
0.043825853616 -1.929146528244 -0.413014233112 -0.001016 0.041673 0.999131
0.058431580663 -2.037539958954 -0.408550918102 -0.001016 0.041673 0.999131
0.289017200470 -2.052581310272 -0.407424420118 -0.005113 0.041928 0.999108
0.314970731735 -2.091648101807 -0.405546367168 -0.026036 0.042699 0.998749
0.069358751178 -0.309801101685 -0.418092697859 0.000989 -0.012857 0.999917
0.158233895898 -0.249847605824 -0.417347848415 0.000989 -0.012857 0.999917
0.110625736415 -0.223128885031 -0.417014807463 0.000989 -0.012857 0.999917
0.104394733906 -0.208787813783 -0.416836261749 0.000989 -0.012857 0.999917
0.043359924108 -0.336274087429 -0.418421745300 0.000989 -0.012857 0.999917
0.100002028048 -0.347110867500 -0.418557345867 0.000989 -0.012857 0.999917
0.152775108814 -0.094434283674 -0.415415436029 0.000989 -0.012857 0.999917
0.127529084682 -0.164705798030 -0.416288137436 0.000989 -0.012857 0.999917
0.171948656440 -0.200315862894 -0.416732043028 0.000989 -0.012857 0.999917
0.183728560805 -0.238223493099 -0.417203575373 0.000989 -0.012857 0.999917
0.150153473020 -0.094563513994 -0.415416955948 0.000989 -0.012857 0.999917
0.250328838825 -0.121531412005 -0.415755063295 0.000989 -0.012857 0.999917
0.137809351087 0.250832587481 -0.411449879408 0.000987 -0.010858 0.999941
0.218161106110 0.032668903470 -0.413885325193 0.000987 -0.010858 0.999941
0.040427185595 0.395454287529 -0.409834295511 0.000987 -0.010858 0.999941
0.225556448102 0.048941619694 -0.413704007864 0.000987 -0.010858 0.999941
0.033909283578 0.397220641375 -0.409814447165 0.000987 -0.010858 0.999941
0.117043480277 0.115436173975 -0.412959635258 0.000987 -0.010858 0.999941
0.006294570398 0.047291979194 -0.413716971874 0.000987 -0.010858 0.999941
0.012887687422 0.197915554047 -0.412037044764 0.000987 -0.010858 0.999941
0.281412184238 0.272730350494 -0.411209911108 0.000987 -0.010858 0.999941
0.084989055991 0.474323689938 -0.408956110477 0.000987 -0.010858 0.999941
0.198950231075 0.217247650027 -0.411826193333 0.000987 -0.010858 0.999941
0.140971451998 0.282564520836 -0.411096125841 0.000987 -0.010858 0.999941
0.278666913509 0.187665119767 -0.412158429623 0.000987 -0.010858 0.999941
0.271621733904 0.066201679409 -0.413512676954 0.000987 -0.010858 0.999941
0.184499159455 0.351236939430 -0.410331606865 0.000987 -0.010858 0.999941
0.258439898491 0.235387638211 -0.411625653505 0.000987 -0.010858 0.999941
0.022400224581 0.710602700710 -0.405283033848 0.000993 -0.014894 0.999889
0.079240351915 0.632262051105 -0.406527012587 0.000993 -0.014894 0.999889
0.014316600747 0.620807290077 -0.406705558300 0.000993 -0.014894 0.999889
0.168190822005 0.599161624908 -0.407055616379 0.000993 -0.014894 0.999889
0.049644377083 0.707699894905 -0.405330300331 0.000993 -0.014894 0.999889
0.281622111797 0.604295372963 -0.406954735518 -0.000993 -0.016879 0.999857
0.153803721070 0.666542887688 -0.405979722738 -0.000993 -0.016879 0.999857
0.202006950974 0.612356722355 -0.406842142344 -0.000993 -0.016879 0.999857
0.201627597213 0.789561688900 -0.403987646103 -0.000993 -0.016879 0.999857
0.093142196536 0.735017120838 -0.404889851809 -0.000993 -0.016879 0.999857
-0.006538526621 1.024658679962 -0.407449007034 0.000993 0.016879 0.999857
0.083988718688 1.043979525566 -0.407776355743 0.000993 0.016879 0.999857
0.035473857075 0.912455677986 -0.405652999878 0.000993 0.016879 0.999857
0.107562057674 0.937799811363 -0.406073778868 0.000993 0.016879 0.999857
0.159923568368 0.861365675926 -0.404854714870 0.000993 0.016879 0.999857
0.166873529553 1.017105460167 -0.407361716032 0.000993 0.016879 0.999857
0.119454234838 1.042632818222 -0.407762497663 0.000993 0.016879 0.999857
0.050740797073 1.127700328827 -0.409117758274 0.000993 0.016879 0.999857
0.276579707861 0.986956417561 -0.406900286674 0.000993 0.016879 0.999857
0.310950309038 0.809665024281 -0.404051572084 0.000993 0.016879 0.999857
0.346023827791 1.071503639221 -0.408280104399 0.000993 0.016879 0.999857
0.421718567610 0.875241398811 -0.405141741037 0.000993 0.016879 0.999857
0.412046521902 0.869494378567 -0.405046135187 0.000993 0.016879 0.999857
0.384697347879 0.957012593746 -0.406447589397 0.000993 0.016879 0.999857
0.439727157354 1.077520251274 -0.407289892435 -0.012960 0.006978 0.999892
0.458524465561 1.089563012123 -0.407118797302 -0.012960 0.006978 0.999892
0.502849698067 1.035719156265 -0.406124621630 -0.012960 0.006978 0.999892
0.512309670448 1.020119071007 -0.405882924795 -0.012960 0.006978 0.999892
0.441715002060 1.276241660118 -0.404594093561 -0.015192 -0.023294 0.999613
0.398070722818 1.339873433113 -0.403793394566 -0.015192 -0.023294 0.999613
0.334984123707 1.186668157578 -0.408134132624 -0.015192 -0.023294 0.999613
0.427569001913 1.215549468994 -0.406158089638 -0.015192 -0.023294 0.999613
0.350000768900 1.218124151230 -0.407213270664 -0.015192 -0.023294 0.999613
0.469743400812 1.458602428436 -0.396977543831 -0.047730 -0.039245 0.998089
0.430996090174 1.415552020073 -0.400528788567 -0.047730 -0.039245 0.998089
0.416538536549 1.529379010201 -0.396724343300 -0.047730 -0.039245 0.998089
0.407761573792 1.412224173546 -0.401770234108 -0.047730 -0.039245 0.998089
0.500658333302 1.668325304985 -0.365783125162 -0.093618 -0.168998 0.981160
0.514331161976 1.598050832748 -0.376658648252 -0.093618 -0.168998 0.981160
0.517558157444 1.514973402023 -0.390740841627 -0.093618 -0.168998 0.981160
0.456328690052 1.701798439026 -0.364184617996 -0.093618 -0.168998 0.981160
0.454109847546 1.998451828957 -0.313018620014 -0.093618 -0.168998 0.981160
0.452218294144 1.713119506836 -0.362613260746 -0.093618 -0.168998 0.981160
0.521405935287 2.012036323547 -0.308770000935 -0.007898 -0.159086 0.987233
0.488293409348 1.907322168350 -0.325940907001 -0.007898 -0.159086 0.987233
0.515685081482 1.845814585686 -0.335667759180 -0.007898 -0.159086 0.987233
0.554666817188 1.609948635101 -0.373678863049 0.017074 -0.160497 0.986889
0.600159347057 1.933979749680 -0.321601092815 0.017074 -0.160497 0.986889
0.597977161407 1.693064689636 -0.359935730696 -0.023926 -0.153811 0.987811
0.615011870861 1.680848717690 -0.361995875835 0.005639 -0.161286 0.986892
0.644717335701 1.772419810295 -0.347095489502 0.005639 -0.161286 0.986892
0.783894479275 1.686506509781 -0.363672494888 0.014820 -0.165305 0.986131
0.752225041389 1.799279212952 -0.344154685736 0.014820 -0.165305 0.986131
0.786198258400 1.560095071793 -0.385032981634 0.014820 -0.165305 0.986131
0.736035704613 1.806438446045 -0.342694520950 0.014820 -0.165305 0.986131
0.614965021610 1.543755888939 -0.385118573904 0.014820 -0.165305 0.986131
0.806122124195 1.652350902557 -0.369780927896 0.014820 -0.165305 0.986131
0.601893007755 1.640093326569 -0.368663370609 0.014820 -0.165305 0.986131
0.825852870941 1.534265756607 -0.389119952917 0.001052 -0.081042 0.996710
0.822495102882 1.618036270142 -0.375335037708 -0.084273 -0.189308 0.978295
0.351028740406 1.879504561424 -0.338202446699 0.001149 -0.196558 0.980491
0.342787772417 2.031604528427 -0.307766199112 0.001149 -0.196558 0.980491
0.343963414431 1.814960956573 -0.351116865873 0.001149 -0.196558 0.980491
0.287658303976 1.864420413971 -0.341089367867 0.003456 -0.197001 0.980397
0.237827017903 1.962708353996 -0.321268230677 0.003456 -0.197001 0.980397
0.271661877632 2.062616109848 -0.301357120275 0.003456 -0.197001 0.980397
0.194086939096 2.049864530563 -0.303693205118 0.003456 -0.197001 0.980397
0.243515238166 1.878951072693 -0.338056027889 0.003456 -0.197001 0.980397
0.059701554477 1.607159256935 -0.398666769266 -0.024733 -0.203751 0.978710
0.062365319580 1.724183320999 -0.374161005020 -0.024733 -0.203751 0.978710
0.246666908264 1.705476045609 -0.373593986034 -0.024733 -0.203751 0.978710
0.211417824030 1.810739517212 -0.352464854717 -0.024733 -0.203751 0.978710
0.072907790542 1.845431685448 -0.348581731319 -0.024733 -0.203751 0.978710
0.112312689424 1.798267722130 -0.357475548983 -0.024733 -0.203751 0.978710
0.164826899767 1.710038661957 -0.374627828598 -0.024733 -0.203751 0.978710
0.086685135961 1.695650696754 -0.379529774189 -0.024733 -0.203751 0.978710
0.291244715452 1.589192271233 -0.396798312664 -0.024733 -0.203751 0.978710
0.024828176945 1.584176898003 -0.400201022625 -0.003002 -0.023017 0.999731
0.311622560024 1.302437901497 -0.405782073736 -0.003002 -0.023017 0.999731
0.295720428228 1.274663209915 -0.406443923712 -0.003002 -0.023017 0.999731
0.108012512326 1.485666751862 -0.402195632458 -0.003002 -0.023017 0.999731
0.145044222474 1.401381731033 -0.403988540173 -0.003002 -0.023017 0.999731
0.271127581596 1.438235998154 -0.402844995260 -0.003002 -0.023017 0.999731
0.159818857908 1.534638762474 -0.400968581438 -0.003002 -0.023017 0.999731
0.000045416877 1.445589900017 -0.403126895428 -0.000997 -0.020933 0.999780
0.004579883069 1.379691004753 -0.404494255781 -0.000997 -0.020933 0.999780
0.063355885446 1.499856591225 -0.401984721422 -0.000997 -0.020933 0.999780
-0.008387409151 1.278814911842 -0.406592220068 -0.000997 -0.020933 0.999780
0.082463897765 1.289407253265 -0.406350404024 -0.000997 -0.020933 0.999780
0.058810457587 1.145518541336 -0.409344136715 -0.000997 -0.020933 0.999780
0.127904400229 1.188394784927 -0.408437132835 -0.000997 -0.020933 0.999780
0.233380168676 1.210452437401 -0.407953709364 -0.000997 -0.020933 0.999780
0.057118203491 1.979216217995 -0.319552183151 0.001165 -0.213106 0.977028
0.033374264836 1.853941798210 -0.346787393093 0.001165 -0.213106 0.977028
0.058915242553 1.881820321083 -0.340764194727 0.001165 -0.213106 0.977028
0.063744574785 1.921610236168 -0.332108616829 0.001165 -0.213106 0.977028
0.752088069916 0.695958256721 -0.404490441084 0.000981 -0.004907 0.999987
0.734932959080 0.737804234028 -0.404280722141 0.000981 -0.004907 0.999987
0.733558773994 0.764227211475 -0.404159128666 0.000981 -0.004907 0.999987
0.742763698101 0.721797108650 -0.404362410307 0.000981 -0.004907 0.999987
0.757347643375 0.788436174393 -0.403854906559 0.000989 -0.012857 0.999917
0.681728720665 -1.004625439644 -0.338982224464 0.003134 -0.997687 -0.067905
0.765025377274 -1.004224181175 -0.340720772743 0.003128 -0.997696 -0.067764
0.579417049885 -1.012363553047 -0.260680675507 0.003244 -0.993773 -0.111380
0.630494832993 -1.028830647469 -0.200305625796 -0.026039 -0.958485 -0.283950
0.837596595287 -1.027453660965 -0.231291621923 -0.058110 -0.906781 -0.417579
0.703072071075 -1.048137903214 -0.173413500190 -0.060471 -0.836749 -0.544238
0.800652146339 -1.056037425995 -0.175213515759 -0.085792 -0.757585 -0.647074
0.724186897278 -1.074075818062 -0.143915191293 -0.085640 -0.782371 -0.616897
0.610644161701 -1.092513799667 -0.105877175927 -0.097567 -0.604336 -0.790733
0.604189872742 -1.172852873802 -0.054582808167 -0.089953 -0.430392 -0.898149
0.575733959675 -1.208887338638 -0.039146587253 -0.071917 -0.325590 -0.942772
0.677936315536 -1.235222935677 -0.038466844708 -0.078093 -0.216924 -0.973060
0.722746014595 -1.287658572197 -0.032625295222 -0.066079 -0.133318 -0.988868
0.683932721615 -1.322857737541 -0.026648811996 -0.070466 -0.079414 -0.994348
0.645914971828 -1.352603673935 -0.025577764958 -0.052610 0.048315 -0.997446
0.802985310555 -1.392655253410 -0.037711542100 -0.059747 0.100330 -0.993159
0.726154208183 -1.429459571838 -0.040249530226 -0.048244 0.253588 -0.966109
0.589943349361 -1.405106663704 -0.027187556028 -0.048244 0.253588 -0.966109
0.676647961140 -1.475396990776 -0.049728367478 -0.045505 0.247201 -0.967895
0.625594735146 -1.488105297089 -0.053568661213 -0.031791 0.543206 -0.838997
0.818466484547 -1.532872200012 -0.083256326616 -0.001311 0.444588 -0.895734
0.599958658218 -1.551472902298 -0.092715270817 -0.001372 0.607653 -0.794201
0.766049802303 -1.578869819641 -0.114156775177 -0.001372 0.607653 -0.794201
0.580192327499 -1.600305795670 -0.131346762180 -0.001381 0.747332 -0.664449
0.751710891724 -1.610514044762 -0.143519848585 -0.001381 0.747332 -0.664449
0.548026859760 -1.678452491760 -0.254362463951 -0.003891 0.909201 -0.416339
0.688671708107 -1.684567928314 -0.268815517426 -0.003891 0.909201 -0.416339
0.604082405567 -1.699583172798 -0.359987348318 -0.003331 0.989358 -0.145461
0.693414568901 -1.697000265121 -0.351281344891 -0.029491 0.995038 -0.095026
0.737713098526 -1.693531990051 -0.328651785851 -0.029491 0.995038 -0.095026
0.584694147110 -1.003150463104 -0.374247550964 0.003038 -0.999437 -0.033416
0.771923899651 1.480115056038 -0.286109089851 0.003653 -0.958188 -0.286117
0.563880503178 1.448290348053 -0.214670732617 0.003966 -0.884423 -0.466669
0.791188180447 1.466091632843 -0.246842056513 0.003966 -0.884423 -0.466669
0.734744250774 1.436669707298 -0.194773614407 0.001383 -0.723512 -0.690311
0.806671917439 1.418324589729 -0.175227940083 0.001383 -0.723512 -0.690311
0.624655663967 1.386714816093 -0.145115762949 0.001373 -0.613750 -0.789499
0.695550024509 1.344061613083 -0.111847802997 0.001373 -0.613750 -0.789499
0.573734819889 1.324004888535 -0.100391194224 0.001307 -0.435151 -0.900357
0.673875033855 1.288509488106 -0.083043396473 0.001307 -0.435151 -0.900357
0.678642213345 1.249454498291 -0.072494886816 0.001189 -0.246171 -0.969226
0.747608780861 1.220085501671 -0.064967729151 0.001189 -0.246171 -0.969226
0.618741631508 1.215514898300 -0.064060144126 0.001059 -0.087863 -0.996132
0.823519110680 1.199096798897 -0.062560074031 0.001059 -0.087863 -0.996132
0.570203304291 1.103792071342 -0.061623103917 -0.001022 0.048051 -0.998844
0.750278949738 1.129624247551 -0.060422498733 -0.001022 0.048051 -0.998844
0.656010031700 1.085291385651 -0.063426703215 -0.001149 0.196558 -0.980491
0.747231602669 1.043850421906 -0.071769714355 -0.001149 0.196558 -0.980491
0.564070463181 1.015079617500 -0.079079598188 -0.001273 0.378186 -0.925729
0.682977795601 0.981871664524 -0.092818655074 -0.001273 0.378186 -0.925729
0.647472202778 0.952611267567 -0.109002865851 -0.001355 0.548745 -0.835989
0.599510669708 0.924031615257 -0.127643659711 -0.001355 0.548745 -0.835989
0.586690008640 0.910174846649 -0.138478249311 -0.001377 0.631887 -0.775059
0.811292290688 0.902563631535 -0.145291462541 -0.001377 0.631887 -0.775059
0.674872577190 0.873386263847 -0.171386092901 -0.001377 0.775059 -0.631887
0.760603725910 0.852703571320 -0.197024837136 -0.001377 0.775059 -0.631887
0.737761139870 0.843438744545 -0.209746330976 -0.003996 0.872386 -0.488802
0.796596825123 0.836225390434 -0.222985386848 -0.003996 0.872386 -0.488802
0.606350958347 0.795790433884 -0.329237103462 -0.003439 0.982383 -0.186848
0.785451710224 0.799262762070 -0.314194291830 -0.003439 0.982383 -0.186848
0.592865586281 0.790975570679 -0.389607101679 -0.002944 0.999995 0.000981
0.831592798233 0.791761755943 -0.372010707855 -0.002944 0.999995 0.000981
0.612861037254 1.476686239243 -0.276417970657 0.003653 -0.958188 -0.286117
0.800656378269 1.489642262459 -0.339316219091 0.003269 -0.992653 -0.120949
0.622339427471 1.490067005157 -0.347904026508 0.003269 -0.992653 -0.120949
0.585031092167 1.492590308189 -0.371899813414 0.003220 -0.995000 -0.099822
0.540699601173 1.208223819733 -0.379210025072 0.999987 0.004907 0.000981
0.539489150047 1.428688526154 -0.355680584908 0.999987 0.004907 -0.000981
0.539920568466 1.349050998688 -0.391935229301 0.999987 0.004907 -0.000981
0.539573609829 1.425542354584 -0.212659835815 0.999987 0.004916 -0.000983
0.540087342262 1.332514047623 -0.233623921871 0.999987 0.004916 -0.000983
0.540436863899 1.235376715660 -0.264112114906 0.999995 0.000981 0.002944
0.540296792984 1.260139346123 -0.235583990812 0.999995 0.000981 0.002944
0.540795922279 1.199256062508 -0.284518271685 0.999876 0.014924 -0.004975
0.540923714638 1.181016921997 -0.223261192441 0.999995 0.002938 0.000979
0.541005730629 1.154340147972 -0.222595155239 0.999995 0.002938 0.000979
0.541235804558 1.117773532867 -0.268198013306 0.999976 0.006883 -0.000983
0.541269540787 1.114442110062 -0.153067991138 0.999976 0.006883 -0.000983
0.541785359383 1.048541545868 -0.110993407667 0.999960 0.008867 0.000985
0.541939377785 1.011768579483 -0.138839334249 0.999995 0.002944 -0.000981
0.541652917862 1.041092753410 -0.264083206654 0.999995 0.002944 -0.000981
0.541974306107 0.967077434063 -0.244805172086 0.999987 0.004907 -0.000981
0.542428076267 0.876765489578 -0.174584627151 0.999987 0.004907 -0.000981
0.542390644550 0.873039603233 -0.227595895529 0.999987 0.004907 -0.000981
0.542458534241 0.849098503590 -0.287413269281 0.999987 0.004907 -0.000981
0.542237818241 0.892446637154 -0.336192220449 0.999987 0.004907 -0.000981
0.542194545269 0.900143206120 -0.381357520819 0.999987 0.004907 -0.000981
0.848188340664 1.033549070358 -0.071088790894 0.706753 0.162629 -0.688514
0.206751838326 2.026178598404 -0.058036327362 -0.000979 0.000979 -0.999999
0.296095460653 1.996314048767 -0.058224555105 -0.000979 0.000979 -0.999999
0.438351571560 1.959039330482 0.016002323478 0.369134 0.927467 -0.059538
0.498784124851 1.929929256439 -0.039784133434 0.398528 0.915682 -0.051982
0.501416683197 1.924142003059 -0.114519342780 0.451417 0.890560 -0.055916
0.526152551174 1.923642873764 0.134679883718 0.693485 0.719117 -0.044144
0.523986577988 1.912133097649 -0.090346127748 0.656562 0.752990 -0.043960
0.543626964092 1.899431109428 0.044291842729 0.831416 0.554739 -0.031818
0.556369245052 1.883973598480 0.072726428509 0.755567 0.654638 -0.023830
0.564493894577 1.875557184219 0.142102360725 0.954837 0.296923 -0.011088
0.571042478085 1.832541346550 0.143587127328 0.999889 0.014865 -0.000991
0.572768270969 1.713145494461 0.175417795777 0.999889 0.014865 -0.000991
0.570738613605 1.836736917496 -0.048038527369 0.999889 0.014865 -0.000991
0.573866009712 1.649091124535 0.327102720737 0.999889 0.014865 -0.000991
0.571531116962 1.797051548958 0.133991509676 0.999889 0.014865 -0.000991
0.570956707001 1.819061875343 -0.072583526373 0.999889 0.014865 -0.000991
0.574479818344 1.606689214706 0.152580037713 0.999857 0.016879 0.000993
0.573833048344 1.645226240158 0.165982246399 0.999857 0.016879 0.000993
0.572666049004 1.714944720268 0.087736621499 0.999857 0.016879 0.000993
0.570662796497 1.834782600403 -0.138541102409 0.999857 0.016879 0.000993
0.572252333164 1.739856958389 -0.052487909794 0.999857 0.016879 0.000993
0.574167490005 1.625746369362 -0.093371003866 0.999857 0.016879 0.000993
0.469501465559 1.983161807060 0.103701427579 0.910182 0.003895 -0.414191
0.308535426855 1.978057026863 -0.140186235309 0.099398 0.995047 0.001069
0.201282918453 1.988656878471 -0.111607313156 0.099398 0.995047 0.001069
0.117563396692 1.994709491730 -0.068030469120 0.031266 0.999511 0.001009
0.050449501723 1.886217236519 -0.146761566401 0.000978 -0.000978 0.999999
0.067317441106 1.778732061386 -0.146847799420 0.000978 -0.000978 0.999999
0.023435126990 1.799957633018 -0.146818742156 0.000978 -0.000978 0.999999
0.075878635049 1.718036890030 -0.146896362305 0.000978 -0.000978 0.999999
0.042290836573 1.563642978668 -0.147003233433 0.000978 -0.000978 0.999999
0.134209379554 1.548706650734 -0.147042453289 0.000978 -0.000978 0.999999
0.160055831075 1.763652205467 -0.146885380149 0.000978 -0.000978 0.999999
0.192538604140 1.668423414230 -0.146960288286 0.000978 -0.000978 0.999999
0.269873261452 1.956202626228 -0.146748125553 0.000978 -0.000978 0.999999
0.159199997783 1.788092136383 -0.146866768599 0.000978 -0.000978 0.999999
0.313908636570 1.929115056992 -0.146772250533 0.000978 -0.000978 0.999999
0.333148449659 1.533246278763 -0.147076651454 0.000978 -0.000978 0.999999
0.300393760204 1.554408192635 -0.147057384253 0.000978 -0.000978 0.999999
0.322420477867 1.540668129921 -0.147069960833 0.000978 -0.000978 0.999999
0.306842148304 1.668529033661 -0.146970719099 0.000978 -0.000978 0.999999
0.176868528128 1.577679276466 -0.147027969360 0.000978 -0.000978 0.999999
0.358882427216 1.753767371178 -0.146775066853 -0.008884 -0.000987 0.999960
0.382555961609 1.916244387627 -0.145806044340 -0.037461 -0.001012 0.999298
0.397396594286 1.558083415031 -0.145544871688 -0.067764 -0.001043 0.997701
0.412082195282 1.654677391052 -0.144436404109 -0.067764 -0.001043 0.997701
0.514531493187 1.508291006088 -0.143872007728 -0.000978 -0.000978 0.999999
0.498128384352 1.637664794922 -0.143774569035 -0.000978 -0.000978 0.999999
0.530744373798 1.692373752594 -0.143731608987 -0.000978 -0.000978 0.999999
0.505559623241 1.531210184097 -0.143855020404 -0.000978 -0.000978 0.999999
0.577163398266 1.534150958061 -0.143849626184 -0.000978 -0.000978 0.999999
0.616771340370 1.748129963875 -0.143685340881 -0.000978 -0.000978 0.999999
0.607932090759 1.612880229950 -0.143788501620 -0.000978 -0.000978 0.999999
0.571539700031 1.742936611176 -0.143691375852 -0.000978 -0.000978 0.999999
0.576643705368 1.644407868385 -0.143765985966 -0.000978 -0.000978 0.999999
0.610402703285 1.768128633499 -0.143670454621 -0.000978 -0.000978 0.999999
0.557853341103 1.621218562126 0.237958401442 -0.294171 -0.955752 -0.001221
0.462327241898 1.650517821312 0.223549365997 -0.294171 -0.955752 -0.001221
0.418879508972 1.659266710281 0.287611991167 -0.183394 -0.983039 -0.001139
0.357796609402 1.670737624168 0.222642108798 -0.183394 -0.983039 -0.001139
0.345108807087 1.672512888908 0.331485629082 -0.106419 -0.994321 -0.001075
0.337677299976 1.673366308212 0.264712810516 -0.106419 -0.994321 -0.001075
0.163391590118 1.691997885704 0.325300067663 -0.106419 -0.994321 -0.001075
0.116179503500 1.694017767906 0.318875551224 -0.027126 -0.999632 -0.001005
0.057500481606 1.695664405823 0.299710214138 -0.027126 -0.999632 -0.001005
0.026194371283 1.696609854698 0.214432552457 -0.027126 -0.999632 -0.001005
0.503760278225 1.606840014458 0.178121387959 -0.166683 -0.563120 0.809391
0.472221702337 1.633922457695 0.190523177385 -0.003957 -0.460352 0.887728
0.401008844376 1.635510325432 0.186296850443 -0.079153 -0.459643 0.884570
0.390696555376 1.604966998100 0.169782400131 -0.039009 -0.439865 0.897216
0.219298794866 1.640601515770 0.178883895278 -0.044540 -0.438653 0.897552
0.316940248013 1.637913584709 0.182418465614 -0.044540 -0.438653 0.897552
0.273386120796 1.583660602570 0.153731867671 -0.044540 -0.438653 0.897552
0.323458343744 1.547588109970 0.138582900167 -0.044540 -0.438653 0.897552
0.081631936133 1.622219920158 0.165896460414 -0.009212 -0.438224 0.898819
0.078491710126 1.597667574883 0.153862312436 -0.009212 -0.438224 0.898819
0.536594629288 1.512391805649 0.007967359386 -0.019206 -0.999701 0.015162
0.552918553352 1.510519266129 -0.087932519615 -0.019206 -0.999701 0.015162
0.513940751553 1.511872291565 -0.052278220654 -0.019206 -0.999701 0.015162
0.484348624945 1.514130949974 0.051098749042 -0.019206 -0.999701 0.015162
0.381669163704 1.522492647171 0.038888994604 -0.105634 -0.994271 0.016335
0.370878726244 1.519883513451 -0.193061858416 -0.105634 -0.994271 0.016335
0.323294520378 1.528777718544 0.042666833848 -0.105864 -0.994246 0.016371
0.348351031542 1.524967312813 -0.026908159256 -0.105864 -0.994246 0.016371
0.319223642349 1.527967333794 -0.034337036312 -0.105864 -0.994246 0.016371
0.267018705606 1.535775780678 0.102559939027 -0.105864 -0.994246 0.016371
0.250136196613 1.532779335976 -0.194813236594 -0.105864 -0.994246 0.016371
0.168697193265 1.545791983604 0.070526570082 -0.105864 -0.994246 0.016371
0.157254397869 1.545622825623 -0.015994880348 -0.105864 -0.994246 0.016371
0.156655997038 1.544083476067 -0.115374028683 -0.105864 -0.994246 0.016371
0.154749035835 1.545107960701 -0.062917783856 -0.027509 -0.999505 0.015283
0.087756343186 1.549433588982 0.089670099318 -0.027509 -0.999505 0.015283
0.067924290895 1.549070119858 0.032978273928 -0.027509 -0.999505 0.015283
0.060470193624 1.548217058182 -0.032689005136 -0.027509 -0.999505 0.015283
0.012429510243 1.550674915314 0.036855205894 -0.027509 -0.999505 0.015283
0.095583140850 1.545556902885 -0.136966139078 -0.027509 -0.999505 0.015283
0.576122224331 1.562003374100 0.033050201833 -0.999936 -0.008919 0.006937
0.574924528599 1.595667243004 -0.099301666021 -0.999936 -0.008919 0.006937
0.576935470104 1.521719574928 0.068198040128 -0.999575 -0.029133 0.001005
0.259668409824 1.669039964676 0.351930052042 -0.106419 -0.994321 -0.001075
0.774435997009 0.189545273781 0.220145583153 -0.079991 -0.975895 0.203055
0.684944808483 0.789018690586 0.366652697325 0.893629 -0.003948 0.448789
0.683448910713 0.738460302353 0.369099915028 0.893629 -0.003948 0.448789
0.701902389526 0.838002324104 0.333226412535 0.894164 -0.001313 0.447738
0.703542232513 1.039269089699 0.325168669224 0.879461 0.022896 0.475421
0.676202178001 1.077592015266 0.382394313812 0.906309 -0.003901 0.422597
0.646742284298 0.982697010040 0.438053846359 0.847295 0.006757 0.531080
0.599013209343 0.852862715721 0.513334989548 0.838034 -0.004062 0.545602
0.613918364048 0.859777688980 0.490467488766 0.838034 -0.004062 0.545602
0.579820156097 0.732853055000 0.546459913254 0.838997 0.031791 0.543206
0.579990684986 0.640745401382 0.551557481289 0.839883 0.028961 0.541994
0.612417161465 0.719235301018 0.497057825327 0.839883 0.028961 0.541994
0.574949979782 0.418057054281 0.572100400925 0.836911 0.031816 0.546413
0.589027583599 0.451431900263 0.545906901360 0.894597 -0.014579 0.446636
0.642450511456 0.493047595024 0.444050848484 0.886001 -0.009298 0.463590
0.680144131184 0.544567823410 0.372934520245 0.886001 -0.009298 0.463590
0.672549188137 0.561784684658 0.387844979763 0.886001 -0.009298 0.463590
0.674965023994 0.608202755451 0.384194999933 0.886001 -0.009298 0.463590
0.643723189831 0.429440289736 0.440273463726 0.886001 -0.009298 0.463590
0.690656602383 0.525031387806 0.352386713028 0.886001 -0.009298 0.463590
0.724901795387 0.325547993183 0.282590210438 0.886001 -0.009298 0.463590
0.714827716351 0.424372702837 0.303713023663 0.894158 -0.003939 0.447735
0.797504961491 0.958255589008 0.178534358740 -0.663565 -0.023849 0.747738
0.797081530094 0.849965035915 0.156606808305 -0.960928 0.001209 -0.276796
0.826610743999 1.005464434624 0.183211520314 0.846530 -0.006772 0.532298
0.593277633190 -1.606061697006 0.130422770977 -0.046167 -0.054757 0.997432
0.488561242819 -1.880911469460 0.099651262164 -0.345332 -0.053429 0.936958
0.464291006327 -1.792839884758 0.094406709075 -0.277519 -0.117058 0.953562
0.593074083328 -1.780073404312 0.115823626518 0.122084 -0.077901 -0.989458
0.474331647158 -1.877663016319 0.050655357540 0.948394 -0.146631 -0.281155
0.724107861519 -1.711762189865 0.057322163135 0.602192 -0.737082 0.306716
0.688662648201 -1.763311028481 -0.007659736089 0.620384 -0.610296 0.492608
0.398300886154 -1.992198348045 0.031688258052 -0.049830 0.639249 -0.767384
0.794891536236 -0.903697550297 -0.319278359413 -0.006031 0.963794 0.266581
0.759805858135 -0.908256530762 -0.295863777399 -0.007704 0.991644 0.128771
0.761213898659 -0.947277307510 0.005846086424 -0.007704 0.991644 0.128771
0.794187366962 -0.946035683155 -0.002030655742 -0.007704 0.991644 0.128771
0.572199523449 1.805041670799 0.333438843489 -0.970765 -0.001182 0.240031
0.554544448853 -1.720831513405 0.066398300231 0.636197 -0.481764 -0.602625
0.501916229725 -1.807386159897 0.052816376090 0.891809 -0.435271 -0.123350
0.522351682186 -1.796712160110 0.000999851152 0.151730 -0.275263 0.949320
0.612855076790 -1.793364644051 -0.007419301663 -0.102970 -0.324958 0.940106
0.641675889492 -1.759037613869 0.022188724950 -0.701570 -0.528261 0.478268
0.587770402431 -1.723573565483 0.025877976790 0.331403 -0.882229 -0.334430
0.567149341106 -1.684076428413 0.041189178824 -0.965365 -0.003607 0.260877
0.803438901901 0.163116127253 0.093176841736 0.006992 -0.999831 0.016980
0.798476815224 0.161700487137 0.012203135528 0.006992 -0.999831 0.016980
0.754355013371 0.157378450036 -0.223276183009 0.007006 -0.999831 0.017014
0.770353078842 0.156544625759 -0.277861028910 0.006992 -0.999831 0.016980
0.246395379305 -1.177200794220 0.306390076876 0.071151 -0.379920 0.922279
0.308283001184 -1.222976207733 0.281968206167 0.128053 -0.412304 0.902002
0.583287239075 -1.071097612381 0.299395829439 0.169604 -0.383390 0.907880
0.036270484328 -1.215831875801 0.299363136292 0.024535 -0.370611 0.928464
0.479906857014 1.668384313583 0.326027512550 0.075129 0.042464 0.996269
0.492878377438 1.826383471489 0.318298161030 0.075129 0.042464 0.996269
0.531118273735 1.764058232307 0.317686766386 0.107060 0.052967 0.992841
0.464394003153 1.926234364510 0.316122442484 0.107060 0.052967 0.992841
0.412074446678 1.812385320663 0.324832201004 0.072647 0.042287 0.996461
0.352597028017 1.744939804077 0.332296848297 0.075285 0.044734 0.996158
0.239126309752 1.845117330551 0.331441730261 0.030388 0.042962 0.998614
0.295595258474 1.895553231239 0.327484488487 0.030388 0.042962 0.998614
0.331078112125 1.740185976028 0.333234757185 0.030388 0.042962 0.998614
0.165322810411 1.757585525513 0.337561100721 0.030388 0.042962 0.998614
0.230178922415 1.754507660866 0.335704565048 0.030388 0.042962 0.998614
0.189748048782 1.753197193146 0.337004035711 0.030388 0.042962 0.998614
0.101634241641 1.919160127640 0.332109540701 0.024002 0.044874 0.998704
0.022273611277 1.956403255463 0.332456648350 0.024002 0.044874 0.998704
0.025554899126 1.919467210770 0.333999454975 0.024002 0.044874 0.998704
0.032800819725 1.771955370903 0.340469539165 0.028232 0.044963 0.998590
0.022979842499 1.744684457779 0.341974943876 0.028232 0.044963 0.998590
0.007039452903 1.693829059601 0.374899148941 -0.032946 -0.250148 -0.967647
0.736233770847 -0.723244965076 0.250337749720 -0.937483 0.008856 -0.347919
0.700396835804 -0.716957807541 0.348052233458 -0.962552 -0.098690 -0.252494
0.839958190918 -0.637099862099 0.265871942043 -0.353034 0.934959 -0.034915
0.857393145561 -0.627653837204 0.347202688456 -0.385363 0.921977 -0.038142
0.803720116615 -0.649997472763 0.327161908150 -0.361521 0.932343 -0.006342
0.511126577854 0.352693259716 0.635849595070 0.302261 0.041735 0.952311
0.382576018572 0.332737982273 0.663353681564 0.192353 0.036582 0.980644
0.486348599195 0.381240069866 0.641110122204 0.192353 0.036582 0.980644
0.382172912359 0.388882845640 0.661861181259 0.204209 0.027149 0.978551
0.413365662098 0.442786991596 0.653887271881 0.204209 0.027149 0.978551
0.493125289679 0.537223160267 0.634997427464 0.205555 0.019968 0.978442
0.532775104046 0.994500577450 0.567228972912 0.457675 0.130559 0.879482
0.521438419819 0.955851495266 0.578831911087 0.457675 0.130559 0.879482
0.482995122671 0.963063001633 0.600583910942 0.826712 0.198714 0.526365
0.445811957121 1.104835629463 0.595259547234 0.177308 0.137068 0.974564
0.447373688221 0.840072631836 0.628904640675 0.113292 0.120447 0.986234
0.383383363485 0.871051073074 0.632438957691 0.113292 0.120447 0.986234
0.333628624678 0.746919631958 0.651326894760 0.112559 0.087030 0.989826
0.476043730974 0.797783911228 0.630582988262 0.112559 0.087030 0.989826
0.406657308340 0.691879391670 0.646532177925 0.171631 0.024190 0.984864
0.409983783960 0.639772057533 0.647201061249 0.171631 0.024190 0.984864
0.414170235395 0.562704920769 0.650908529758 0.171602 0.057990 0.983458
0.197715878487 0.564397513866 0.669777810574 0.032939 0.058441 0.997747
0.291580617428 0.539729833603 0.668154299259 0.032939 0.058441 0.997747
0.279355019331 0.536321759224 0.668747246265 0.032939 0.058441 0.997747
0.030617630109 0.341621845961 0.683673858643 0.032031 0.025831 0.999153
0.080867879093 0.374231636524 0.681196928024 0.032031 0.025831 0.999153
0.071182206273 0.385238200426 0.681228220463 0.032031 0.025831 0.999153
0.302114009857 0.442763626575 0.672228693962 0.032031 0.025831 0.999153
0.143516480923 0.314250558615 0.680708587170 0.032031 0.025831 0.999153
0.177747160196 0.364534258842 0.678295254707 0.032031 0.025831 0.999153
0.018332038075 0.545375585556 0.676687061787 0.032939 0.058441 0.997747
0.017885962501 0.577296078205 0.674858510494 0.032939 0.058441 0.997747
0.238638728857 0.739775419235 0.655373394489 0.031561 0.085976 0.995797
0.006717052311 0.641500055790 0.671389222145 0.031561 0.085976 0.995797
0.189530387521 0.685619235039 0.661658346653 0.031561 0.085976 0.995797
0.123138807714 0.740263342857 0.657617390156 0.014346 0.124701 0.992091
0.000641626073 0.786742031574 0.653510868549 0.014346 0.124701 0.992091
0.023378180340 0.672528684139 0.667421281338 0.014346 0.124701 0.992091
0.088883966208 0.843112587929 0.645943880081 0.014154 0.107791 0.994073
0.056135699153 0.932083427906 0.636769592762 0.014154 0.107791 0.994073
0.046077113599 0.822904288769 0.648720085621 0.014154 0.107791 0.994073
0.200581699610 0.911472797394 0.637008845806 0.014154 0.107791 0.994073
0.057082675397 0.825900137424 0.648244261742 0.014154 0.107791 0.994073
0.257989734411 0.860442698002 0.641738593578 0.014154 0.107791 0.994073
0.267465114594 1.007526040077 0.623634934425 0.049010 0.128794 0.990460
0.187910497189 1.120988488197 0.612908899784 0.049010 0.128794 0.990460
0.264202028513 1.022105097771 0.621915519238 0.049010 0.128794 0.990460
0.383177459240 1.091259717941 0.604459166527 0.075848 0.131859 0.988362
0.382375299931 1.004429578781 0.616069316864 0.075848 0.131859 0.988362
0.003664483549 1.029055476189 0.628156423569 0.025218 0.101969 0.994468
-0.004845994525 0.937901139259 0.637712121010 0.025218 0.101969 0.994468
0.585590124130 1.096696138382 0.500256001949 0.578325 0.252332 0.775802
0.532541632652 1.109885215759 0.535472810268 0.578325 0.252332 0.775802
0.497203499079 1.247028470039 0.523897945881 0.624523 0.212307 0.751597
0.473160952330 1.214312553406 0.553164124489 0.624523 0.212307 0.751597
0.112960256636 1.631949543953 0.382933080196 -0.033823 -0.999310 -0.015374
0.192025095224 1.628845334053 0.356552451849 -0.079947 -0.996671 -0.015989
0.370646804571 1.613147735596 0.332233339548 -0.142659 -0.989628 -0.016850
0.502139985561 1.576827645302 0.330383092165 -0.545455 -0.838005 -0.015038
0.638553440571 -0.550510287285 0.497931033373 -0.833613 0.063473 -0.548690
0.827819466591 -0.820022284985 -0.334591507912 -0.996802 -0.018124 -0.077825
0.136089116335 1.588670611382 0.309823453426 -0.000978 -0.000978 0.999999
0.001769963768 1.337302446365 0.309632986784 -0.000978 -0.000978 0.999999
0.035242676735 1.612495899200 0.309841215611 -0.000978 -0.000978 0.999999
0.086164444685 1.454138040543 0.309721589088 -0.000978 -0.000978 0.999999
0.128672853112 1.458911180496 0.309725493193 -0.000978 -0.000978 0.999999
0.149302601814 1.377010107040 0.309663832188 -0.000978 -0.000978 0.999999
0.096781671047 1.350751280785 0.309643656015 -0.000978 -0.000978 0.999999
0.225120648742 1.532634854317 0.309775978327 0.000978 -0.000978 0.999999
0.249006107450 1.406403660774 0.309681743383 0.000978 -0.000978 0.999999
0.242602288723 1.494669795036 0.309747487307 0.000978 -0.000978 0.999999
0.245306968689 1.355281829834 0.309643656015 0.000978 -0.000978 0.999999
