0.539824962616 2.146848678589 -0.201648473740 0.001100 -0.990809 0.135260
0.530740916729 2.114268302917 -0.441025316715 0.001100 -0.990809 0.135260
0.360182344913 2.128861188889 -0.333807021379 0.001100 -0.990809 0.135260
0.454293608665 2.170084476471 -0.030928529799 0.001100 -0.990809 0.135260
0.506188869476 2.159386873245 -0.109526291490 0.001100 -0.990809 0.135260
0.393380343914 2.118119001389 -0.412733376026 0.001100 -0.990809 0.135260
0.472562015057 2.146568298340 -0.203708052635 0.001100 -0.990809 0.135260
0.450624585152 2.177450656891 0.023192260414 0.001100 -0.990809 0.135260
0.495486199856 2.127967596054 -0.340372055769 0.001100 -0.990809 0.135260
0.435558706522 2.220563650131 0.312954932451 -0.044970 -0.988197 0.146442
0.313701003790 2.209624767303 0.201484143734 -0.044970 -0.988197 0.146442
0.352057397366 2.209156513214 0.210241317749 -0.044970 -0.988197 0.146442
0.421628862619 2.178802251816 0.027511090040 -0.044970 -0.988197 0.146442
0.397192180157 2.174877882004 -0.006494998932 -0.044970 -0.988197 0.146442
0.356113463640 2.139998435974 -0.254043459892 -0.044970 -0.988197 0.146442
0.439124345779 2.182959079742 0.060924530029 -0.044970 -0.988197 0.146442
0.373252809048 2.150488376617 -0.178107351065 -0.044970 -0.988197 0.146442
0.178826779127 2.172444105148 -0.050826460123 0.001110 -0.989363 0.145462
0.074298962951 2.125176429749 -0.370160102844 0.001110 -0.989363 0.145462
0.280133426189 2.162952184677 -0.115090757608 0.001110 -0.989363 0.145462
0.240915909410 2.196755170822 0.113406509161 0.001110 -0.989363 0.145462
0.135368496180 2.148223876953 -0.214466094971 0.001110 -0.989363 0.145462
0.221654489636 2.174795150757 -0.034985214472 0.001110 -0.989363 0.145462
0.160078674555 2.149880170822 -0.203299522400 0.001110 -0.989363 0.145462
0.008016297594 2.111020326614 -0.465757310390 0.001110 -0.989363 0.145462
0.213148504496 2.172633647919 -0.049584150314 0.001110 -0.989363 0.145462
0.133656874299 2.138728380203 -0.278637886047 0.001110 -0.989363 0.145462
0.215663731098 2.159624814987 -0.137505233288 0.001110 -0.989363 0.145462
0.237836003304 2.173540353775 -0.043484210968 0.001110 -0.989363 0.145462
0.032898072153 2.067401409149 -0.479571998119 0.000978 0.000978 0.999999
0.255384683609 2.068356037140 -0.479824483395 0.000978 0.000978 0.999999
0.282656282187 2.024703979492 -0.479855448008 0.000978 0.000978 0.999999
0.008941655979 1.908374071121 -0.479544818401 0.000978 0.000978 0.999999
0.135150462389 1.891520977020 -0.479688048363 0.000978 0.000978 0.999999
0.231229335070 1.991151571274 -0.479797065258 0.000978 0.000978 0.999999
0.095544166863 1.994606375694 -0.479643076658 0.000978 0.000978 0.999999
0.243681490421 1.778905749321 -0.479811191559 0.000978 0.000978 0.999999
0.073193177581 1.811110377312 -0.479617714882 0.000978 0.000978 0.999999
0.240289628506 1.880180716515 -0.479807376862 0.000978 0.000978 0.999999
0.177956745028 1.738959789276 -0.479736626148 0.000978 0.000978 0.999999
0.074782513082 1.618595480919 -0.479619532824 0.000978 0.000978 0.999999
0.052680768073 1.684908270836 -0.479594439268 0.000978 0.000978 0.999999
0.005158565473 1.537749409676 -0.479540497065 0.000978 0.000978 0.999999
0.242431521416 1.750627398491 -0.479809790850 0.000978 0.000978 0.999999
0.032041464001 1.467781066895 -0.479571014643 0.000978 0.000978 0.999999
0.316372007132 1.892191290855 -0.479876548052 0.000978 0.000978 0.999999
0.355858594179 1.863760113716 -0.479876548052 0.000978 0.000978 0.999999
0.324916273355 1.813861608505 -0.479876548052 0.000978 0.000978 0.999999
0.451843798161 2.010372877121 -0.479876577854 0.000978 0.000978 0.999999
0.569836199284 2.035259008408 -0.479876577854 0.000978 0.000978 0.999999
0.528781294823 2.099042177200 -0.479876577854 0.000978 0.000978 0.999999
0.177436605096 2.184154748917 0.026850879192 -0.010101 -0.988746 0.149266
0.079612411559 2.173660755157 -0.048631072044 -0.010101 -0.988746 0.149266
0.272472411394 2.224175214767 0.296473681927 -0.010101 -0.988746 0.149266
0.044947028160 2.191137075424 0.064109325409 -0.010101 -0.988746 0.149266
0.123456232250 2.207765817642 0.178699150681 -0.010101 -0.988746 0.149266
0.018705032766 2.223437309265 0.274965465069 -0.010101 -0.988746 0.149266
0.036263417453 2.147258758545 -0.225235998631 -0.010101 -0.988746 0.149266
0.105225458741 2.178712606430 -0.013703852892 -0.010101 -0.988746 0.149266
0.072427675128 2.174015998840 -0.046763777733 -0.010101 -0.988746 0.149266
0.173479527235 2.209563493729 0.193812474608 -0.010101 -0.988746 0.149266
0.153244391084 2.212719678879 0.213257014751 -0.010101 -0.988746 0.149266
0.007082469761 2.152065753937 -0.195512950420 -0.010101 -0.988746 0.149266
0.017103878781 2.315967798233 0.313172876835 0.000978 0.000978 0.999999
0.116118513048 2.260763645172 0.313172876835 0.000978 0.000978 0.999999
0.293080091476 2.278715133667 0.313172817230 0.000978 0.000978 0.999999
0.190264865756 2.295455455780 0.313172847033 0.000978 0.000978 0.999999
0.321483850479 2.265985488892 0.313172817230 0.000978 0.000978 0.999999
0.423001617193 2.330673217773 0.313172787428 0.000978 0.000978 0.999999
0.337360978127 2.357575893402 0.313172727823 0.000978 0.000978 0.999999
0.574433743954 2.274995565414 0.313172876835 0.000978 0.000978 0.999999
0.589059293270 2.263628482819 0.313172876835 0.000978 0.000978 0.999999
0.720971822739 2.179030179977 0.313154071569 0.002938 0.000979 0.999995
0.813820064068 2.182555198669 0.373476326466 -0.760245 0.643509 -0.089011
0.556741893291 1.336808443069 -0.435765564442 -0.999999 0.000978 0.000978
0.556741893291 1.322038412094 -0.347223281860 -0.999999 0.000978 0.000978
0.556741893291 1.227423191071 -0.269512891769 -0.999999 0.000978 0.000978
0.584116578102 1.334337353706 -0.198703974485 0.000978 0.000978 0.999999
0.650810897350 1.252721548080 -0.198703974485 0.000978 0.000978 0.999999
0.673637509346 1.131672024727 -0.198703974485 0.000978 0.000978 0.999999
0.731398224831 1.305478334427 -0.198704004288 0.000978 0.000978 0.999999
0.778778970242 1.574863076210 -0.198704078794 0.000978 0.000978 0.999999
0.721456885338 1.459643125534 -0.198704019189 0.000978 0.000978 0.999999
0.719571828842 1.651135563850 -0.198704034090 0.000978 0.000978 0.999999
0.705332756042 1.753904342651 -0.198704019189 0.000978 0.000978 0.999999
0.657259523869 1.466517090797 -0.198703974485 0.000978 0.000978 0.999999
0.638193964958 1.555482268333 -0.198703974485 0.000978 0.000978 0.999999
0.666965246201 1.413962125778 -0.198703974485 0.000978 0.000978 0.999999
0.564355909824 1.398543834686 -0.198703974485 0.000978 0.000978 0.999999
0.644124627113 1.723315119743 -0.198703974485 0.000978 0.000978 0.999999
0.605614483356 1.766324162483 -0.218355640769 0.000978 0.999999 0.000978
0.578590273857 1.766324162483 -0.214789733291 0.000978 0.999999 0.000978
0.721338868141 1.766324281693 -0.458994388580 -0.000978 0.999999 0.000978
0.680930435658 1.766324162483 -0.318555116653 -0.000978 0.999999 0.000978
0.748908340931 1.766324400902 -0.226387873292 -0.000978 0.999999 0.000978
0.779710292816 1.766324520111 -0.369943141937 -0.000978 0.999999 0.000978
0.796639323235 1.820833921432 0.072088494897 -0.999999 0.000978 0.000978
0.796639323235 1.797950148582 0.075335003436 -0.999999 0.000978 0.000978
0.796639323235 1.920547366142 0.196562349796 -0.999999 0.000978 0.000978
0.796639323235 1.785093903542 0.011863123626 -0.999999 0.000978 0.000978
0.796639323235 1.806168794632 0.269915908575 -0.999999 0.000978 0.000978
0.796639323235 1.796850919724 0.276654720306 -0.999999 0.000978 0.000978
0.796639323235 1.735417366028 0.168012425303 -0.999999 0.000978 0.000978
0.796639323235 1.596361398697 0.150088846684 -0.999999 0.000978 0.000978
0.796639323235 1.583478212357 0.189198404551 -0.999999 0.000978 0.000978
0.796639323235 1.719197273254 -0.071176953614 -0.999999 0.000978 0.000978
0.796639323235 1.675751209259 0.255834072828 -0.999999 0.000978 0.000978
0.796639323235 1.714540719986 -0.125537395477 -0.999999 0.000978 0.000978
0.796639323235 1.670377373695 0.092685207725 -0.999999 0.000978 0.000978
0.796639323235 1.739453911781 -0.150292649865 -0.999999 0.000978 0.000978
0.796639323235 1.665906786919 0.029841020703 -0.999999 0.000978 0.000978
0.796639323235 1.518595457077 0.009927198291 -0.999999 0.000978 0.000978
0.796639323235 1.405107498169 -0.040235131979 -0.999999 0.000978 0.000978
0.796639323235 1.754591584206 -0.190505012870 -0.999999 0.000978 0.000978
0.796639323235 1.616347551346 -0.073322683573 -0.999999 0.000978 0.000978
0.796639323235 1.378725171089 0.198090732098 -0.999999 0.000978 0.000978
0.796639323235 1.442578077316 0.154994398355 -0.999999 0.000978 0.000978
0.796639323235 1.694528818130 -0.147436410189 -0.999999 0.000978 0.000978
0.796639323235 1.475433826447 0.071810647845 -0.999999 0.000978 0.000978
0.796639323235 1.414036989212 -0.077517457306 -0.999999 0.000978 0.000978
0.790275990963 1.533877849579 0.303012400866 -0.975457 0.008237 -0.220037
0.775379776955 1.706577658653 0.343070268631 -0.937459 -0.011386 -0.347910
0.784149646759 1.708392620087 0.319473028183 -0.937459 -0.011386 -0.347910
0.796350538731 1.954395890236 0.292946249247 -0.940182 0.013919 -0.340389
0.786635935307 1.940985321999 0.314886569977 -0.869476 -0.020283 -0.493559
0.796639323235 1.810979723930 -0.175856292248 -0.999999 0.000978 0.000978
0.796639323235 1.921816468239 0.115832865238 -0.999999 0.000978 0.000978
0.796639323235 1.876823425293 -0.146596565843 -0.999999 0.000978 0.000978
0.796639323235 1.824824094772 -0.218217611313 -0.999999 0.000978 0.000978
0.796639323235 1.916680812836 -0.005059510469 -0.999999 0.000978 0.000978
0.796639323235 1.996085286140 0.122772455215 -0.999999 0.000978 0.000978
0.796639323235 1.940736889839 -0.183698400855 -0.999999 0.000978 0.000978
0.796639323235 1.988505005836 -0.128625959158 -0.999999 0.000978 0.000978
0.796639323235 1.913211703300 -0.220846116543 -0.999999 0.000978 0.000978
0.796639323235 1.907220840454 -0.363515138626 -0.999999 0.000978 0.000978
0.796639323235 1.865910530090 -0.343838512897 -0.999999 0.000978 0.000978
0.796639323235 1.864374041557 -0.341453820467 -0.999999 0.000978 0.000978
0.796639323235 1.771334290504 -0.416488617659 -0.999999 0.000978 0.000978
0.736656546593 1.769533872604 -0.479876577854 0.000978 0.000978 0.999999
0.743398666382 1.888240695000 -0.479876577854 0.000978 0.000978 0.999999
0.669421195984 2.090859413147 0.745798170567 -0.942145 0.130741 -0.308657
0.694105088711 1.987522602081 0.626858115196 -0.942145 0.130741 -0.308657
-0.167482569814 1.060836315155 0.875940382481 0.014865 0.000991 -0.999889
-0.176000505686 0.916149735451 0.875817775726 0.014865 0.000991 -0.999889
-0.108381673694 1.031356096268 0.876758813858 0.012857 0.000989 -0.999917
-0.000577649043 0.982955515385 0.878228485584 0.012857 0.000989 -0.999917
-0.040884181857 1.007037401199 0.877678990364 0.012857 0.000989 -0.999917
-0.146002903581 0.750295519829 0.876245915890 0.012857 0.000989 -0.999917
-0.001402594266 0.744120776653 0.878217220306 0.012857 0.000989 -0.999917
-0.009668779559 0.815750896931 0.878104567528 0.012857 0.000989 -0.999917
-0.041355252266 0.710533022881 0.877672553062 0.012857 0.000989 -0.999917
-0.103781953454 0.614700436592 0.876821517944 0.012857 0.000989 -0.999917
-0.052450440824 0.697511553764 0.877521276474 0.012857 0.000989 -0.999917
-0.059189267457 0.600892424583 0.877429425716 0.012857 0.000989 -0.999917
-0.039299756289 0.457166999578 0.877700567245 0.012857 0.000989 -0.999917
-0.067355185747 0.394471913576 0.877318084240 0.012857 0.000989 -0.999917
-0.084855623543 0.296895384789 0.877079546452 0.012857 0.000989 -0.999917
-0.125335305929 0.344922244549 0.876527667046 0.012857 0.000989 -0.999917
-0.060778733343 0.262183070183 0.877407789230 0.012857 0.000989 -0.999917
-0.068082220852 0.186579346657 0.877308189869 0.012857 0.000989 -0.999917
-0.041105613112 0.128470376134 0.877675950527 0.012857 0.000989 -0.999917
-0.113844051957 0.081343896687 0.876684308052 0.012857 -0.000989 -0.999917
-0.085935160518 -0.003164053895 0.877064883709 0.012857 0.000989 -0.999917
-0.040567599237 0.044807955623 0.877683401108 0.012857 0.000989 -0.999917
-0.017678756267 -0.000985570252 0.877995431423 0.012857 0.000989 -0.999917
-0.076851196587 -0.141903549433 0.877188682556 0.012857 0.000989 -0.999917
-0.038405030966 -0.274905651808 0.877712905407 0.012857 0.000989 -0.999917
-0.043303750455 -0.301540672779 0.877646088600 0.012857 0.000989 -0.999917
-0.082404732704 -0.244072794914 0.877112984657 0.012857 0.000989 -0.999917
-0.148222833872 -0.528714358807 0.876215636730 0.012857 0.000989 -0.999917
-0.029918368906 -0.460603415966 0.877828598022 0.012857 0.000989 -0.999917
-0.124595656991 -0.534844040871 0.875599145889 0.016388 0.329014 -0.944183
-0.077560864389 -0.559741973877 0.867754161358 0.016388 0.329014 -0.944183
-0.012767734937 -0.667654514313 0.831311047077 0.016388 0.329014 -0.944183
-0.072229057550 -0.680081069469 0.825939714909 0.016388 0.329014 -0.944183
-0.047045420855 -0.711629986763 0.818183302879 0.012857 0.000989 -0.999917
-0.055606976151 -0.791884839535 0.818066596985 0.012857 0.000989 -0.999917
-0.205163061619 -0.778874933720 0.815986454487 0.014865 0.000991 -0.999889
-0.292235463858 -0.737939059734 0.814733624458 0.014865 0.000991 -0.999889
-0.223485961556 -0.644627392292 0.835227489471 0.021479 0.329768 -0.943818
-0.270784556866 -0.649979054928 0.832271456718 0.021479 0.329768 -0.943818
-0.245767712593 -0.559286177158 0.864432990551 0.021479 0.329768 -0.943818
-0.198809951544 -0.396628081799 0.875489592552 0.014865 0.000991 -0.999889
-0.195531755686 -0.385289281607 0.875536799431 0.014865 0.000991 -0.999889
-0.299268513918 -0.278845250607 0.874044239521 0.014865 0.000991 -0.999889
-0.296432197094 -0.247642531991 0.874085009098 0.014865 0.000991 -0.999889
-0.311318039894 -0.340707749128 0.873786628246 0.045917 0.001020 -0.998945
-0.365262806416 -0.465010374784 0.871252536774 0.045917 0.001020 -0.998945
-0.332908630371 -0.315119504929 0.872772395611 0.045917 0.001020 -0.998945
-0.417656153440 -0.601048648357 0.841586530209 0.058503 0.328916 -0.942545
-0.427009642124 -0.689835786819 0.810078322887 0.058503 0.328916 -0.942545
-0.346243917942 -0.694641888142 0.813482761383 0.058503 0.328916 -0.942545
-0.436057686806 -0.719791412354 0.808515191078 0.045917 0.001020 -0.998945
-0.385446548462 -0.772754192352 0.810892641544 0.045917 0.001020 -0.998945
-0.540473878384 -0.800163686275 0.800108611584 0.135260 0.001100 -0.990809
-0.619813561440 -0.693167746067 0.789208829403 0.135260 0.001100 -0.990809
-0.564120411873 -0.678841412067 0.797245442867 0.177537 0.322922 -0.929624
-0.573995530605 -0.529658079147 0.847304821014 0.177537 0.322922 -0.929624
-0.550840079784 -0.471078157425 0.858096241951 0.135260 0.001100 -0.990809
-0.387699157000 -0.257532179356 0.870198607445 0.045917 0.001020 -0.998945
-0.378110855818 -0.302422612906 0.870649039745 0.045917 0.001020 -0.998945
-0.493964254856 -0.351004093885 0.865206778049 0.045917 0.001020 -0.998945
-0.370767921209 -0.161153852940 0.870993971825 0.045917 0.001020 -0.998945
-0.411574810743 -0.201691403985 0.869077026844 0.045917 0.001020 -0.998945
-0.451148629189 -0.236472591758 0.867218017578 0.045917 0.001020 -0.998945
-0.301382601261 -0.057413443923 0.874013841152 0.014865 0.000991 -0.999889
-0.272521048784 0.058179821819 0.874429047108 0.014865 0.000991 -0.999889
-0.282594919205 -0.199425518513 0.874284148216 0.014865 0.000991 -0.999889
-0.212033063173 -0.088288947940 0.875299334526 0.014865 0.000991 -0.999889
-0.196478828788 -0.059559740126 0.875523149967 0.014865 0.000991 -0.999889
-0.299483090639 0.063615083694 0.874041140079 0.014865 0.000991 -0.999889
-0.374321401119 0.075760431588 0.870827019215 0.045917 0.001020 -0.998945
-0.450514197350 0.053470373154 0.867247879505 0.045917 0.001020 -0.998945
-0.496658116579 -0.026344126090 0.865080177784 0.045917 0.001020 -0.998945
-0.429107964039 -0.031636908650 0.868253409863 0.045917 0.001020 -0.998945
-0.576568484306 -0.183502048254 0.854561686516 0.135260 0.001100 -0.990809
-0.551410555840 -0.229799062014 0.858017921448 0.135260 0.001100 -0.990809
-0.616655230522 -0.449151962996 0.849054515362 0.135260 0.001100 -0.990809
-0.628476083279 -0.315411776304 0.847430527210 0.135260 0.001100 -0.990809
-0.630207359791 -0.512941658497 0.842305898666 0.211794 0.322666 -0.922513
-0.645622551441 -0.809644639492 0.788432121277 -0.031203 0.001007 -0.999513
-0.732828199863 -1.153879523277 0.579766511917 0.985398 -0.150596 -0.079448
-0.786477684975 -1.406343579292 0.363013863564 0.988507 -0.135905 -0.066210
-0.789998829365 -1.424312710762 0.347194910049 0.988507 -0.135905 -0.066210
-0.785381495953 -1.365736246109 0.364147752523 0.916118 0.138467 -0.376238
-0.754975736141 -1.081532120705 0.548301696777 0.768959 0.270004 -0.579482
-0.732649385929 -1.083672761917 0.576583564281 0.755092 0.264361 -0.599958
-0.701480746269 -0.855924487114 0.709294259548 0.689770 0.247812 -0.680299
-0.663640022278 -0.644578754902 0.755583763123 0.443248 -0.030800 -0.895870
-0.733111858368 -0.677479386330 0.732935190201 0.001170 0.223492 -0.974705
-0.688007235527 -0.522788584232 0.760485172272 0.001067 0.097074 -0.995277
-0.658485770226 -0.499434202909 0.806802570820 0.995589 -0.031623 0.088327
-0.659989058971 -0.355272650719 0.831263124943 0.991141 0.001098 0.132811
-0.656063616276 -0.280634492636 0.807632029057 0.984175 -0.019568 0.176116
-0.707859158516 -0.366602629423 0.774325489998 0.001018 0.043791 -0.999040
-0.725441455841 -0.278675049543 0.778247475624 0.001018 0.043791 -0.999040
-0.709860503674 -0.273894727230 0.775286793709 0.001381 -0.702951 -0.711237
-0.654145419598 -0.162335425615 0.762613236904 0.990177 0.042159 0.133315
-0.657113313675 -0.244586974382 0.810814499855 0.990177 0.042159 0.133315
-0.663543164730 -0.156576633453 0.716624140739 0.953006 -0.001227 -0.302950
-0.704175174236 -0.184872269630 0.588354587555 0.953006 -0.001227 -0.302950
-0.672578632832 -0.074761390686 0.688006281853 0.953006 -0.001227 -0.302950
-0.672430872917 -0.224022924900 0.688632249832 0.953006 -0.001227 -0.302950
-0.751396000385 -0.258776396513 0.577237069607 0.000978 -0.999999 -0.000978
-0.807267904282 -0.304056912661 0.435769528151 0.001279 -0.921899 0.387428
-0.769697487354 -0.295782089233 0.455460399389 0.001279 -0.921899 0.387428
-0.838867247105 -0.343815058470 0.358820199966 0.001357 -0.826370 0.563126
-0.863412201405 -0.234472304583 0.315652191639 -0.964656 -0.045936 0.259476
-0.859885931015 -0.162333831191 0.338881433010 -0.942789 -0.037098 0.331319
-0.868319094181 -0.041038289666 0.330264776945 -0.973392 -0.065056 0.219719
-0.862543165684 -0.075818061829 0.345631659031 -0.973392 -0.065056 0.219719
-0.860576331615 0.050541639328 0.318689197302 0.000979 0.999995 0.002938
-0.774462997913 0.050282582641 0.407849431038 0.000979 0.999995 0.002938
-0.805948257446 0.051093645394 0.533036649227 0.000983 0.999976 -0.006883
-0.833185732365 -0.043773557991 0.464895993471 -0.956751 -0.070255 0.282299
-0.799946606159 -0.220947220922 0.534066021442 -0.956751 -0.070255 0.282299
-0.823191761971 -0.013090636581 0.506333827972 -0.956751 -0.070255 0.282299
-0.838087022305 -0.127771422267 0.428657561541 -0.955306 -0.067779 0.287743
-0.835163354874 -0.307151824236 0.396446555853 -0.955306 -0.067779 0.287743
-0.836951434612 -0.319917023182 0.387503564358 -0.955306 -0.067779 0.287743
-0.797609090805 -0.153684481978 0.558434605598 -0.950833 -0.071151 0.301421
-0.775665700436 -0.162441432476 0.625652670860 -0.950833 -0.071151 0.301421
-0.803821444511 0.041526380926 0.585239946842 -0.950833 -0.071151 0.301421
-0.734874784946 -0.171068951488 0.750930428505 -0.947903 -0.065952 0.311657
-0.745170116425 -0.071107506752 0.740472733974 -0.947903 -0.065952 0.311657
-0.739941418171 0.053429577500 0.650018990040 0.001005 0.999575 -0.029133
-0.659801185131 0.036175012589 0.760596752167 0.999780 0.000997 0.020933
-0.659511208534 0.025894690305 0.746272265911 0.999780 0.000997 0.020933
-0.544441044331 -0.021700458601 0.858975350857 0.135260 0.001100 -0.990809
-0.608663260937 -0.186194539070 0.850152432919 0.135260 0.001100 -0.990809
-0.556830465794 0.107028618455 0.857273280621 0.135260 0.001100 -0.990809
-0.361643433571 0.142541572452 0.871422588825 0.045917 0.001020 -0.998945
-0.315145194530 0.262212097645 0.873606860638 0.045917 0.001020 -0.998945
-0.311298340559 0.368836879730 0.873787522316 0.045917 0.001020 -0.998945
-0.344019919634 0.384469538927 0.872250437737 0.045917 0.001020 -0.998945
-0.255126744509 0.434080779552 0.874679386616 0.014865 0.000991 -0.999889
-0.259334743023 0.281670451164 0.874618768692 0.014865 0.000991 -0.999889
-0.205574557185 0.192759230733 0.875392258167 0.014865 0.000991 -0.999889
-0.212385341525 0.167524755001 0.875294268131 0.014865 0.000991 -0.999889
-0.177581399679 0.496672868729 0.875795066357 0.014865 0.000991 -0.999889
-0.261796057224 0.448933660984 0.874583363533 0.014865 0.000991 -0.999889
-0.284302502871 0.514270067215 0.874259531498 0.014865 0.000991 -0.999889
-0.178066790104 0.711699962616 0.875788092613 0.014865 0.000991 -0.999889
-0.226803272963 0.761885762215 0.875086843967 0.014865 0.000991 -0.999889
-0.276917815208 0.860933184624 0.874365806580 0.014865 0.000991 -0.999889
-0.358757913113 0.829057812691 0.871558129787 0.045917 0.001020 -0.998945
-0.493538230658 0.523157596588 0.865226805210 0.045917 0.001020 -0.998945
-0.497164279222 0.714004993439 0.865056455135 0.045917 0.001020 -0.998945
-0.462306499481 0.714098036289 0.866693913937 0.045917 0.001020 -0.998945
-0.427907705307 0.488444745541 0.868309795856 0.045917 0.001020 -0.998945
-0.330693066120 0.487959653139 0.872876465321 0.045917 0.001020 -0.998945
-0.328322768211 0.476404666901 0.872987806797 0.045917 0.001020 -0.998945
-0.405139029026 0.309119880199 0.869379341602 0.045917 0.001020 -0.998945
-0.439925640821 0.287907183170 0.867745280266 0.045917 0.001020 -0.998945
-0.433410286903 0.308089077473 0.868051290512 0.045917 0.001020 -0.998945
-0.563352406025 0.249359995127 0.856377303600 0.135260 0.001100 -0.990809
-0.553004324436 0.267875254154 0.857798933983 0.135260 0.001100 -0.990809
-0.584034979343 0.120355412364 0.853535890579 0.135260 0.001100 -0.990809
-0.643445014954 0.107925310731 0.845008969307 0.160219 0.001120 -0.987081
-0.659351646900 0.368266910315 0.749026715755 0.999820 -0.000997 0.018940
-0.660702824593 0.180625498295 0.805581688881 0.999820 -0.000997 0.018940
-0.711242198944 0.389225542545 0.739363849163 0.000993 0.016879 -0.999857
-0.745339334011 0.247281610966 0.736839711666 0.000993 0.016879 -0.999857
-0.728174567223 0.251366436481 0.736912369728 0.000993 0.016879 -0.999857
-0.726172685623 0.661302447319 0.744736373425 0.000997 0.020933 -0.999780
-0.736709058285 0.500940620899 0.741450369358 0.000997 0.020933 -0.999780
-0.681797146797 0.604582130909 0.743574082851 0.000997 0.020933 -0.999780
-0.677941381931 0.682594954967 0.745172619820 0.000997 0.020933 -0.999780
-0.659884035587 0.563140988350 0.800759196281 0.999720 -0.005024 0.023109
-0.661253750324 0.203338101506 0.833732903004 0.999736 0.000999 0.022971
-0.660926222801 0.349643707275 0.819847702980 0.999736 0.000999 0.022971
-0.559216737747 0.688197493553 0.856945455074 0.135260 0.001100 -0.990809
-0.546071350574 0.637010991573 0.858751416206 0.135260 0.001100 -0.990809
-0.596512138844 0.733053028584 0.851821780205 0.135260 0.001100 -0.990809
-0.495612621307 0.825838685036 0.865129351616 0.045917 0.001020 -0.998945
-0.376041471958 1.008146524429 0.870746195316 0.045917 0.001020 -0.998945
-0.332993298769 0.965762436390 0.872768402100 0.045917 0.001020 -0.998945
-0.201982572675 1.057275772095 0.875443935394 0.014865 0.000991 -0.999889
-0.283368378878 1.005335092545 0.874273002148 0.014865 0.000991 -0.999889
-0.215190201998 1.145427465439 0.875253915787 0.014865 0.000991 -0.999889
-0.235573142767 1.193464875221 0.874960660934 0.014865 0.000991 -0.999889
-0.148129507899 1.283742427826 0.876216948032 0.012857 0.000989 -0.999917
-0.069772921503 1.315735936165 0.877285182476 0.012857 0.000989 -0.999917
-0.024731043726 1.125016927719 0.877899169922 0.012857 0.000989 -0.999917
-0.105147816241 1.140779495239 0.876802861691 0.012857 0.000989 -0.999917
-0.000624990324 1.753412246704 0.878227949142 0.012857 0.000989 -0.999917
-0.060745809227 1.577897191048 0.877408266068 0.012857 0.000989 -0.999917
-0.063037462533 1.677506327629 0.877377033234 0.012857 0.000989 -0.999917
-0.053397707641 1.753443837166 0.877508461475 0.012857 0.000989 -0.999917
-0.142274722457 1.553246498108 0.876296758652 0.012857 0.000989 -0.999917
-0.061199173331 1.883618712425 0.877402126789 0.012857 0.000989 -0.999917
-0.007599721663 1.974203944206 0.878132879734 0.012857 0.000989 -0.999917
-0.114469125867 1.955440759659 0.876675844193 0.012857 0.000989 -0.999917
-0.205496653914 1.804335951805 0.875393390656 0.014865 0.000991 -0.999889
-0.190104141831 1.801314949989 0.875614881516 0.014865 0.000991 -0.999889
-0.251588106155 1.692826509476 0.874730229378 0.014865 0.000991 -0.999889
-0.190249532461 1.730418801308 0.875612795353 0.014865 0.000991 -0.999889
-0.304578542709 1.665521264076 0.873967826366 0.014865 0.000991 -0.999889
-0.154539048672 1.549652576447 0.876126587391 0.014865 0.000991 -0.999889
-0.166151642799 1.400565862656 0.875959515572 0.014865 0.000991 -0.999889
-0.237157166004 1.505983829498 0.874937891960 0.014865 0.000991 -0.999889
-0.189732924104 1.334628939629 0.875620186329 0.014865 0.000991 -0.999889
-0.193384498358 1.377689599991 0.875567674637 0.014865 0.000991 -0.999889
-0.382316827774 1.161002039909 0.870451450348 0.045917 0.001020 -0.998945
-0.364352226257 1.272854566574 0.871295332909 0.045917 0.001020 -0.998945
-0.375888824463 1.129378318787 0.870753407478 0.045917 0.001020 -0.998945
-0.442244619131 1.109683513641 0.867636322975 0.045917 0.001020 -0.998945
-0.330667167902 1.113164305687 0.872877717018 0.045917 0.001020 -0.998945
-0.561085939407 0.919816970825 0.856688678265 0.135260 0.001100 -0.990809
-0.588330686092 0.836057901382 0.852945744991 0.135260 0.001100 -0.990809
-0.659526646137 0.734739124775 0.794298946857 0.999217 0.001014 0.039563
-0.659206449986 0.800617277622 0.774891018867 0.999075 0.009222 0.042012
-0.721870720387 0.801523685455 0.746361851692 0.000983 -0.006883 -0.999976
-0.728629887104 0.813448011875 0.746291041374 0.000983 -0.006883 -0.999976
-0.717003047466 0.892716228962 0.669230282307 0.000987 -0.999941 -0.010858
-0.778911232948 0.893554091454 0.512505054474 0.000978 -0.999999 -0.000978
-0.848513185978 0.893513500690 0.377244234085 0.000978 -0.999999 0.000978
-0.813429832458 0.893497884274 0.362296670675 0.000978 -0.999999 0.000978
-0.802653670311 0.852219700813 0.325200051069 0.001018 -0.043791 0.999040
-0.816741287708 0.695426642895 0.319534629583 0.000999 -0.022971 0.999736
-0.835667192936 0.555779576302 0.316264748573 0.000999 -0.022971 0.999736
-0.853521347046 0.525508761406 0.315555959940 0.000999 -0.022971 0.999736
-0.884093403816 0.364029347897 0.311827421188 0.000999 -0.022971 0.999736
-0.801775515079 0.375953584909 0.312100201845 0.000999 -0.022971 0.999736
-0.877646327019 0.063111409545 0.304340720177 0.001005 -0.029133 0.999575
-0.796119332314 0.147900536656 0.222565740347 0.993931 0.070754 -0.084231
-0.782515883446 -0.137621805072 0.299842685461 0.987433 0.001121 -0.158034
-0.789106130600 -0.130723446608 0.258923083544 0.987433 0.001121 -0.158034
-0.783761620522 -0.374265044928 0.285900980234 0.989620 0.005566 -0.143601
-0.792395710945 -0.123825728893 0.236536562443 0.989620 0.005566 -0.143601
-0.794283390045 -0.032204866409 0.227250158787 0.989620 0.005566 -0.143601
-0.778192818165 -0.222340792418 0.323069185019 0.978290 -0.001158 -0.207235
-0.769580066204 -0.123301990330 0.361142575741 0.975213 -0.001171 -0.221267
-0.772316217422 -0.112895220518 0.348998785019 0.975213 -0.001171 -0.221267
-0.766757249832 -0.278242737055 0.370826870203 0.948843 0.013715 -0.315450
-0.756004869938 -0.278795778751 0.404849797487 0.959269 0.010998 -0.282282
-0.738009512424 0.050012443215 0.478235185146 0.959269 0.010998 -0.282282
-0.750474274158 0.024644296616 0.434956699610 0.959269 0.010998 -0.282282
-0.755418896675 -0.147633463144 0.411734849215 0.959269 0.010998 -0.282282
-0.724521934986 -0.123560056090 0.519882619381 0.965534 -0.001199 -0.260274
-0.720277011395 -0.138480991125 0.535716772079 0.965534 -0.001199 -0.260274
-0.721557974815 -0.177741244435 0.531242012978 0.965534 -0.001199 -0.260274
-0.713969111443 -0.176571935415 0.558459401131 0.950625 0.006181 -0.310282
-0.687421023846 -0.007957541384 0.642594277859 0.950625 0.006181 -0.310282
-0.725488007069 0.051213819534 0.551348805428 0.000983 0.999976 -0.006883
-0.833950221539 -0.514706492424 0.293577641249 -0.001118 -0.157685 0.987489
-0.834723174572 -0.694566905499 0.268608659506 0.001087 -0.120688 0.992690
-0.792561352253 -0.694831788540 0.268576323986 0.001087 -0.120688 0.992690
-0.767542421818 -1.139229536057 0.407662153244 0.973587 -0.111518 -0.199228
-0.771534442902 -1.192691326141 0.417078882456 0.975449 -0.105892 -0.193097
-0.720264852047 -1.380629897118 0.347359478474 -0.033911 -0.300177 0.953281
-0.781186759472 -1.477667331696 0.334509789944 0.319885 -0.029080 0.947010
-0.644430100918 -1.457908630371 0.326046884060 -0.046932 -0.300617 0.952589
-0.567322492599 -1.476048111916 0.322512477636 -0.016024 -0.287198 0.957737
-0.594231247902 -1.492028474808 0.317253470421 -0.016024 -0.287198 0.957737
-0.663075268269 -1.297242045403 0.353710263968 -0.048051 0.001022 0.998844
-0.702891588211 -1.303001999855 0.350480407476 -0.085581 0.001057 0.996331
-0.769438147545 -1.256525039673 0.325343191624 -0.161508 0.596220 0.786407
-0.777336776257 -1.173021554947 0.376809984446 0.979514 -0.117049 -0.163868
-0.782521307468 -1.141406536102 0.323591709137 0.979514 -0.117049 -0.163868
-0.703924894333 -1.140708923340 0.249808877707 -0.145089 0.605786 0.782287
-0.761118054390 -1.157651185989 0.098541803658 -0.329418 0.885969 -0.326410
-0.775320708752 -1.149028539658 0.136228784919 -0.329418 0.885969 -0.326410
-0.794661819935 -1.249016404152 -0.115275278687 -0.329418 0.885969 -0.326410
-0.764077544212 -1.274531364441 -0.194897919893 -0.109836 0.907881 -0.404584
-0.679163455963 -1.223920226097 -0.104796707630 -0.109836 0.907881 -0.404584
-0.668071508408 -1.160865306854 0.033345185220 -0.109836 0.907881 -0.404584
-0.651313543320 -1.159536123276 0.033229678869 -0.074846 0.910405 -0.406892
-0.605986833572 -1.133818387985 0.082465976477 -0.074846 0.910405 -0.406892
-0.592773795128 -1.178431153297 0.295391738415 -0.100736 0.608794 0.786907
-0.561348497868 -1.157188057899 0.282997786999 -0.100736 0.608794 0.786907
-0.624591350555 -1.221049547195 0.324278801680 -0.100736 0.608794 0.786907
-0.573920786381 -1.304377913475 0.358027219772 -0.048051 0.001022 0.998844
-0.364505857229 -1.346660614014 0.361795216799 -0.014865 0.000991 0.999889
-0.367037326097 -1.338632345200 0.361756533384 -0.014865 0.000991 0.999889
-0.306448161602 -1.504783034325 0.320303380489 -0.006001 -0.258031 0.966118
-0.339621841908 -1.468900442123 0.329711079597 -0.006001 -0.258031 0.966118
-0.333552271128 -1.568064212799 0.303269326687 -0.006001 -0.258031 0.966118
-0.434023559093 -1.408245921135 0.345415204763 -0.006001 -0.258031 0.966118
-0.554884076118 -1.528985857964 0.306894987822 -0.041489 -0.287908 0.956759
-0.417681783438 -1.560099720955 0.303623437881 -0.041489 -0.287908 0.956759
-0.495880126953 -1.558476328850 0.300654798746 -0.041489 -0.287908 0.956759
-0.195416480303 -1.509598493576 0.319039016962 0.001195 -0.256844 0.966452
-0.208110630512 -1.652025222778 0.281016886234 0.001195 -0.256844 0.966452
-0.300828784704 -1.375487923622 0.354847311974 0.001195 -0.256844 0.966452
-0.156573906541 -1.577189207077 0.300992667675 0.001195 -0.256844 0.966452
-0.151747658849 -1.530849218369 0.313363492489 0.001195 -0.256844 0.966452
-0.139993175864 -1.500442624092 0.321481227875 0.001195 -0.256844 0.966452
-0.019583806396 -1.443311929703 0.336735934019 0.001195 -0.256844 0.966452
-0.043332800269 -1.450037956238 0.334939986467 0.001195 -0.256844 0.966452
-0.011766687036 -1.399161338806 0.348524719477 0.001195 -0.256844 0.966452
-0.113074943423 -1.358501315117 0.359381526709 0.001195 -0.256844 0.966452
-0.283077061176 -1.278304219246 0.362761259079 0.000978 0.000978 0.999999
-0.151192188263 -1.300462841988 0.362761259079 0.000978 0.000978 0.999999
-0.492039829493 -1.265297770500 0.359847307205 -0.014865 0.000991 0.999889
-0.477896511555 -1.173114418983 0.299430251122 -0.035117 0.611030 0.790828
-0.456955760717 -1.172414779663 0.299821823835 -0.035117 0.611030 0.790828
-0.532719552517 -1.198485374451 0.316623687744 -0.035117 0.611030 0.790828
-0.431316405535 -1.112862467766 0.254873156548 -0.035117 0.611030 0.790828
-0.429789870977 -1.145319819450 0.280061781406 -0.035117 0.611030 0.790828
-0.426060885191 -1.151745319366 0.285200953484 -0.035117 0.611030 0.790828
-0.485223531723 -1.087356328964 0.172460272908 -0.027666 0.912972 -0.407083
-0.551232337952 -1.169160604477 -0.006108686328 -0.027666 0.912972 -0.407083
-0.463850021362 -1.077346920967 0.193386867642 -0.027666 0.912972 -0.407083
-0.457593917847 -1.100641012192 0.140798985958 -0.027666 0.912972 -0.407083
-0.388828486204 -1.087903618813 0.164542481303 -0.027666 0.912972 -0.407083
-0.433216959238 -1.130762338638 0.071667835116 -0.027666 0.912972 -0.407083
-0.398708701134 -1.235014915466 -0.164139509201 -0.027666 0.912972 -0.407083
-0.364575058222 -1.165415167809 -0.010681982152 -0.027666 0.912972 -0.407083
-0.482908070087 -1.243881464005 -0.178145200014 -0.027666 0.912972 -0.407083
-0.422635793686 -1.211906313896 -0.110740356147 -0.027666 0.912972 -0.407083
-0.376146018505 -1.130501031876 0.068290650845 -0.027666 0.912972 -0.407083
-0.314048677683 -1.090323567390 0.153932943940 -0.027666 0.912972 -0.407083
-0.244332328439 -1.164212465286 -0.012385338545 0.001291 0.912475 -0.409130
-0.132605388761 -1.060405731201 0.220028027892 0.001291 0.912475 -0.409130
-0.214556410909 -1.171951055527 -0.029711157084 0.001291 0.912475 -0.409130
-0.300017148256 -1.159052371979 -0.000832408667 0.001291 0.912475 -0.409130
-0.175488010049 -1.073355913162 0.191033855081 0.001291 0.912475 -0.409130
-0.131793916225 -1.110600590706 0.107646584511 0.001291 0.912475 -0.409130
-0.153616458178 -1.068469405174 0.226309433579 0.001370 0.612421 0.790530
-0.036813020706 -1.064384222031 0.223147675395 0.001370 0.612421 0.790530
-0.111103467643 -1.174351811409 0.308257877827 0.001370 0.612421 0.790530
-0.286686509848 -1.102629065514 0.252747565508 0.001370 0.612421 0.790530
-0.238991647959 -1.212392568588 0.337699830532 0.001370 0.612421 0.790530
-0.265624374151 -1.198416829109 0.326883256435 0.001370 0.612421 0.790530
-0.219781428576 -1.256469488144 0.362761259079 0.000978 0.000978 0.999999
-0.047355569899 -1.289240002632 0.362761259079 0.000978 0.000978 0.999999
-0.084684923291 -1.143559098244 0.033855587244 0.001291 0.912475 -0.409130
-0.153349161148 -1.175461649895 -0.037571266294 0.001291 0.912475 -0.409130
-0.146420150995 -1.218036532402 -0.132892340422 0.001291 0.912475 -0.409130
-0.121586143970 -1.185618400574 -0.060311160982 0.001291 0.912475 -0.409130
-0.011557221413 -1.181551218033 -0.051205173135 0.001291 0.912475 -0.409130
-0.142491653562 -1.158833384514 -0.000342190266 0.001291 0.912475 -0.409130
-0.205703467131 -1.205718755722 -0.245927661657 0.001325 0.878249 0.478202
-0.089168071747 -1.237112879753 -0.188318237662 0.001325 0.878249 0.478202
-0.060719236732 -1.221163630486 -0.217585653067 0.001325 0.878249 0.478202
-0.137511700392 -1.168054819107 -0.315042436123 0.001325 0.878249 0.478202
-0.073349758983 -1.174821734428 -0.302624851465 0.001325 0.878249 0.478202
-0.085756644607 -1.197926402092 -0.260226845741 0.001325 0.878249 0.478202
-0.172947302461 -1.129441261292 -0.397979944944 0.001219 0.956644 0.291258
-0.309030890465 -1.106349110603 -0.474628716707 -0.036327 0.955769 0.291867
-0.551760196686 -1.132405281067 -0.421410739422 -0.041735 0.952311 0.302261
-0.406050264835 -1.132616639137 -0.401094853878 -0.041735 0.952311 0.302261
-0.523849725723 -1.157695174217 -0.352905601263 -0.039556 0.877052 0.478764
-0.451995849609 -1.156949520111 -0.348188132048 -0.039556 0.877052 0.478764
-0.380778729916 -1.189694643021 -0.282067894936 -0.039556 0.877052 0.478764
-0.554769158363 -1.221602797508 -0.238251134753 -0.039556 0.877052 0.478764
-0.539961993694 -1.187929987907 -0.298788160086 -0.039556 0.877052 0.478764
-0.440197914839 -1.235630750656 -0.202805563807 -0.039556 0.877052 0.478764
-0.642431855202 -1.166320204735 -0.360341459513 -0.112805 0.872456 0.475495
-0.631262540817 -1.220940470695 -0.257441997528 -0.112805 0.872456 0.475495
-0.614288210869 -1.204222798347 -0.073634743690 -0.074846 0.910405 -0.406892
-0.567237734795 -1.179953694344 -0.027958808467 -0.074846 0.910405 -0.406892
-0.702817261219 -1.235019445419 -0.253618657589 -0.178672 0.863826 0.471043
-0.734244287014 -1.256658673286 -0.225853532553 -0.178672 0.863826 0.471043
-0.758734703064 -1.248075604439 -0.250911414623 -0.178672 0.863826 0.471043
-0.796639263630 -1.143019080162 -0.364672720432 0.999999 0.000978 0.000978
-0.796639263630 -1.201227664948 -0.332457214594 0.999999 0.000978 0.000978
-0.796639263630 -1.139025568962 -0.443642884493 0.999999 0.000978 0.000978
-0.781398713589 -1.167874217033 -0.414488613605 -0.176414 0.921586 0.345771
-0.571149110794 -1.122709870338 -0.457453459501 -0.098658 0.948432 0.301236
-0.606214523315 -1.085475921631 -0.479876577854 0.000978 0.000978 0.999999
-0.697988629341 -1.055166840553 -0.479876577854 0.000978 0.000978 0.999999
-0.760400235653 -0.863874375820 -0.479876607656 -0.000978 0.000978 0.999999
-0.778788924217 -0.897944808006 -0.479876607656 -0.000978 0.000978 0.999999
-0.796639263630 -0.931725382805 -0.233313664794 0.999999 0.000978 0.000978
-0.796639263630 -0.796331167221 -0.438234210014 0.999999 0.000978 0.000978
-0.796639263630 -0.941243052483 -0.092185989022 0.999999 0.000978 0.000978
-0.796639263630 -0.967088043690 0.032556980848 0.999999 0.000978 0.000978
-0.796639263630 -0.935808539391 -0.006431430578 0.999999 0.000978 0.000978
-0.796639263630 -0.965898096561 -0.064007937908 0.999999 0.000978 0.000978
-0.796639263630 -0.982966244221 0.139461979270 0.999999 0.000978 0.000978
-0.796639263630 -1.089071989059 -0.165412008762 0.999999 0.000978 0.000978
-0.796639263630 -1.011394143105 0.072588950396 0.999999 0.000978 0.000978
-0.796639263630 -1.074214458466 -0.013321384788 0.999999 0.000978 0.000978
-0.796639263630 -1.186478257179 -0.110599495471 0.999999 0.000978 0.000978
-0.796639263630 -0.996317207813 0.023591578007 0.999999 0.000978 0.000978
-0.796639263630 -1.207441329956 -0.170865282416 0.999999 0.000978 0.000978
-0.796639263630 -1.014599561691 -0.110603600740 0.999999 0.000978 0.000978
-0.796639263630 -1.186582446098 -0.112079843879 0.999999 0.000978 0.000978
-0.796639263630 -1.087900996208 0.006514765322 0.999999 0.000978 0.000978
-0.796639263630 -1.168865799904 -0.139158934355 0.999999 0.000978 0.000978
-0.796842515469 -1.136789679527 0.015294769779 0.999964 -0.006924 0.004945
-0.796894967556 -1.038056612015 0.148759126663 0.999964 -0.006924 0.004945
-0.796767890453 -1.138001918793 0.000863056630 0.999964 -0.006924 0.004945
-0.792416155338 -1.002660036087 0.214968934655 0.991585 -0.050996 -0.118990
-0.793316245079 -0.965173065662 0.200719952583 0.992903 0.005450 -0.118800
-0.796639263630 -0.816860914230 -0.310996800661 0.999999 0.000978 0.000978
-0.796639263630 -0.794930636883 -0.013685375452 0.999999 0.000978 0.000978
-0.796639263630 -0.800565719604 0.092951327562 0.999999 0.000978 0.000978
-0.796639263630 -0.837401807308 -0.104257941246 0.999999 0.000978 0.000978
-0.796639263630 -0.806840419769 0.148919135332 0.999999 0.000978 0.000978
-0.796639263630 -0.858639001846 0.107653357089 0.999999 0.000978 0.000978
-0.796639263630 -0.875316560268 -0.150469958782 0.999999 0.000978 0.000978
-0.796639263630 -0.754788815975 0.037317648530 0.999999 0.000978 0.000978
-0.796639263630 -0.610479712486 -0.447964996099 0.999999 0.000978 0.000978
-0.796639263630 -0.704830050468 -0.336299836636 0.999999 0.000978 0.000978
-0.796639263630 -0.739750742912 -0.340266644955 0.999999 0.000978 0.000978
-0.796639263630 -0.748423099518 -0.098560363054 0.999999 0.000978 0.000978
-0.796639263630 -0.729519665241 -0.416723668575 0.999999 0.000978 0.000978
-0.761964440346 -0.728307008743 -0.479876637459 0.000978 0.000978 0.999999
-0.718649268150 -0.841776609421 -0.479876607656 -0.000978 0.000978 0.999999
-0.564695417881 -0.979575037956 -0.479876607656 0.000978 0.000978 0.999999
-0.574984252453 -1.010519623756 -0.479876607656 0.000978 0.000978 0.999999
-0.476178795099 -1.087300658226 -0.479876548052 -0.000978 0.000978 0.999999
-0.531516790390 -1.034630656242 -0.479876607656 -0.000978 0.000978 0.999999
-0.414387553930 -1.037459969521 -0.479876577854 -0.000978 0.000978 0.999999
-0.390103578568 -1.046865463257 -0.479876577854 -0.000978 0.000978 0.999999
-0.493903458118 -0.978369235992 -0.479876607656 -0.000978 -0.000978 0.999999
-0.487256467342 -0.957095563412 -0.479876607656 -0.000978 -0.000978 0.999999
-0.537324190140 -0.803499460220 -0.479876577854 -0.000978 -0.000978 0.999999
-0.567768812180 -0.930940628052 -0.479876607656 -0.000978 -0.000978 0.999999
-0.628881275654 -0.687568247318 -0.479876607656 -0.000978 0.000978 0.999999
-0.726591765881 -0.688512146473 -0.479876637459 0.000978 0.000978 0.999999
-0.786222875118 -0.556720912457 -0.479876637459 0.000978 0.000978 0.999999
-0.796639263630 -0.541250526905 -0.021891236305 0.999999 0.000978 0.000978
-0.796639263630 -0.576974034309 -0.303357243538 0.999999 0.000978 0.000978
-0.796639263630 -0.490640431643 -0.331671893597 0.999999 0.000978 0.000978
-0.796639263630 -0.443514883518 -0.382202208042 0.999999 0.000978 0.000978
-0.796639263630 -0.576575815678 -0.080347001553 0.999999 0.000978 0.000978
-0.796639263630 -0.531115412712 -0.236769333482 0.999999 0.000978 0.000978
-0.796639263630 -0.481579780579 -0.213364899158 0.999999 0.000978 0.000978
-0.796639263630 -0.674956202507 -0.052925556898 0.999999 0.000978 0.000978
-0.796639263630 -0.607186198235 -0.064666435122 0.999999 0.000978 0.000978
-0.796639263630 -0.747009515762 0.083561845124 0.999999 0.000978 0.000978
-0.796639263630 -0.645001471043 0.063155174255 0.999999 0.000978 0.000978
-0.796639263630 -0.619417369366 -0.213365405798 0.999999 0.000978 0.000978
-0.796639263630 -0.660474121571 0.030594423413 0.999999 0.000978 0.000978
-0.796043634415 -0.753461241722 0.188969224691 0.996860 0.003165 -0.079116
-0.790437817574 -0.847394645214 0.244979262352 0.996671 0.015989 -0.079947
-0.792813897133 -0.613440573215 0.227793663740 0.995232 -0.003214 -0.097488
-0.794398784637 -0.572964012623 0.211744531989 0.995232 0.003214 -0.097488
-0.796639263630 -0.458884716034 0.173051089048 0.999999 0.000978 0.000978
-0.796639263630 -0.414551645517 -0.302911430597 0.999999 0.000978 0.000978
-0.796639263630 -0.425160944462 0.042465925217 0.999999 0.000978 0.000978
-0.796639263630 -0.553711712360 0.155588120222 0.999999 0.000978 0.000978
-0.796639263630 -0.424172520638 -0.171494185925 0.999999 0.000978 0.000978
-0.796639263630 -0.515868306160 0.138745397329 0.999999 0.000978 0.000978
-0.796639263630 -0.465911030769 -0.103787675500 0.999999 0.000978 0.000978
-0.796639263630 -0.542479157448 0.176071226597 0.999999 0.000978 0.000978
-0.796639263630 -0.047294199467 -0.465131312609 0.999999 0.000978 0.000978
-0.796639263630 -0.051618248224 -0.450738459826 0.999999 0.000978 0.000978
-0.796639263630 -0.260516911745 -0.133296683431 0.999999 0.000978 0.000978
-0.796639263630 -0.205446168780 -0.214781507850 0.999999 0.000978 0.000978
-0.796639263630 -0.310770630836 -0.248271539807 0.999999 0.000978 0.000978
-0.796639263630 -0.367385208607 0.118429563940 0.999999 0.000978 0.000978
-0.796639263630 -0.166298195720 -0.260526776314 0.999999 0.000978 0.000978
-0.796639263630 -0.314003109932 -0.312626421452 0.999999 0.000978 0.000978
-0.796639263630 -0.351837486029 0.066765666008 0.999999 0.000978 0.000978
-0.796639263630 -0.269702881575 0.018010973930 0.999999 0.000978 0.000978
-0.796639263630 -0.273453146219 -0.369135946035 0.999999 0.000978 0.000978
-0.796639263630 -0.279656201601 -0.199908867478 0.999999 0.000978 0.000978
-0.796639263630 -0.338332772255 -0.430628627539 0.999999 0.000978 0.000978
-0.796639263630 -0.244543984532 -0.214374348521 0.999999 0.000978 0.000978
-0.684724748135 -0.340963333845 -0.479876637459 0.000978 0.000978 0.999999
-0.790558576584 -0.070892348886 -0.479876637459 0.000978 0.000978 0.999999
-0.741497635841 -0.205832317472 -0.479876637459 0.000978 0.000978 0.999999
-0.724502563477 -0.391216129065 -0.479876637459 0.000978 0.000978 0.999999
-0.704111337662 -0.468910813332 -0.479876637459 0.000978 0.000978 0.999999
-0.609032630920 -0.565857112408 -0.479876607656 -0.000978 0.000978 0.999999
-0.645046949387 -0.442526280880 -0.479876637459 -0.000978 0.000978 0.999999
-0.566242456436 -0.686677157879 -0.479876607656 -0.000978 0.000978 0.999999
-0.547678828239 -0.709014832973 -0.479876577854 -0.000978 0.000978 0.999999
-0.492855489254 -0.718655705452 -0.479876577854 -0.000978 0.000978 0.999999
-0.473190009594 -0.792216360569 -0.479876577854 -0.000978 0.000978 0.999999
-0.387162864208 -0.854845762253 -0.479876548052 -0.000978 0.000978 0.999999
-0.358900010586 -0.783386588097 -0.479876548052 -0.000978 0.000978 0.999999
-0.199997693300 -0.865515828133 -0.479761630297 -0.000978 0.000978 0.999999
-0.145222723484 -0.884080171585 -0.479699462652 -0.000978 0.000978 0.999999
-0.089769944549 -0.956296443939 -0.479636520147 -0.000978 0.000978 0.999999
-0.175112411380 -0.998911380768 -0.479733377695 -0.000978 0.000978 0.999999
-0.299327373505 -1.050171732903 -0.479874372482 -0.000978 0.000978 0.999999
-0.060496781021 -1.025437712669 -0.479603320360 -0.000978 0.000978 0.999999
-0.149941638112 -1.053931117058 -0.479704827070 -0.000978 0.000978 0.999999
-0.146403267980 -1.115263938904 -0.444380968809 -0.001222 0.956436 0.291939
-0.013853982091 -1.109225034714 -0.463961601257 -0.001222 0.956436 0.291939
-0.001510472503 -0.838281989098 -0.479536384344 -0.000978 0.000978 0.999999
-0.123843267560 -0.880490422249 -0.479675203562 -0.000978 0.000978 0.999999
-0.015220783651 -0.800321757793 -0.479551941156 -0.000978 0.000978 0.999999
-0.153032734990 -0.742061793804 -0.479708343744 -0.000978 0.000978 0.999999
-0.213715434074 -0.721215486526 -0.479777187109 -0.000978 0.000978 0.999999
-0.076020553708 -0.750597000122 -0.479620933533 -0.000978 0.000978 0.999999
-0.315527975559 -0.727459728718 -0.479876577854 -0.000978 0.000978 0.999999
-0.403998613358 -0.635220468044 -0.479876577854 -0.000978 0.000978 0.999999
-0.376291006804 -0.707736015320 -0.479876577854 -0.000978 0.000978 0.999999
-0.390822947025 -0.522304832935 -0.479876577854 -0.000978 0.000978 0.999999
-0.475364863873 -0.509603619576 -0.479876577854 -0.000978 0.000978 0.999999
-0.555779516697 -0.469925552607 -0.479876607656 -0.000978 0.000978 0.999999
-0.627035617828 -0.429028689861 -0.479876637459 -0.000978 0.000978 0.999999
-0.592039048672 -0.275272488594 -0.479876607656 -0.000978 -0.000978 0.999999
-0.614506065845 -0.191260680556 -0.479876577854 -0.000978 -0.000978 0.999999
-0.714400112629 -0.191178262234 -0.479876637459 -0.000978 -0.000978 0.999999
-0.746014118195 -0.061218798161 -0.479876607656 -0.000978 -0.000978 0.999999
-0.737292110920 -0.028810322285 -0.479876607656 -0.000978 -0.000978 0.999999
-0.770160794258 0.088188931346 -0.479876637459 -0.000978 0.000978 0.999999
-0.796639263630 0.112068995833 -0.423644185066 0.999999 0.000978 0.000978
-0.796639263630 0.056476604193 0.096881970763 0.999999 0.000978 0.000978
-0.796639263630 0.059435449541 -0.283834517002 0.999999 0.000978 0.000978
-0.796639263630 0.046928871423 -0.345468819141 0.999999 0.000978 0.000978
-0.796639263630 -0.210380390286 0.029499098659 0.999999 0.000978 0.000978
-0.796639263630 -0.044913198799 0.095779553056 0.999999 0.000978 0.000978
-0.796639263630 0.010533733293 -0.309336692095 0.999999 0.000978 0.000978
