-0.642618477345 -0.963425815105 -0.399518162012 0.999960 -0.008884 0.000987
-0.659462749958 -0.971469938755 -0.592163681984 0.379994 0.689254 -0.616874
-0.651986420155 -1.018915891647 -0.624841451645 0.622326 0.461293 -0.632391
-0.641736447811 -1.075154781342 -0.655371725559 0.383268 0.377011 -0.843190
-0.830805778503 -1.085816502571 -0.667835056782 -0.001292 0.406977 -0.913437
-0.812614142895 -0.898575842381 -0.472633600235 -0.003703 0.951597 -0.307325
-0.747666001320 -0.886999607086 -0.437700212002 -0.003703 0.951597 -0.307325
-0.785459876060 -0.883966267109 -0.412810444832 -0.003232 0.994518 -0.104516
-0.725989699364 -0.883405923843 -0.409780263901 -0.003232 0.994518 -0.104516
-0.782227814198 -0.947221696377 -0.564780414104 -0.004145 0.744729 -0.667354
-0.712408840656 -1.002463698387 -0.620279788971 -0.001366 0.586138 -0.810210
-0.731456220150 -1.027911543846 -0.638666033745 -0.001366 0.586138 -0.810210
-0.699254274368 -1.082020521164 -0.666382372379 -0.001292 0.406977 -0.913437
-0.726830065250 -0.999073147774 -0.455509126186 0.006604 -0.891483 0.453006
-0.766625106335 -1.019077062607 -0.494170576334 0.006596 -0.890415 0.455101
-0.830110907555 -1.035269379616 -0.516145110130 0.004135 -0.627208 0.778841
-0.808634459972 -1.130815505981 -0.576972305775 0.003600 -0.258034 0.966129
-0.827794015408 -1.196468234062 -0.592201590538 0.003350 0.152979 0.988224
-0.753263771534 -1.268769264221 -0.581059277058 0.001119 0.155503 0.987835
-0.799997031689 -1.327922821045 -0.549940824509 -0.001351 0.544370 0.838844
-0.747228384018 -1.340128064156 -0.541992008686 0.001351 0.544370 0.838844
-0.665117979050 -1.363284826279 -0.526115119457 -0.001353 0.840077 0.542465
-0.699650645256 -1.382134079933 -0.497053146362 0.001351 0.838844 0.544370
-0.776689350605 -1.416600584984 -0.429500818253 -0.001118 0.987489 0.157685
-0.732284545898 -0.983407616615 -0.411340177059 0.007229 -0.998586 0.052666
-0.816961169243 -0.983810782433 -0.407122641802 0.007229 -0.998586 0.052666
-0.701667606831 -0.987310647964 -0.310812592506 0.006333 -0.933523 -0.358463
-0.773430824280 -0.998906731606 -0.282013952732 0.006348 -0.933196 -0.359312
-0.689956784248 -1.043400883675 -0.213722333312 0.006946 -0.707090 -0.707090
-0.685562372208 -1.075340747833 -0.181743845344 0.006946 -0.707090 -0.707090
-0.757724106312 -1.099582433701 -0.170505464077 0.006333 -0.358463 -0.933523
-0.831731259823 -1.097945213318 -0.171515762806 0.003800 -0.358467 -0.933535
-0.719913542271 -1.216538310051 -0.147068858147 0.003098 0.054726 -0.998497
-0.744359016418 -1.242909312248 -0.148507714272 0.001028 0.052451 -0.998623
-0.737060248852 -1.291201472282 -0.164765477180 -0.001313 0.452981 -0.891519
-0.729484260082 -1.328114748001 -0.183602154255 0.001314 0.456129 -0.889912
-0.666843116283 -1.355102658272 -0.204948812723 -0.001377 0.775059 -0.631887
-0.742130339146 -1.379090189934 -0.234312623739 0.001374 0.776155 -0.630540
-0.663656532764 -1.419212579727 -0.322265416384 -0.001195 0.966452 -0.256844
-0.830395936966 -1.422489285469 -0.334142565727 -0.001197 0.966294 -0.257439
-0.636293292046 -1.398078680038 -0.501543521881 0.847235 0.445995 0.288585
-0.778362751007 -1.170575141907 -0.419239133596 -0.317806 -0.220897 0.922065
-0.786942362785 -1.124906301498 -0.380423456430 -0.159507 0.986152 -0.045407
-0.794849574566 -1.225463271141 -0.359589099884 -0.992023 -0.103644 0.071754
-0.793043851852 -1.223613739014 -0.325635582209 -0.999476 -0.013245 0.029546
-0.845204591751 -1.410770297050 -0.396540880203 -0.013089 0.017116 -0.999768
-0.873617947102 -1.430229783058 -0.376231431961 -0.979228 0.149416 -0.137067
-0.825392007828 -1.308653593063 -0.381261944771 -0.496487 0.427667 -0.755381
-0.843620061874 -1.317882061005 -0.478214859962 -0.052840 0.675492 -0.735472
-0.873348832130 -1.140738844872 -0.579297602177 -0.978083 -0.181309 0.102372
-0.860341489315 -1.164100885391 -0.573875725269 -0.003685 -0.954408 -0.298483
-0.849432647228 -1.150319218636 -0.492577135563 -0.861028 -0.446403 0.243630
-0.829457521439 -1.139824748039 -0.500131368637 -0.052404 0.906987 0.417886
-0.806740820408 -1.144822239876 -0.488352745771 -0.042370 0.873372 0.485207
-0.789324581623 -1.137546896935 -0.429189085960 -0.046951 -0.735573 -0.675817
-0.847843587399 -1.038800239563 -0.394411087036 0.001007 -0.029192 -0.999573
-0.838521003723 -1.105299234390 -0.283872276545 -0.862470 -0.501826 0.065699
-0.821043610573 -1.100727081299 -0.312667667866 -0.041487 0.426912 -0.903341
-0.864458918571 -1.060729026794 -0.253586709499 -0.937969 -0.339041 -0.072557
-0.845751047134 -1.092206478119 -0.270924389362 -0.839813 -0.541948 0.031717
-0.802963972092 -1.120031476021 -0.281928598881 0.052630 -0.632980 0.772377
-0.873717546463 -1.031640291214 -0.252076983452 -0.978191 -0.206494 0.022419
-0.816517710686 -1.181160330772 -0.299237877131 -0.554962 0.710683 -0.432373
-0.862032592297 -1.171463251114 -0.207439795136 -0.905661 0.213011 -0.366612
-0.794870316982 -1.250885367393 -0.286095261574 -0.070753 -0.878175 -0.473077
-0.874281346798 -1.119513154030 -0.157051697373 -0.969960 -0.110309 -0.216815
-0.872733891010 -1.013414859772 -0.504150569439 -0.913393 -0.318017 0.254124
-0.875233232975 -1.179111838341 -0.607286334038 -0.916251 -0.019550 0.400127
-0.877819001675 -1.243324160576 -0.610662937164 -0.912917 0.063378 0.403194
-0.871374130249 -1.323451042175 -0.566640019417 -0.914925 0.216882 0.340404
-0.874256849289 -1.391428232193 -0.516458272934 -0.907628 0.325928 0.264542
-0.854250729084 -1.390644907951 -0.253738790751 -0.386393 0.822079 -0.418195
-0.872075140476 -1.362595915794 -0.195283234119 -0.916969 0.246932 -0.313358
-0.872412443161 -1.188426017761 -0.133128941059 -0.905696 -0.027847 -0.423012
-0.831351161003 -1.161532521248 -0.162554621696 -0.383656 -0.144749 -0.912061
-0.866019129753 -1.040923714638 -0.213963225484 -0.380493 -0.653921 -0.653921
-0.868095278740 -0.988018810749 -0.430870980024 -0.382279 -0.892969 0.237633
-0.851885616779 -1.038294672966 -0.509754180908 -0.383119 -0.718553 0.580433
-0.839192628860 -1.311574220657 -0.550525188446 -0.384881 0.501807 0.774633
-0.852880954742 -1.400537014008 -0.462537139654 -0.387544 0.860007 0.331960
-0.782053947449 -1.151649355888 -0.353074759245 -0.999987 -0.004907 0.000981
-0.740182697773 -1.024293184280 -0.450941681862 -0.999987 -0.004907 0.000981
-0.740122854710 -1.039001584053 -0.299050718546 -0.999987 -0.004907 0.000981
-0.700845420361 -1.061394929886 -0.266539245844 0.999987 0.004907 -0.000981
-0.700499117374 -1.146470069885 -0.173912942410 0.999987 0.004907 0.000981
-0.700771033764 -1.079659342766 -0.304276287556 0.999987 0.004907 -0.000981
-0.716427028179 -1.063716650009 -0.381619334221 0.003843 -0.923713 -0.383066
-0.760562539101 -1.238210082054 -0.428999990225 0.001278 -0.382163 -0.924094
-0.701659560204 -1.235158443451 -0.383386760950 -0.001372 0.607653 0.794201
-0.717836678028 -1.292778372765 -0.288479059935 -0.999987 -0.004907 0.000981
-0.726348698139 -1.368722796440 -0.288830697536 -0.999987 -0.004907 0.000981
-0.726626038551 -1.300589680672 -0.485250562429 -0.999987 -0.004907 -0.000981
-0.718863070011 -1.194167733192 -0.558753788471 -0.001096 0.130369 -0.991465
-0.723671853542 -1.321094751358 -0.403633981943 -0.003843 0.923713 0.383066
-0.712262094021 -1.218756675720 -0.555423021317 0.999987 0.004907 0.000981
-0.711842775345 -1.321783304214 -0.461228758097 0.999987 0.004907 -0.000981
-0.711791098118 -1.334473371506 -0.483168929815 0.999987 0.004907 0.000981
-0.715079843998 -1.409764647484 -0.320328325033 0.003301 -0.991385 0.130938
-0.711910068989 -1.305237174034 -0.259131014347 0.999987 0.004907 0.000981
-0.726962149143 -1.218022346497 -0.208133846521 -0.999987 -0.004907 -0.000981
-0.718173444271 -1.210061907768 -0.267707109451 -0.999987 -0.004907 0.000981
-0.729715228081 -1.180985093117 -0.387146919966 0.001096 -0.130369 -0.991465
-0.742491960526 -1.280014038086 -0.391028106213 0.003843 -0.923713 -0.383066
-0.771055161953 -1.286517381668 -0.363741099834 0.003301 -0.991385 -0.130938
-0.763798415661 -1.229154467583 -0.338636249304 -0.001278 0.382163 -0.924094
-0.725163042545 -1.244712352753 -0.320612013340 0.001372 -0.607653 -0.794201
-0.716102719307 -1.247696161270 -0.318939447403 0.001278 -0.382163 -0.924094
-0.727421522141 -1.105188965797 -0.518061518669 -0.999987 -0.004907 -0.000981
-0.765489697456 -1.162272572517 -0.321136534214 -0.004115 0.794195 0.607649
-0.709901928902 -1.172831058502 -0.324768871069 0.003843 -0.923713 -0.383066
-0.740639030933 -1.172296762466 -0.326962649822 0.003301 -0.991385 -0.130938
-0.718439102173 -1.144798874855 -0.356633365154 -0.999987 -0.004907 0.000981
-0.712812960148 -1.083435177803 -0.336938649416 0.999987 0.004907 -0.000981
-0.712578833103 -1.140960693359 -0.274053007364 0.999987 0.004907 0.000981
-0.713016688824 -1.033401131630 -0.306615769863 0.999987 0.004907 0.000981
-0.727674186230 -1.043102145195 -0.313482433558 -0.999987 -0.004907 0.000981
-0.727273702621 -1.141491174698 -0.241928413510 -0.999987 -0.004907 -0.000981
-0.712905228138 -1.060772418976 -0.278057485819 0.999987 0.004907 0.000981
-0.694001913071 -1.224041700363 -0.427954494953 -0.999987 -0.004907 0.000981
-0.694289565086 -1.153388261795 -0.374724924564 -0.999987 -0.004907 -0.000981
-0.693970203400 -1.231826186180 -0.329450666904 -0.999987 -0.004907 -0.000981
-0.701803922653 -1.247570037842 -0.301236212254 -0.001278 0.382163 -0.924094
-0.705450475216 -1.158116817474 -0.326234072447 0.004115 -0.794195 -0.607649
-0.701459050179 1.784329891205 0.190314739943 -0.372815 0.210343 0.903750
-0.807258486748 1.680359959602 0.141162872314 -0.801135 0.119068 0.586519
-0.668629586697 1.799131512642 0.165216296911 -0.013166 0.025319 -0.999593
-0.580628454685 1.918332099915 0.161129385233 -0.250418 0.741804 0.622107
-0.516768813133 1.921535849571 0.108020387590 -0.585068 -0.317516 -0.746243
-0.500968039036 1.923434615135 0.093785591424 -0.660101 -0.370381 -0.653517
-0.621830105782 1.902973532677 0.157588541508 -0.082257 -0.246772 -0.965576
-0.613860130310 1.845604062080 0.164299011230 -0.083628 -0.033668 -0.995928
-0.572219014168 1.876771569252 0.100975163281 -0.126227 0.916879 0.378681
-0.607799708843 1.872025251389 0.095787577331 -0.980336 -0.126693 0.151294
-0.605014741421 1.848448753357 0.097072944045 -0.986178 -0.108515 0.125210
-0.732411086559 1.829403519630 0.069645121694 0.023480 0.023480 0.999448
-0.820237219334 1.738661170006 0.072120614350 0.037918 -0.013323 0.999192
-0.789888381958 1.722519397736 0.072453722358 0.241597 0.965108 -0.100985
-0.723224937916 1.735077619553 0.072763249278 -0.426574 0.904337 -0.014438
-0.724579393864 1.792536735535 0.087669327855 -0.902418 -0.414018 0.119293
-0.791113197803 1.768017411232 0.046570003033 -0.003319 0.140491 0.990076
-0.834464728832 1.680136799812 0.093256153166 -0.897648 0.205802 0.389710
-0.679982841015 1.886653542519 0.027813933790 -0.575979 0.803378 0.151101
-0.754110336304 1.810274124146 0.066728331149 0.024050 -0.047055 -0.998603
-0.650230646133 1.877190947533 0.044189486653 -0.438429 0.863205 0.250314
-0.220711082220 -1.847178339958 -0.231179967523 -0.995500 -0.094759 0.001065
-0.220230594277 -1.852176547050 -0.390643328428 -0.995500 -0.094759 0.001065
-0.107786282897 -1.879937291145 -0.284862041473 0.002938 -0.999995 0.000979
-0.169727191329 -1.880104303360 -0.351231217384 0.002938 -0.999995 0.000979
-0.067564457655 -1.879828810692 -0.197794705629 0.002938 -0.999995 0.000979
-0.044794049114 -1.879767298698 -0.474416196346 0.002938 -0.999995 0.000979
-0.021989524364 -1.879705786705 -0.394599199295 0.002938 -0.999995 0.000979
-0.084537588060 -1.879874587059 -0.302632451057 0.002938 -0.999995 0.000979
-0.107460044324 -1.879936337471 -0.441873699427 0.002938 -0.999995 0.000979
0.045946147293 -1.879412055016 -0.408090740442 0.004907 -0.999987 0.000981
0.012983791530 -1.879591464996 -0.277945846319 0.004907 -0.999987 0.000981
0.054279409349 -1.879366636276 -0.294959366322 0.004907 -0.999987 0.000981
0.050629179925 -1.879386544228 -0.215890079737 0.004907 -0.999987 0.000981
0.199240058661 -1.878577351570 -0.325775653124 0.004907 -0.999987 0.000981
0.174656823277 -1.878711223602 -0.302760660648 0.004907 -0.999987 0.000981
0.233012735844 -1.831832766533 -0.228067085147 0.996132 -0.087863 0.001059
0.072472244501 -1.866454720497 -0.151228606701 0.001141 -0.186011 0.982547
-0.553079009056 1.931921005249 -0.121456846595 0.000981 -0.002944 0.999995
-0.612344741821 1.863972425461 -0.121665105224 0.000981 -0.002944 0.999995
-0.290287643671 1.928912758827 -0.121601514518 0.000981 -0.004907 0.999987
-0.214684814215 1.906361818314 -0.121755920351 0.000981 -0.004907 0.999987
0.517943203449 1.862886786461 -0.121726073325 -0.000981 -0.004907 0.999987
0.594514131546 1.845001339912 -0.121750228107 -0.000981 -0.004907 0.999987
0.451488971710 1.925632596016 -0.121533326805 -0.000981 -0.002944 0.999995
0.528934359550 1.934711337090 -0.121464982629 -0.000981 -0.002944 0.999995
0.456619411707 1.888663530350 -0.121660493314 -0.000981 -0.002944 0.999995
0.606796205044 1.899030447006 -0.165399402380 0.856594 0.493457 0.150819
0.588986217976 1.924021601677 -0.209359422326 0.780785 0.624349 0.023745
0.408553928137 1.954083800316 -0.219882741570 0.000978 0.000978 -0.999999
0.488429635763 1.910441637039 -0.219882741570 0.000978 0.000978 -0.999999
0.414037406445 1.953556537628 -0.194503024220 0.135260 0.990809 0.001100
0.407602131367 1.954423546791 -0.190333068371 0.135260 0.990809 0.001100
0.505562305450 1.941024780273 -0.135126024485 0.135260 0.990809 0.001100
0.111679628491 1.994446873665 -0.179531320930 0.133970 0.990935 0.009965
0.147022128105 1.989267706871 -0.134160444140 0.133970 0.990935 0.009965
0.005177289248 2.008704900742 -0.171759754419 0.133970 0.990935 0.009965
-0.050425842404 2.005091905594 -0.189411252737 -0.141414 0.989900 0.010021
-0.223542824388 1.980221509933 -0.174447536469 -0.141414 0.989900 0.010021
-0.114254266024 1.995960235596 -0.187960982323 -0.141414 0.989900 0.010021
-0.560644745827 1.931653738022 -0.141393110156 -0.142973 0.989726 0.001108
-0.509145259857 1.939094901085 -0.152339681983 -0.142973 0.989726 0.001108
-0.164040431380 1.988939046860 -0.213768139482 -0.142973 0.989726 0.001108
-0.619642019272 1.871903419495 -0.219882741570 0.000978 0.000978 -0.999999
-0.044486045837 2.005311965942 -0.219882741570 0.000978 0.000978 -0.999999
-0.265795290470 1.943406462669 -0.219882741570 0.000978 0.000978 -0.999999
-0.558955371380 1.878127694130 -0.219882741570 0.000978 0.000978 -0.999999
-0.331258386374 1.899378418922 -0.219882741570 0.000978 0.000978 -0.999999
0.618967473507 1.870461940765 -0.219882741570 0.000978 0.000978 -0.999999
0.340868949890 1.892531514168 -0.219882741570 0.000978 0.000978 -0.999999
0.141468539834 1.957645535469 -0.219882741570 0.000978 0.000978 -0.999999
-0.461863696575 -1.894539713860 -0.212438002229 -0.000978 -0.000978 0.999999
-0.534603476524 -1.907528281212 -0.275809079409 -0.954408 -0.298483 0.003685
-0.542481482029 -1.875867128372 -0.292858511209 0.000978 0.000978 -0.999999
-0.404003679752 -1.924193620682 -0.292714148760 0.000978 0.000978 -0.999999
-0.044899567962 -1.908322572708 -0.292305320501 0.000978 0.000978 -0.999999
-0.152633130550 -1.938013553619 -0.292428076267 0.000978 0.000978 -0.999999
0.150488734245 -1.896973729134 -0.292412340641 -0.000978 -0.000978 -0.999999
0.259802222252 -1.896651029587 -0.292536765337 -0.000978 -0.000978 -0.999999
0.203447580338 -1.939757108688 -0.292472422123 -0.000978 -0.000978 -0.999999
0.487089723349 -1.895173788071 -0.292791843414 -0.000978 0.000978 -0.999999
0.254406511784 -1.883738398552 -0.292527288198 -0.000978 0.000978 -0.999999
0.346081495285 -1.865193486214 -0.212286651134 0.000978 -0.000978 0.999999
0.480055570602 -1.849965453148 -0.212431624532 0.000978 -0.000978 0.999999
0.256975889206 -1.895299792290 -0.212196469307 0.000978 0.000978 0.999999
0.179909631610 -1.923073887825 -0.212108567357 0.000978 0.000978 0.999999
0.072424739599 -1.955796480179 -0.213807448745 0.099398 -0.995047 0.001069
0.309217333794 -1.932177066803 -0.236271858215 0.099398 -0.995047 0.001069
0.391999393702 -1.923913002014 -0.225631579757 0.099398 -0.995047 0.001069
0.075227417052 -1.955519914627 -0.267799168825 0.099398 -0.995047 0.001069
0.371729969978 -1.925950646400 -0.285926073790 0.099398 -0.995047 0.001069
0.029369814321 -1.960093259811 -0.270726978779 0.099398 -0.995047 0.001069
-0.042922027409 -1.957941174507 -0.230712801218 -0.090153 -0.995927 0.001061
-0.241209208965 -1.939795613289 -0.275570005178 -0.090153 -0.995927 0.001061
-0.506815493107 -1.915470480919 -0.236119925976 -0.090344 -0.995910 0.001063
-0.374054849148 -1.927623748779 -0.227876752615 -0.090344 -0.995910 0.001063
-0.161717951298 -1.898094654083 -0.212101086974 -0.000978 -0.000978 0.999999
-0.228658676147 -1.916976332664 -0.212177425623 -0.000978 -0.000978 0.999999
-0.751581668854 -1.386172890663 0.104074738920 -0.090820 -0.130922 0.987224
-0.692906975746 -1.318397045135 0.118448987603 -0.090820 -0.130922 0.987224
-0.717142343521 -1.380276799202 0.108063019812 -0.095554 -0.126225 0.987389
-0.751917123795 -1.454161643982 0.094236969948 -0.166724 -0.187402 0.968031
-0.643451035023 -1.731570720673 0.028724724427 -0.160589 -0.342124 0.925830
-0.612588107586 -1.623050808907 0.071438476443 -0.055815 -0.333591 0.941064
-0.452358305454 -1.786182403564 0.023308128119 -0.055815 -0.333591 0.941064
-0.575037479401 -1.750912189484 0.028447467834 -0.055815 -0.333591 0.941064
-0.431722939014 -1.823007822037 0.011525059119 -0.055863 -0.331281 0.941877
-0.382651090622 -1.823635578156 0.013590544462 -0.014304 -0.399208 0.916749
-0.391096025705 -1.886731147766 -0.010729998350 -0.183730 -0.326788 0.927067
-0.299518853426 -1.927700281143 -0.028467010707 0.014126 -0.371132 0.928473
-0.302859842777 -1.896708965302 -0.016077054664 0.014126 -0.371132 0.928473
-0.362961888313 -1.812154173851 0.018562216312 0.014126 -0.371132 0.928473
-0.083212710917 -2.006643533707 -0.048005729914 -0.023465 -0.280350 0.959611
-0.144090801477 -1.889285326004 -0.015112284571 -0.023465 -0.280350 0.959611
-0.179042726755 -1.929941534996 -0.027906697243 -0.023465 -0.280350 0.959611
-0.080683052540 -1.861853718758 -0.005485251546 -0.023465 -0.280350 0.959611
-0.195450693369 -2.001979827881 -0.049440473318 -0.023465 -0.280350 0.959611
0.130278304219 -1.949860811234 -0.026946786791 -0.015971 -0.281332 0.959478
0.089840330184 -1.946655750275 -0.026716697961 -0.015971 -0.281332 0.959478
0.063541412354 -1.976457595825 -0.035916306078 -0.015971 -0.281332 0.959478
0.120388217270 -1.885478615761 -0.008243219927 -0.015971 -0.281332 0.959478
0.228095233440 -1.953621983528 -0.033582758158 0.051892 -0.389853 0.919414
0.205681130290 -1.966048717499 -0.037567883730 0.051892 -0.389853 0.919414
0.214966371655 -1.923300385475 -0.019955173135 0.051892 -0.389853 0.919414
0.418099045753 -1.895466208458 -0.016847135499 0.067536 -0.358869 0.930941
0.465027898550 -1.944277048111 -0.041781675071 0.019550 -0.400127 0.916251
0.457538187504 -1.830406069756 0.006731563248 0.058596 -0.332044 0.941442
0.508886873722 -1.789075016975 0.018090486526 0.058596 -0.332044 0.941442
0.537427902222 -1.742112398148 0.032892879099 0.058596 -0.332044 0.941442
0.568864405155 -1.675238370895 0.054548390210 0.058596 -0.332044 0.941442
0.658073842525 -1.642116308212 0.058957047760 0.163308 -0.341970 0.925412
0.704673230648 -1.540643453598 0.086004257202 0.169235 -0.187321 0.967611
0.669654726982 -1.505314350128 0.096880033612 0.095582 -0.123903 0.987680
0.698806285858 -1.475534915924 0.097811907530 0.095582 -0.123903 0.987680
0.714018702507 -1.330702662468 0.115014746785 0.084079 -0.140921 0.986444
0.748345017433 -1.231523275375 0.125095754862 0.075264 -0.119264 0.990006
0.746156096458 -1.110911488533 0.149394661188 0.224174 -0.218740 0.949684
0.663482129574 -1.280904531479 0.129913374782 0.224174 -0.218740 0.949684
0.766483306885 -1.045398950577 0.154699429870 0.309937 -0.119413 0.943228
0.733130335808 -0.966788470745 0.213060349226 0.286171 -0.737010 0.612310
0.701725482941 -0.984271347523 0.206525295973 0.268352 -0.725661 0.633564
0.579979300499 -1.039014577866 0.193195223808 0.302909 -0.914524 0.268125
0.481386065483 -1.065814852715 0.212637096643 0.302909 -0.914524 0.268125
0.347070068121 -1.088205337524 0.257067978382 0.229137 -0.888460 0.397663
0.061545751989 -1.148950695992 0.192507028580 0.092168 -0.909297 0.405813
0.073487773538 -1.130982398987 0.228952318430 0.086864 -0.903110 0.420532
-0.243572190404 -1.132766246796 0.190724551678 -0.083820 -0.902783 0.421849
-0.263588905334 -1.129717826843 0.193266078830 -0.083820 -0.902783 0.421849
-0.295463532209 -1.098060250282 0.257434666157 -0.080544 -0.910561 0.405452
-0.326215177774 -1.107476592064 0.228948503733 -0.219548 -0.891455 0.396366
-0.474412053823 -1.062663197517 0.239202186465 -0.293415 -0.917827 0.267398
-0.655246376991 -1.012895584106 0.204597055912 -0.330719 -0.849310 0.411457
-0.714726090431 -1.050258398056 0.170264095068 -0.307409 -0.122158 0.943704
-0.682898223400 -1.038591623306 0.181142106652 -0.221591 -0.218872 0.950259
-0.698201656342 -1.195058465004 0.141354247928 -0.221591 -0.218872 0.950259
-0.648907482624 -1.111244440079 0.169848889112 -0.070317 -0.218352 0.973333
-0.570508539677 -1.247509479523 0.144912377000 -0.070317 -0.218352 0.973333
-0.627002775669 -1.281909108162 0.133130341768 -0.070317 -0.218352 0.973333
-0.567015767097 -1.093930244446 0.179623991251 -0.070317 -0.218352 0.973333
-0.552038908005 -1.063888311386 0.187442108989 -0.070317 -0.218352 0.973333
-0.407530814409 -1.171900868416 0.173599824309 -0.070317 -0.218352 0.973333
-0.521374166012 -1.263022542000 0.143720209599 -0.021087 -0.291492 0.956341
-0.621495962143 -1.311843156815 0.086869344115 0.441054 -0.896855 -0.033515
-0.656041502953 -1.378960132599 0.049478165805 0.997568 0.045976 -0.052391
-0.651461720467 -1.490517854691 0.041897125542 0.998102 0.041367 -0.045609
-0.600999593735 -1.598448157310 0.008301224560 0.671464 0.740973 0.009731
-0.594502031803 -1.603912472725 -0.025049768388 0.671464 0.740973 0.009731
-0.514810144901 -1.676576018333 0.004213042557 0.688421 0.722914 0.058925
-0.498138964176 -1.692503452301 0.004602298141 0.688421 0.722914 0.058925
-0.387399196625 -1.798939466476 0.014895564876 0.688421 0.722914 0.058925
-0.314332723618 -1.810871362686 -0.024241140112 0.030878 0.997679 0.060691
-0.168437823653 -1.811555385590 -0.089498013258 0.030878 0.997679 0.060691
-0.195296451449 -1.813442707062 -0.044110022485 0.030878 0.997679 0.060691
-0.056845918298 -1.818084716797 -0.047473430634 0.035631 0.996584 0.074501
-0.173402279615 -1.817594051361 0.002400011756 0.035631 0.996584 0.074501
0.069017335773 -1.817785978317 -0.043912012130 -0.044637 0.996175 0.075121
0.055521503091 -1.819828152657 -0.024516144767 -0.044637 0.996175 0.075121
0.346524864435 -1.803270339966 -0.092964887619 -0.039637 0.997347 0.061062
0.087207436562 -1.814737319946 -0.074058726430 -0.039637 0.997347 0.061062
0.425483405590 -1.764051198959 -0.047235216945 -0.694284 0.717284 0.058935
0.482491612434 -1.711959242821 -0.009282696992 -0.694284 0.717284 0.058935
0.637317478657 -1.569091200829 0.059943713248 -0.677265 0.735674 0.009735
0.568496942520 -1.631321430206 -0.029841478914 -0.677265 0.735674 0.009735
0.657744526863 -1.517878890038 0.059463143349 -0.998444 0.032615 -0.045240
0.662398695946 -1.348578572273 0.085156694055 -0.997950 0.037197 -0.052076
0.520342230797 -1.263882398605 0.044430673122 -0.377262 -0.925532 -0.032635
0.489101499319 -1.250964164734 0.039631444961 -0.377262 -0.925532 -0.032635
0.513044476509 -1.253398656845 0.145205929875 -0.410645 -0.903980 0.119129
0.430904924870 -1.218103289604 0.130088955164 -0.410645 -0.903980 0.119129
0.335314720869 -1.193635344505 0.149172276258 0.003300 -0.991097 0.133100
0.249416634440 -1.197503685951 0.122783042490 0.003300 -0.991097 0.133100
0.276667326689 -1.192187786102 0.163991034031 0.007675 -0.992266 0.123896
0.125215619802 -1.192557692528 0.169777035713 0.007675 -0.992266 0.123896
0.148898839951 -1.199226140976 0.114565037191 0.007675 -0.992266 0.123896
-0.173594787717 -1.196282625198 0.148166090250 0.001089 -0.992394 0.123096
-0.226490154862 -1.196132898331 0.149787932634 0.001089 -0.992394 0.123096
-0.005644543096 -1.206726908684 0.062526434660 0.001089 -0.992394 0.123096
-0.062093943357 -1.182874917984 0.178885936737 -0.023566 -0.291476 0.956288
-0.018541961908 -1.165558815002 0.186101064086 -0.029242 -0.326752 0.944658
0.100473627448 -1.166984915733 0.182886645198 0.031809 -0.324453 0.945367
0.334900677204 -1.152480363846 0.180947825313 0.026107 -0.292151 0.956016
0.466459423304 -1.213811159134 0.158955678344 0.023622 -0.292169 0.956075
0.526885151863 -1.219978570938 0.153704375029 0.072771 -0.218314 0.973162
0.422838747501 -1.179660081863 0.170400604606 0.072771 -0.218314 0.973162
0.588553130627 -1.254705786705 0.141384810209 0.072771 -0.218314 0.973162
0.451792716980 -1.105946540833 0.184761524200 0.072771 -0.218314 0.973162
0.631637454033 -1.173344850540 0.156415015459 0.072771 -0.218314 0.973162
-0.167616248131 -1.208120822906 0.055887088180 0.003300 -0.991097 0.133100
-0.209502100945 -1.204346537590 0.085472881794 0.003300 -0.991097 0.133100
-0.117328196764 -1.208228230476 0.053545512259 0.003300 -0.991097 0.133100
-0.398963600397 -1.217741012573 0.058794669807 0.372140 -0.919974 0.123124
-0.461320996284 -1.236130833626 0.110137946904 0.372140 -0.919974 0.123124
-0.627970755100 -1.356781482697 0.036799106747 0.135061 -0.078688 0.987708
-0.616336047649 -1.632902503014 0.013142221607 0.135061 -0.078688 0.987708
-0.633034050465 -1.273253202438 0.044167373329 0.135061 -0.078688 0.987708
-0.543356120586 -1.665141582489 0.000548880547 0.135061 -0.078688 0.987708
-0.566839039326 -1.264570593834 0.044138118625 0.007662 -0.119314 0.992827
-0.383716791868 -1.649181723595 -0.003522895277 0.007662 -0.119314 0.992827
-0.337396532297 -1.645426750183 -0.003420313820 0.007662 -0.119314 0.992827
-0.565281510353 -1.292870640755 0.040721043944 0.007662 -0.119314 0.992827
-0.275138616562 -1.811525344849 -0.023876383901 0.007662 -0.119314 0.992827
-0.527823686600 -1.479645609856 0.017963964492 0.007662 -0.119314 0.992827
-0.298818320036 -1.685980200768 -0.008590985090 0.007662 -0.119314 0.992827
-0.297012299299 -1.704548358917 -0.010838901624 0.007662 -0.119314 0.992827
-0.439770221710 -1.507128715515 0.013993000612 0.007662 -0.119314 0.992827
-0.354552507401 -1.595744371414 0.002687338740 0.007662 -0.119314 0.992827
-0.295534163713 -1.712930440903 -0.011858675629 0.007662 -0.119314 0.992827
-0.401544153690 -1.545317649841 0.009109504521 0.007662 -0.119314 0.992827
-0.328958183527 -1.665886282921 -0.005945831537 0.007662 -0.119314 0.992827
-0.202427357435 -1.640509724617 -0.003846310079 0.007662 -0.119314 0.992827
-0.433835506439 -1.574184417725 0.005879452452 0.007662 -0.119314 0.992827
-0.306989133358 -1.298416852951 0.039647519588 0.001094 -0.125785 0.992057
-0.247061818838 -1.452561020851 0.020007420331 0.001094 -0.125785 0.992057
-0.185626626015 -1.432793259621 0.022486280650 0.001094 -0.125785 0.992057
-0.459194898605 -1.161679744720 0.057126790285 0.001094 -0.125785 0.992057
-0.332376807928 -1.323698639870 0.036446552724 0.001094 -0.125785 0.992057
-0.412034094334 -1.331254482269 0.035531446338 0.001094 -0.125785 0.992057
-0.106668025255 -1.453483939171 0.019809130579 0.001094 -0.125785 0.992057
-0.133569329977 -1.275161981583 0.042505361140 0.001094 -0.125785 0.992057
-0.520564496517 -1.297654390335 0.039867583662 0.001094 -0.125785 0.992057
-0.032576799393 -1.230312585831 0.048151534051 0.001094 -0.125785 0.992057
-0.160289376974 -1.170997262001 0.055769443512 0.001094 -0.125785 0.992057
-0.045878767967 -1.227748394012 0.048485338688 0.001094 -0.125785 0.992057
-0.038728669286 -1.649411320686 -0.005149964243 0.001094 -0.125785 0.992057
-0.232499569654 -1.525494813919 0.010722614825 0.001094 -0.125785 0.992057
-0.304588764906 -1.496786952019 0.014415498823 0.001094 -0.125785 0.992057
-0.097214967012 -1.480917811394 0.016314372420 0.001094 -0.125785 0.992057
-0.427519381046 -1.199725151062 0.052269563079 0.001094 -0.125785 0.992057
-0.074106112123 -1.633588433266 -0.003117077053 0.001094 -0.125785 0.992057
-0.084343105555 -1.247444033623 0.046002432704 0.001094 -0.125785 0.992057
-0.055969417095 -1.240013718605 0.046931132674 0.001094 -0.125785 0.992057
-0.467326790094 -1.202989459038 0.051877304912 0.001094 -0.125785 0.992057
-0.543898761272 -1.167573928833 0.056425917894 0.001094 -0.125785 0.992057
-0.077009618282 -1.722337365150 -0.014403361827 0.001094 -0.125785 0.992057
0.041618876159 -1.415092229843 0.024611139670 0.001091 -0.125512 0.992091
0.019623806700 -1.570071578026 0.004909383133 0.001091 -0.125512 0.992091
0.438215881586 -1.253040909767 0.045040346682 0.001091 -0.125512 0.992091
0.161236166954 -1.512955904007 0.012108905241 0.001091 -0.125512 0.992091
0.221179127693 -1.424843549728 0.023288398981 0.001091 -0.125512 0.992091
0.242806866765 -1.367889761925 0.030522447079 0.001091 -0.125512 0.992091
0.118160150945 -1.510809421539 0.012401697226 0.001091 -0.125512 0.992091
0.395780235529 -1.289021849632 0.040483422577 0.001091 -0.125512 0.992091
0.282545655966 -1.333538293839 0.034873351455 0.001091 -0.125512 0.992091
0.057945087552 -1.375187158585 0.029679173604 0.001091 -0.125512 0.992091
0.130930960178 -1.485672354698 0.015593027696 0.001091 -0.125512 0.992091
0.376783907413 -1.235001564026 0.047362990677 0.001091 -0.125512 0.992091
0.060399644077 -1.573935508728 0.004399204627 0.001091 -0.125512 0.992091
0.600691080093 -1.196797251701 0.052119385451 0.001091 -0.125512 0.992091
0.158400818706 -1.530197143555 0.009917300195 0.001091 -0.125512 0.992091
0.199895709753 -1.558473348618 0.006301773712 0.001091 -0.125512 0.992091
0.194572895765 -1.203390121460 0.051467329264 0.001091 -0.125512 0.992091
0.063186898828 -1.284824252129 0.041170045733 0.001091 -0.125512 0.992091
0.073023945093 -1.538526415825 0.008897095919 0.001091 -0.125512 0.992091
0.157589077950 -1.513222217560 0.012076707557 0.001091 -0.125512 0.992091
0.243430867791 -1.539170026779 0.008736982942 0.001091 -0.125512 0.992091
0.287473529577 -1.358093261719 0.031747940928 0.001091 -0.125512 0.992091
0.093199208379 -1.670175671577 -0.007856667042 0.001091 -0.125512 0.992091
0.229242831469 -1.660433769226 -0.004704840481 -0.038407 -0.088886 0.995301
0.591582715511 -1.319331645966 0.039785869420 -0.038407 -0.088886 0.995301
0.315719604492 -1.721195816994 -0.006650411990 -0.038407 -0.088886 0.995301
0.327122777700 -1.575532913208 0.006673574448 -0.038407 -0.088886 0.995301
0.175051942468 -1.677915453911 -0.008395435289 -0.038407 -0.088886 0.995301
0.563723444939 -1.366025924683 0.034556318074 -0.038407 -0.088886 0.995301
0.479801207781 -1.462504267693 0.022707447410 -0.038407 -0.088886 0.995301
0.255791544914 -1.650844216347 -0.002806195989 -0.038407 -0.088886 0.995301
0.421257644892 -1.682662487030 0.000933672767 -0.038407 -0.088886 0.995301
0.544254183769 -1.433773756027 0.027798444033 -0.038407 -0.088886 0.995301
0.537361502647 -1.569576740265 0.015524407849 -0.038407 -0.088886 0.995301
0.616765499115 -1.313882112503 0.041264567524 -0.038407 -0.088886 0.995301
0.549331367016 -1.307772755623 0.039134375751 -0.038407 -0.088886 0.995301
0.269525289536 -1.640435457230 -0.001342555508 -0.038407 -0.088886 0.995301
0.611910820007 -1.376590490341 0.035530708730 -0.038407 -0.088886 0.995301
0.407037824392 -1.706829071045 -0.001765017980 -0.038407 -0.088886 0.995301
0.536586701870 -1.671309590340 0.005909534171 0.001158 -0.207235 0.978290
0.643350124359 -1.637365579605 0.013011461124 0.001158 -0.207235 0.978290
0.437654674053 -1.749944329262 -0.010609038174 0.001158 -0.207235 0.978290
0.391307532787 -1.811126947403 -0.023475162685 0.001158 -0.207235 0.978290
-0.751987814903 -1.593404889107 -0.484416365623 -0.006896 0.999972 -0.002956
-0.531883120537 -1.591740012169 -0.484088540077 -0.006937 0.999952 -0.006937
-0.759074807167 -1.592084050179 -0.432733535767 -0.005193 0.998107 -0.061278
-0.547406792641 -1.569484353065 -0.313006609678 -0.031308 0.984464 -0.172774
-0.806936144829 -1.585500597954 -0.358828008175 -0.031308 0.984464 -0.172774
-0.702156603336 -1.583108186722 -0.363585531712 -0.031308 0.984464 -0.172774
-0.656193554401 -1.564021229744 -0.255956768990 -0.051415 0.990592 -0.126823
-0.792442321777 -1.585533976555 -0.318320095539 -0.048638 -0.991998 0.116506
-0.816909074783 -1.589214086533 -0.359956681728 -0.048638 -0.991998 0.116506
-0.677371799946 -1.561909317970 -0.214342996478 -0.047432 -0.947359 0.316641
-0.607312977314 -1.575932741165 -0.245807379484 -0.047432 -0.947359 0.316641
-0.713522493839 -1.581092953682 -0.276881456375 -0.047432 -0.947359 0.316641
-0.751433491707 -1.564658761024 -0.229429095984 -0.010765 -0.970016 0.242803
-0.715208172798 -1.552652597427 -0.184135347605 -0.052195 -0.911403 0.408191
-0.821760833263 -1.539878964424 -0.169084727764 -0.052195 -0.911403 0.408191
-0.745578587055 -1.511367797852 -0.121201649308 -0.049751 -0.777539 0.626864
-0.817645430565 -1.534413814545 -0.166459202766 -0.076700 0.768443 -0.635304
-0.706842362881 -1.511650681496 -0.152263820171 -0.073597 0.774935 -0.627741
-0.614810824394 -1.495895981789 -0.143511086702 -0.073597 0.774935 -0.627741
-0.616116523743 -1.435098648071 -0.068399891257 -0.073597 0.774935 -0.627741
-0.548391819000 -1.421228051186 -0.059151582420 -0.073597 0.774935 -0.627741
-0.793759346008 -1.439334392548 -0.065640211105 -0.004086 0.562529 -0.826768
-0.642923712730 -1.413837194443 -0.049286983907 -0.004086 0.562529 -0.826768
-0.785412609577 -1.405721902847 -0.044863171875 -0.003761 0.337207 -0.941423
-0.592678427696 -1.385307431221 -0.039756350219 -0.015783 0.261029 -0.965202
-0.602931678295 -1.301614522934 -0.016912225634 -0.015783 0.261029 -0.965202
-0.594167470932 -1.342521309853 -0.028142230585 -0.015783 0.261029 -0.965202
-0.797875463963 -1.281136035919 -0.010291204788 -0.003514 0.219037 -0.975710
-0.777278840542 -1.259367108345 -0.007842388004 0.007414 0.081553 -0.996641
-0.658963918686 -1.151242256165 -0.012152303010 -0.013775 -0.075231 -0.997071
-0.653841435909 -1.144659042358 -0.012717664242 -0.013775 -0.075231 -0.997071
-0.611308515072 -1.214982748032 -0.007946924306 -0.013775 -0.075231 -0.997071
-0.656946539879 -1.176212191582 -0.010287657380 -0.013775 -0.075231 -0.997071
-0.603834450245 -1.101755023003 -0.016449071467 -0.019944 -0.055633 -0.998252
-0.839100122452 -1.085205674171 -0.019745934755 0.003514 -0.219037 -0.975710
-0.881592929363 -1.017291069031 -0.045207839459 -0.014383 -0.417107 -0.908744
-0.558036923409 -0.972987413406 -0.107402548194 -0.082534 -0.626968 -0.774661
-0.579981744289 -0.981680691242 -0.098044484854 -0.082534 -0.626968 -0.774661
-0.660568475723 -1.010220050812 -0.066413447261 -0.082534 -0.626968 -0.774661
-0.573605895042 -1.053236007690 -0.040923319757 -0.082534 -0.626968 -0.774661
-0.657609283924 -0.912634491920 -0.145539984107 -0.082684 -0.625206 -0.776068
-0.859134435654 -0.911319851875 -0.135165303946 -0.023550 -0.815934 -0.577665
-0.895838975906 -0.989830553532 -0.052869156003 -0.998829 0.013428 0.046481
-0.891692399979 -1.075275659561 0.003859040327 -0.975939 0.001166 0.218041
-0.866356968880 -1.132506847382 0.052700087428 -0.719414 -0.023840 0.694172
-0.836696624756 -1.245033144951 0.072106361389 -0.651417 -0.070775 0.755412
-0.892693519592 -1.237215518951 -0.006570080295 -0.962797 -0.040997 0.267098
-0.863394439220 -1.350845217705 0.026323618367 -0.759898 -0.162294 0.629457
-0.856400132179 -1.392027139664 0.021572435275 -0.678566 -0.265387 0.684922
-0.860835671425 -1.485272645950 -0.026323974133 -0.836065 -0.320361 0.445380
-0.751027643681 -1.644554138184 0.044639665633 -0.378085 -0.390636 0.839318
-0.790568947792 -1.269958376884 0.113893382251 -0.688852 -0.159668 0.707099
-0.835095703602 -1.254178881645 0.073028400540 -0.768612 -0.064650 0.636440
-0.835955917835 -0.911412239075 0.102786026895 -0.861144 -0.039830 0.506798
-0.846652686596 -0.965367794037 0.080528162420 -0.858505 -0.039963 0.511245
-0.865982711315 -0.956201076508 0.047469962388 -0.892572 -0.003944 0.450887
-0.864679098129 -0.846101701260 0.052143964916 -0.923189 0.001277 0.384343
-0.869553148746 -0.874958932400 0.038250610232 -0.973303 0.003531 0.229497
-0.872763812542 -0.908674955368 0.031623877585 -0.932685 -0.003797 0.360672
-0.855457246304 -1.084080576897 0.067065089941 -0.719024 -0.046986 0.693395
-0.886162757874 -0.826506257057 -0.055170733482 -0.986180 0.086632 0.141222
-0.883252978325 -0.799034774303 -0.325255542994 -0.992218 0.103427 -0.069330
-0.844299256802 -0.829211771488 -0.372676014900 -0.001108 -0.989726 -0.142973
-0.568633735180 -0.884323894978 -0.200255766511 -0.038792 -0.957277 -0.286558
-0.787699878216 -0.850482046604 -0.283592998981 -0.038792 -0.957277 -0.286558
-0.555453777313 -0.870654284954 -0.247837096453 -0.038792 -0.957277 -0.286558
-0.546816766262 -0.829695820808 -0.386181235313 -0.038792 -0.957277 -0.286558
-0.646798193455 -0.881745576859 -0.196026176214 -0.051012 -0.964250 -0.260037
-0.625383853912 -0.880219161510 -0.205785334110 -0.051012 -0.964250 -0.260037
-0.704070687294 -0.878197371960 -0.200801342726 -0.022110 -0.922118 -0.386275
-0.839429259300 -0.822958648205 -0.452387362719 -0.004955 -0.999948 -0.008919
-0.812134385109 -0.822438240051 -0.505642473698 -0.002985 -0.999852 -0.016913
-0.633159220219 -0.823423206806 -0.465277433395 0.005063 -0.999494 -0.031392
-0.545391857624 -0.821685433388 -0.511030375957 0.005063 -0.999494 -0.031392
-0.688024401665 -0.822140574455 -0.515189230442 0.005063 -0.999494 -0.031392
-0.890733957291 -0.806200146675 -0.142564058304 -0.985318 0.169010 -0.024144
-0.836975097656 -1.431119918823 0.026216022670 -0.729158 -0.220153 0.647967
-0.871324360371 -1.454475879669 -0.074754580855 -0.043328 -0.566056 0.823227
-0.880797505379 -1.439181089401 -0.064757138491 -0.043328 -0.566056 0.823227
-0.563236474991 -1.438518643379 -0.049254108220 -0.012516 -0.677244 0.735652
-0.686390519142 -1.502424359322 -0.110131241381 -0.012516 -0.677244 0.735652
-0.557541191578 -1.509068131447 -0.114015504718 -0.012516 -0.677244 0.735652
-0.625138521194 -1.554048895836 -0.220208838582 -0.022380 0.909687 -0.414691
-0.840299546719 -1.566494703293 -0.244449794292 -0.025465 0.968894 -0.246164
-0.533411324024 -1.597611069679 -0.317830979824 -0.042883 -0.995102 0.089064
-0.632062613964 -1.598714470863 -0.377372652292 -0.042883 -0.995102 0.089064
-0.825865924358 -1.590949416161 -0.389131933451 -0.050457 -0.997340 0.052605
-0.553709030151 -1.604894638062 -0.459178507328 -0.031187 -0.996913 -0.072053
0.828258752823 -1.587217330933 -0.483552813530 0.019282 0.999628 -0.019282
0.792422771454 -1.588906764984 -0.489960134029 0.042124 -0.996938 -0.065886
0.619388103485 -1.594338893890 -0.510540962219 0.040036 -0.996565 -0.072497
0.552928090096 -1.602638483047 -0.429856747389 0.057247 -0.996956 0.052926
0.752392411232 -1.585167050362 -0.347061812878 0.049792 -0.994730 0.089625
0.583528220654 -1.597636222839 -0.390527218580 0.049792 -0.994730 0.089625
0.560264706612 -1.591642737389 -0.310167402029 0.049792 -0.994730 0.089625
0.782221436501 -1.582731723785 -0.340257346630 0.058050 -0.991406 0.117239
0.609931051731 -1.555319786072 -0.248862504959 0.044261 0.990755 -0.128242
0.709134936333 -1.552629113197 -0.226582571864 0.018054 0.968913 -0.246742
0.721633315086 -1.551961541176 -0.200223907828 0.020485 -0.970010 0.242201
0.594971597195 -1.575479745865 -0.255649000406 0.055371 -0.946452 0.318060
0.562929809093 -1.549590110779 -0.172978669405 0.055371 -0.946452 0.318060
0.815973699093 -1.543726563454 -0.190582603216 0.057877 -0.911222 0.407829
0.828989982605 -1.534022688866 -0.180015191436 0.017016 0.909696 -0.414926
0.757678627968 -1.525588750839 -0.171504855156 0.070654 0.768542 -0.635886
0.871502757072 -1.494835257530 -0.118794217706 0.055642 -0.777567 0.626334
0.775244116783 -1.525195360184 -0.147788763046 0.055642 -0.777567 0.626334
0.656353652477 -1.450975179672 -0.067059598863 0.018148 -0.677066 0.735699
0.776787817478 -1.460591316223 -0.078878477216 0.018148 -0.677066 0.735699
0.618462443352 -1.422469615936 -0.042956896126 0.046190 -0.564081 0.824426
0.568844318390 -1.428130865097 -0.044025305659 0.046190 -0.564081 0.824426
0.736199498177 -1.406497120857 -0.047787450254 0.001357 0.563126 -0.826370
0.593255937099 -1.406342506409 -0.047829221934 0.001357 0.563126 -0.826370
0.887065649033 -1.391618609428 -0.041987255216 0.001251 0.336415 -0.941713
0.836814701557 -1.356146335602 -0.029627671465 0.013324 0.260428 -0.965401
0.683848142624 -1.343338966370 -0.028445400298 0.013324 0.260428 -0.965401
0.605199098587 -1.353816628456 -0.032461177558 0.013324 0.260428 -0.965401
0.745306611061 -1.278445124626 -0.011305388995 0.003512 0.221266 -0.975207
0.888903915882 -1.277790784836 -0.010792313144 0.003512 0.221266 -0.975207
0.649309933186 -1.256687760353 -0.007104645483 -0.007430 0.081726 -0.996627
0.739133238792 -1.194139122963 -0.007480087690 0.013775 -0.075231 -0.997071
0.688800156116 -1.226585149765 -0.005714092869 0.013775 -0.075231 -0.997071
0.743634581566 -1.194908857346 -0.007360384334 0.013775 -0.075231 -0.997071
0.670383572578 -1.201946020126 -0.007828906178 0.013775 -0.075231 -0.997071
0.811058342457 -1.122534036636 -0.010933903977 0.019944 -0.055633 -0.998252
0.847696125507 -1.166640281677 -0.007710426114 0.019944 -0.055633 -0.998252
0.852101683617 -1.076316356659 -0.020211789757 -0.001168 -0.220763 -0.975327
0.859871745110 -1.003888845444 -0.048546262085 0.017038 -0.418083 -0.908249
0.700307726860 -1.002509117126 -0.064274862409 0.088642 -0.626303 -0.774524
0.568168520927 -0.934800088406 -0.133841365576 0.088642 -0.626303 -0.774524
0.539288640022 -0.919631183147 -0.149344637990 0.088642 -0.626303 -0.774524
0.625412344933 -0.966422319412 -0.101856768131 0.088642 -0.626303 -0.774524
0.761953413486 -0.940127253532 -0.107634514570 0.088803 -0.624532 -0.775934
0.693821132183 -0.890154600143 -0.164322525263 0.031978 -0.816126 -0.576989
0.845358431339 -0.864571213722 -0.208826899529 0.030082 -0.922078 -0.385834
0.860604941845 -0.863532841206 -0.210113942623 0.030082 -0.922078 -0.385834
0.648503065109 -0.875747442245 -0.199024558067 0.058877 -0.963321 -0.261813
0.625765085220 -0.876555323601 -0.201094061136 0.058877 -0.963321 -0.261813
0.623453676701 -0.839346230030 -0.326815962791 0.046653 -0.957026 -0.286225
0.772643029690 -0.834355115891 -0.319031506777 0.046653 -0.957026 -0.286225
0.701219201088 -0.847135722637 -0.287973225117 0.046653 -0.957026 -0.286225
0.759024202824 -0.838225066662 -0.308312594891 0.046653 -0.957026 -0.286225
0.743614017963 -0.823098897934 -0.373687773943 0.007809 -0.989559 -0.143916
0.819516956806 -0.823893845081 -0.363586902618 0.007809 -0.989559 -0.143916
0.757056415081 -0.817690432072 -0.427874863148 0.007272 -0.998340 -0.057137
0.655516624451 -0.818289339542 -0.460588634014 0.011031 -0.999794 -0.017048
0.579351961613 -0.817777395248 -0.488807290792 0.003032 -0.999505 -0.031329
0.721537530422 -0.815991342068 -0.528819501400 0.003032 -0.999505 -0.031329
0.659066617489 -0.817922651768 -0.473239332438 0.003032 -0.999505 -0.031329
0.886912465096 -0.810486495495 -0.313568800688 0.995176 -0.031680 -0.092854
0.806567251682 -1.097645878792 0.130372449756 0.767748 -0.101290 0.632695
0.836919784546 -1.464018225670 0.021942088380 0.731575 -0.212794 0.647701
0.842123866081 -1.506140828133 -0.003554008901 0.761078 -0.347413 0.547782
0.865282833576 -1.493738174438 -0.030324943364 0.838658 -0.313911 0.445098
0.823507964611 -1.537004590034 0.005719321780 0.787542 -0.296319 0.540346
0.786637246609 -1.508077383041 0.068323411047 0.764750 -0.168762 0.621834
0.822686135769 -1.328473806381 0.074627779424 0.689620 -0.153080 0.707807
0.811252713203 -1.193452119827 0.111563429236 0.693502 -0.114346 0.711322
0.894479751587 -1.265650153160 0.003891758621 0.957346 -0.044030 0.285568
0.894150257111 -1.099381089211 0.015584851615 0.976071 0.008222 0.217296
0.900044620037 -0.951750457287 -0.073478348553 0.999987 0.004907 0.000981
0.899072229862 -0.882269918919 -0.130061537027 0.999847 0.015013 -0.009008
0.894817888737 -0.831203460693 -0.215978413820 0.998366 -0.005173 -0.056902
0.895310938358 -0.861331343651 -0.199811443686 0.996802 -0.024626 -0.076018
0.899117588997 -0.877993226051 -0.108556270599 0.998535 0.051127 0.017738
0.887482523918 -0.839701831341 -0.031216321513 0.985341 0.094354 0.142128
0.822160482407 -0.862299919128 0.134952396154 0.861432 -0.045484 0.505833
0.873212277889 -1.055576205254 0.047962419689 0.853759 0.042896 0.518898
0.875567078590 -1.003447413445 0.040678497404 0.797029 0.043731 0.602356
0.882841765881 -1.056538224220 0.034197010100 0.841068 0.031764 0.539996
0.889299511909 -1.056968331337 0.021412990987 0.905894 0.055353 0.419871
0.886861622334 -1.138826370239 0.031972415745 0.839260 0.006779 0.543688
0.826807498932 -0.962121307850 0.118883065879 0.839004 -0.057620 0.541066
0.682456076145 -1.486013174057 -0.131242722273 0.067579 0.774999 -0.628339
0.823836028576 -1.485685706139 -0.115863904357 0.067579 0.774999 -0.628339
0.573441207409 -1.462122797966 -0.113312169909 0.067579 0.774999 -0.628339
0.570625126362 -1.482969760895 -0.139332547784 0.067579 0.774999 -0.628339
0.649959802628 -1.583139657974 -0.404521763325 0.021887 0.984917 -0.171640
0.657753646374 -1.574662446976 -0.355107009411 0.021887 0.984917 -0.171640
0.575070142746 -1.561639547348 -0.291431903839 0.021887 0.984917 -0.171640
0.693945407867 -1.586199283600 -0.434506058693 -0.003109 0.998124 -0.061152
0.848575353622 -1.585258960724 -0.426706463099 -0.003109 0.998124 -0.061152
0.642195284367 -1.587073087692 -0.446941763163 -0.000983 0.999976 -0.006883
0.654634296894 -1.643524289131 -0.101950839162 -0.690759 0.665116 -0.283676
0.671829104424 -1.628618121147 -0.108897343278 -0.690759 0.665116 -0.283676
0.708147466183 -1.514772295952 -0.003529867157 -0.664495 0.607872 -0.434670
0.627659142017 -1.655423283577 -0.077160693705 -0.664495 0.607872 -0.434670
0.697708964348 -1.601374626160 -0.108543142676 -0.664495 0.607872 -0.434670
0.562885820866 -1.719608068466 -0.022023750469 -0.307564 0.073971 0.948648
0.691198348999 -1.661982417107 0.014938171953 -0.307564 0.073971 0.948648
0.676758706570 -1.726648092270 0.015237085521 -0.307564 0.073971 0.948648
0.514147341251 -1.902771115303 -0.027901383117 -0.294665 -0.013562 0.955504
0.486281514168 -1.898920655251 -0.066654741764 0.942476 -0.222165 -0.249763
0.445845037699 -1.879090428352 -0.101289100945 -0.798675 -0.336368 -0.498973
0.512293517590 -1.875226616859 -0.143791615963 0.059946 0.017879 -0.998042
0.620741486549 -1.716751813889 -0.124350190163 0.063618 0.083709 -0.994457
0.609877049923 -1.730288505554 -0.126186877489 0.063618 0.083709 -0.994457
0.720376551151 -1.752891540527 -0.119232319295 0.119495 0.080050 -0.989602
0.722214281559 -1.647023916245 -0.109155572951 0.327367 0.153324 -0.932375
0.732096374035 -1.728072404861 -0.105592265725 -0.001207 -0.273924 0.961751
0.665500700474 -1.755465745926 -0.108189880848 0.536493 -0.105563 0.837276
0.601071298122 -1.877778172493 -0.131146490574 0.225077 -0.389840 0.892953
0.574493229389 -1.821281194687 -0.125407353044 -0.258286 -0.235948 0.936812
0.590716421604 -1.896729946136 -0.138892263174 0.009835 -0.114743 0.993347
0.640733838081 -1.731811642647 -0.088907666504 0.679518 -0.276604 0.679518
0.635533034801 -1.703129649162 -0.041014268994 0.634678 -0.753395 -0.171987
0.676647961140 -1.703999400139 -0.100494503975 0.171787 -0.761638 0.624817
0.626597106457 -1.802306890488 0.003537896788 0.270131 -0.056539 -0.961162
0.616220295429 -1.734892129898 -0.016425080597 0.350635 -0.201794 -0.914513
0.563814461231 -1.808555841446 -0.019384857267 0.357609 -0.029693 -0.933399
0.715442180634 -1.691716432571 0.014552854933 0.229894 -0.260547 0.937691
0.764132499695 -1.567409276962 -0.025484006852 0.534301 0.561269 -0.632060
0.713931679726 -1.613946795464 0.018240898848 -0.243473 0.066175 0.967648
0.502422571182 -1.854352474213 -0.086493328214 0.962979 -0.095914 0.251935
0.544786274433 -1.837095975876 -0.059231918305 -0.215593 -0.950508 0.223729
