0.677417695522 -0.155484050512 -0.689228951931 0.000983 -0.006883 -0.999976
0.234021291137 0.268865525723 -0.692193090916 0.000983 -0.006883 -0.999976
0.006566274911 -0.136068642139 -0.689393758774 0.000983 -0.006883 -0.999976
0.386855721474 -0.194771409035 -0.688969433308 0.000983 -0.006883 -0.999976
-0.131655484438 0.161596834660 -0.691465198994 0.000983 -0.006883 -0.999976
0.780152440071 -0.191721603274 -0.688972949982 0.000983 -0.006883 -0.999976
0.146958351135 0.513521075249 -0.693894445896 0.000983 -0.006883 -0.999976
0.438600748777 0.047504544258 -0.690648019314 0.000983 -0.006883 -0.999976
0.566322028637 -0.072112113237 -0.689812421799 0.000983 -0.006883 -0.999976
0.169249340892 -0.205229938030 -0.688906550407 0.000983 -0.006883 -0.999976
-0.025997152552 0.144359946251 -0.691340863705 0.000983 -0.006883 -0.999976
0.065734095871 0.425292193890 -0.693285942078 0.000983 -0.006883 -0.999976
-0.086648277938 -0.018283128738 -0.690215110779 0.000983 -0.006883 -0.999976
0.195063471794 -0.233468711376 -0.688709497452 0.000983 -0.006883 -0.999976
0.008702315390 0.563647329807 -0.694248378277 0.000983 -0.006883 -0.999976
0.821740865707 -0.115698240697 -0.689498543739 0.000983 -0.006883 -0.999976
-0.015669383109 -0.495505452156 -0.686900854111 0.000983 -0.006883 -0.999976
-0.074029237032 -0.232658624649 -0.688727140427 0.000983 -0.006883 -0.999976
0.496234089136 -0.372899353504 -0.687728643417 0.000983 -0.006883 -0.999976
0.133542463183 0.259090274572 -0.692129731178 0.000983 -0.006883 -0.999976
0.140664741397 0.227521598339 -0.691910386086 0.000983 -0.006883 -0.999976
0.147865295410 0.135553240776 -0.691272020340 0.000983 -0.006883 -0.999976
-0.004915120080 0.766957938671 -0.695659637451 0.000983 -0.006883 -0.999976
0.069744884968 0.072350084782 -0.690836906433 0.000983 -0.006883 -0.999976
0.197214990854 0.006458580494 -0.690374076366 0.000983 -0.006883 -0.999976
0.406346321106 -0.432277917862 -0.687320649624 0.000983 -0.006883 -0.999976
-0.011062221602 0.303635478020 -0.692445278168 0.000983 -0.006883 -0.999976
0.473038583994 0.309162437916 -0.692461967468 0.000983 -0.006883 -0.999976
0.780999302864 -0.031546026468 -0.690084278584 0.000983 -0.006883 -0.999976
0.726919353008 -0.055409707129 -0.689921140671 0.000983 -0.006883 -0.999976
-0.051524918526 0.615651726723 -0.694611907005 0.000983 -0.006883 -0.999976
0.878643512726 -0.444023698568 -0.687218070030 0.000983 -0.006883 -0.999976
0.320809692144 0.381969869137 -0.692973911762 0.000983 -0.006883 -0.999976
0.036768395454 -0.076224982738 -0.689807593822 0.000983 -0.006883 -0.999976
-0.069745279849 0.554566264153 -0.694188892841 0.000983 -0.006883 -0.999976
0.591733396053 -0.218882739544 -0.688792943954 0.000983 -0.006883 -0.999976
0.733807802200 -0.361251980066 -0.687798798084 0.000983 -0.006883 -0.999976
0.521356880665 -0.265582025051 -0.688472151756 0.000983 -0.006883 -0.999976
1.033736944199 -0.425131887197 -0.687342226505 0.000983 -0.006883 -0.999976
0.587303638458 -0.267928183079 -0.688452899456 0.000983 -0.006883 -0.999976
0.232154548168 -0.370467901230 -0.687757313251 0.000983 -0.006883 -0.999976
0.373675674200 0.432407826185 -0.693321526051 0.000983 -0.006883 -0.999976
-0.029876809567 0.830665409565 -0.696102738380 0.000983 -0.006883 -0.999976
0.319469571114 -0.150416970253 -0.689280152321 0.000983 -0.006883 -0.999976
0.144913554192 -0.024128377438 -0.690164208412 0.000983 -0.006883 -0.999976
0.300563931465 0.163253009319 -0.691457331181 0.000983 -0.006883 -0.999976
1.035858154297 -0.336750686169 -0.687955319881 0.000983 -0.006883 -0.999976
0.475015193224 -0.389231443405 -0.687616288662 0.000983 -0.006883 -0.999976
0.570660293102 -0.090981334448 -0.689681291580 0.000983 -0.006883 -0.999976
0.245696008205 0.468047261238 -0.693574488163 0.000983 -0.006883 -0.999976
0.586888015270 -0.350735962391 -0.687878310680 0.000983 -0.006883 -0.999976
0.184243485332 -0.203775286674 -0.688916027546 0.000983 -0.006883 -0.999976
0.456606686115 0.100925624371 -0.691017925739 0.000983 -0.006883 -0.999976
-0.014934509993 -0.115706443787 -0.689535975456 0.000983 -0.006883 -0.999976
0.267697244883 -0.018204569817 -0.690199792385 0.000983 -0.006883 -0.999976
0.575284004211 -0.131936967373 -0.689396917820 0.000983 -0.006883 -0.999976
0.633935987949 -0.071965023875 -0.689810395241 0.000983 -0.006883 -0.999976
0.520065844059 -0.055010378361 -0.689933121204 0.000983 -0.006883 -0.999976
-0.041138257831 0.261010229588 -0.692150831223 0.000983 -0.006883 -0.999976
0.179698824883 0.604367315769 -0.694523215294 0.000983 -0.006883 -0.999976
-0.064035050571 0.910367488861 -0.696657240391 0.000983 -0.006883 -0.999976
0.856530249119 -0.159301504493 -0.689194500446 0.000983 -0.006883 -0.999976
-0.005751616322 0.422824293375 -0.693271994591 0.000983 -0.006883 -0.999976
0.621449232101 -0.403196036816 -0.687512814999 0.000983 -0.006883 -0.999976
-0.103672020137 0.407063245773 -0.693167030811 0.000983 -0.006883 -0.999976
0.726013660431 -0.183521091938 -0.689032316208 0.000983 -0.006883 -0.999976
0.210697114468 0.608813703060 -0.694552719593 0.000983 -0.006883 -0.999976
0.281296044588 0.460094660521 -0.693517744541 0.000983 -0.006883 -0.999976
0.856162130833 -0.237997546792 -0.688648462296 0.000983 -0.006883 -0.999976
-0.081852801144 0.389735221863 -0.693045794964 0.000983 -0.006883 -0.999976
0.186025023460 -0.004745423794 -0.690296888351 0.000983 -0.006883 -0.999976
0.560905754566 0.181960999966 -0.691575467587 0.000983 -0.006883 -0.999976
0.489631861448 -0.412562608719 -0.687453746796 0.000983 -0.006883 -0.999976
0.289974510670 0.114410579205 -0.691118896008 0.000983 -0.006883 -0.999976
0.520347177982 0.146494030952 -0.691331207752 0.000983 -0.006883 -0.999976
0.252847105265 -0.150594890118 -0.689281940460 0.000983 -0.006883 -0.999976
0.914410293102 -0.312712460756 -0.688127517700 0.000983 -0.006883 -0.999976
0.365676164627 -0.176761686802 -0.689095318317 0.000983 -0.006883 -0.999976
0.037642173469 0.099277019501 -0.691025197506 0.000983 -0.006883 -0.999976
0.511648356915 0.164917111397 -0.691459417343 0.000983 -0.006883 -0.999976
0.571182429790 0.007290557027 -0.690363109112 0.000983 -0.006883 -0.999976
0.218236684799 0.584138393402 -0.694381177425 0.000983 -0.006883 -0.999976
0.731544435024 0.021298229694 -0.690453112125 0.000983 -0.006883 -0.999976
0.406006693840 -0.486476719379 -0.686944663525 0.000983 -0.006883 -0.999976
0.680945932865 -0.100812450051 -0.689608156681 0.000983 -0.006883 -0.999976
-0.132070645690 0.943534433842 -0.696890413761 0.000983 -0.006883 -0.999976
0.203426122665 0.062049806118 -0.690759480000 0.000983 -0.006883 -0.999976
0.244600445032 -0.161695539951 -0.689205229282 0.000983 -0.006883 -0.999976
0.496103078127 -0.488607227802 -0.686925828457 0.000983 -0.006883 -0.999976
-0.143462702632 0.661638021469 -0.694935083389 0.000983 -0.006883 -0.999976
0.743506312370 -0.320058912039 -0.688084185123 0.000983 -0.006883 -0.999976
0.699841737747 0.001999698579 -0.690320670605 0.000983 -0.006883 -0.999976
-0.029524607584 -0.015861988068 -0.690229356289 0.000983 -0.006883 -0.999976
0.225757852197 0.559594452381 -0.694210529327 0.000983 -0.006883 -0.999976
0.428076744080 0.270039319992 -0.692192494869 0.000983 -0.006883 -0.999976
-0.073581680655 -0.208608984947 -0.688893973827 0.000983 -0.006883 -0.999976
-0.032304406166 0.582474470139 -0.694380879402 0.000983 -0.006883 -0.999976
1.153424978256 0.043249040842 -0.690586566925 0.000983 -0.006883 -0.999976
1.134395122528 0.616702675819 -0.694566130638 0.000983 -0.006883 -0.999976
0.671219766140 0.302674889565 -0.692408084869 0.000983 -0.006883 -0.999976
1.106525421143 -0.195646792650 -0.688931107521 0.000983 -0.006883 -0.999976
0.797294497490 0.660406172276 -0.694884479046 0.000983 -0.006883 -0.999976
0.558576762676 0.920632839203 -0.696700632572 0.000983 -0.006883 -0.999976
0.921541988850 0.253370761871 -0.692054808140 0.000983 -0.006883 -0.999976
0.653427362442 1.038536787033 -0.697514414787 0.000983 -0.006883 -0.999976
0.514485478401 0.284994333982 -0.692292392254 0.000983 -0.006883 -0.999976
1.068956375122 -0.303093403578 -0.688187301159 0.000983 -0.006883 -0.999976
0.597857117653 0.703883528709 -0.695195019245 0.000983 -0.006883 -0.999976
1.002566695213 0.335341334343 -0.692619919777 0.000983 -0.006883 -0.999976
0.845232427120 0.827823638916 -0.696043908596 0.000983 -0.006883 -0.999976
0.860411882401 0.674871206284 -0.694981992245 0.000983 -0.006883 -0.999976
1.183527231216 0.204808354378 -0.691706120968 0.000983 -0.006883 -0.999976
0.307244032621 0.989723920822 -0.697191238403 0.000983 -0.006883 -0.999976
0.366958558559 0.495828688145 -0.693761765957 0.000983 -0.006883 -0.999976
0.907829403877 0.030062332749 -0.690506041050 0.000983 -0.006883 -0.999976
1.164177536964 0.291936844587 -0.692311525345 0.000983 -0.006883 -0.999976
1.034464478493 0.664111793041 -0.694899559021 0.000983 -0.006883 -0.999976
-0.097015075386 1.024961709976 -0.697453856468 0.000983 -0.006883 -0.999976
0.101358346641 0.860457539558 -0.696303546429 0.000983 -0.006883 -0.999976
1.156689524651 0.191153347492 -0.691612541676 0.000983 -0.006883 -0.999976
0.900993764400 0.060042068362 -0.690714299679 0.000983 -0.006883 -0.999976
0.524754047394 0.878918051720 -0.696412682533 0.000983 -0.006883 -0.999976
0.801364362240 -0.010643023998 -0.690228402615 0.000983 -0.006883 -0.999976
0.137054949999 0.814270734787 -0.695981502533 0.000983 -0.006883 -0.999976
0.192302614450 0.879864752293 -0.696434140205 0.000983 -0.006883 -0.999976
0.967415988445 0.609607577324 -0.694524347782 0.000983 -0.006883 -0.999976
0.950724601746 0.999965667725 -0.697233498096 0.000983 -0.006883 -0.999976
1.149048686028 0.286295264959 -0.692273020744 0.000983 -0.006883 -0.999976
0.784875214100 0.160325586796 -0.691415309906 0.000983 -0.006883 -0.999976
1.109922647476 -0.340511113405 -0.687925875187 0.000983 -0.006883 -0.999976
0.117281310260 0.933325469494 -0.696808457375 0.000983 -0.006883 -0.999976
0.452121227980 0.503576576710 -0.693811774254 0.000983 -0.006883 -0.999976
1.001185536385 1.050485610962 -0.697581768036 0.000983 -0.006883 -0.999976
0.838473439217 0.215432256460 -0.691795229912 0.000983 -0.006883 -0.999976
0.948049366474 -0.061696961522 -0.689867615700 0.000983 -0.006883 -0.999976
1.044079661369 0.154104381800 -0.691360592842 0.000983 -0.006883 -0.999976
0.500352025032 0.765399813652 -0.695626199245 0.000983 -0.006883 -0.999976
1.104421019554 0.778992414474 -0.695693433285 0.000983 -0.006883 -0.999976
0.913502991199 -0.012665435672 -0.690209329128 0.000983 -0.006883 -0.999976
0.729555726051 0.855981409550 -0.696244418621 0.000983 -0.006883 -0.999976
1.164071202278 0.769421875477 -0.695624411106 0.000983 -0.006883 -0.999976
0.450031071901 0.903632640839 -0.696587562561 0.000983 -0.006883 -0.999976
0.819528520107 0.642684578896 -0.694760441780 0.000983 -0.006883 -0.999976
0.733796060085 0.072219386697 -0.690806329250 0.000983 -0.006883 -0.999976
0.869946837425 1.052551388741 -0.697601914406 0.000983 -0.006883 -0.999976
0.914796292782 0.753186941147 -0.695522904396 0.000983 -0.006883 -0.999976
0.618631958961 0.969872176647 -0.697039544582 0.000983 -0.006883 -0.999976
0.679058015347 0.383792042732 -0.692970514297 0.000983 -0.006883 -0.999976
0.171775549650 0.767564237118 -0.695655941963 0.000983 -0.006883 -0.999976
0.395047366619 0.701270699501 -0.695186018944 0.000983 -0.006883 -0.999976
0.828399002552 0.194764167070 -0.691652357578 0.000983 -0.006883 -0.999976
0.878377556801 -0.122892126441 -0.689446091652 0.000983 -0.006883 -0.999976
1.032375216484 -0.029736191034 -0.690085530281 0.000983 -0.006883 -0.999976
1.148177623749 -0.411083579063 -0.687434554100 0.000983 -0.006883 -0.999976
0.114658325911 0.788150429726 -0.695801258087 0.000983 -0.006883 -0.999976
0.290429502726 0.998249828815 -0.697251141071 0.000983 -0.006883 -0.999976
1.053432106972 -0.091515868902 -0.689656019211 0.000983 -0.006883 -0.999976
0.883358180523 -0.037102781236 -0.690041124821 0.000983 -0.006883 -0.999976
0.947145819664 0.356572061777 -0.692769646645 0.000983 -0.006883 -0.999976
0.552434861660 0.426762640476 -0.693274319172 0.000983 -0.006883 -0.999976
0.162622228265 1.002082586288 -0.697283446789 0.000983 -0.006883 -0.999976
0.293613165617 0.549067199230 -0.694134473801 0.000983 -0.006883 -0.999976
0.854225099087 0.606449365616 -0.694507539272 0.000983 -0.006883 -0.999976
0.362450093031 0.618912160397 -0.694616019726 0.000983 -0.006883 -0.999976
0.482121199369 0.662731528282 -0.694914698601 0.000983 -0.006883 -0.999976
0.977284312248 0.855420827866 -0.696229398251 0.000983 -0.006883 -0.999976
0.207836747169 0.823955833912 -0.696045517921 0.000983 -0.006883 -0.999976
-0.037268586457 0.972221970558 -0.697085261345 0.000983 -0.006883 -0.999976
1.073724746704 0.758453190327 -0.695552349091 0.000983 -0.006883 -0.999976
0.948110461235 0.739622712135 -0.695427298546 0.000983 -0.006883 -0.999976
1.010780811310 0.166942179203 -0.691451132298 0.000983 -0.006883 -0.999976
0.877939164639 -0.107944317162 -0.689549863338 0.000983 -0.006883 -0.999976
1.121626496315 0.252750843763 -0.692041516304 0.000983 -0.006883 -0.999976
1.126933455467 1.016467690468 -0.697340071201 0.000983 -0.006883 -0.999976
0.957525730133 0.457971900702 -0.693472743034 0.000983 -0.006883 -0.999976
1.015493869781 0.837734580040 -0.696105003357 0.000983 -0.006883 -0.999976
0.199964627624 0.849962115288 -0.696226298809 0.000983 -0.006883 -0.999976
0.768397629261 0.689356565475 -0.695086538792 0.000983 -0.006883 -0.999976
0.389491915703 1.048988580704 -0.697598755360 0.000983 -0.006883 -0.999976
-0.064177915454 1.023904323578 -0.697444975376 0.000983 -0.006883 -0.999976
0.752845346928 0.126645684242 -0.691183090210 0.000983 -0.006883 -0.999976
0.073304057121 0.998394846916 -0.697261869907 0.000983 -0.006883 -0.999976
1.182866334915 -0.465989619493 -0.687052011490 0.000983 -0.006883 -0.999976
1.186376929283 0.497089236975 -0.693733930588 0.000983 -0.006883 -0.999976
0.180358707905 0.839431881905 -0.696154117584 0.000983 -0.006883 -0.999976
0.700151801109 0.282478481531 -0.692266643047 0.000983 -0.006883 -0.999976
-0.007148218341 0.943814218044 -0.696886777878 0.000983 -0.006883 -0.999976
0.491059213877 0.496012747288 -0.693757593632 0.000983 -0.006883 -0.999976
0.855313718319 0.263578742743 -0.692128539085 0.000983 -0.006883 -0.999976
0.869316160679 0.756790161133 -0.695549964905 0.000983 -0.006883 -0.999976
0.816500484943 0.222042679787 -0.691842079163 0.000983 -0.006883 -0.999976
0.480725318193 0.618224740028 -0.694605946541 0.000983 -0.006883 -0.999976
0.150378361344 1.016299605370 -0.697382628918 0.000983 -0.006883 -0.999976
0.806994736195 0.734194934368 -0.695395946503 0.000983 -0.006883 -0.999976
0.636527895927 0.893398940563 -0.696508169174 0.000983 -0.006883 -0.999976
1.059916496277 0.202035576105 -0.691692411900 0.000983 -0.006883 -0.999976
0.287260442972 0.544111430645 -0.694100379944 0.000983 -0.006883 -0.999976
1.077839732170 0.256279170513 -0.692067980766 0.000983 -0.006883 -0.999976
0.717576682568 0.744480311871 -0.695471286774 0.000983 -0.006883 -0.999976
1.129436016083 0.450391858816 -0.693412423134 0.000983 -0.006883 -0.999976
0.554392755032 0.379263818264 -0.692944645882 0.000983 -0.006883 -0.999976
1.156993746758 -0.032674431801 -0.690059602261 0.000983 -0.006883 -0.999976
0.512810587883 0.606189250946 -0.694520950317 0.000983 -0.006883 -0.999976
1.065822720528 -0.056322097778 -0.689899623394 0.000983 -0.006883 -0.999976
1.111707091331 -0.039661288261 -0.690013170242 0.000983 -0.006883 -0.999976
0.864255785942 0.306256324053 -0.692424297333 0.000983 -0.006883 -0.999976
0.667719960213 1.080797433853 -0.681330919266 -0.006229 0.945632 -0.325178
0.691273570061 1.084062457085 -0.672287344933 -0.006229 0.945632 -0.325178
0.768746733665 1.087101340294 -0.664911508560 -0.006229 0.945632 -0.325178
0.460487663746 1.088577032089 -0.654848814011 -0.006229 0.945632 -0.325178
0.286663979292 1.083452224731 -0.666479349136 -0.006229 0.945632 -0.325178
0.502916514874 1.084578037262 -0.667260825634 -0.006229 0.945632 -0.325178
0.163989424706 1.083925247192 -0.662806928158 -0.006229 0.945632 -0.325178
0.732658624649 1.367619037628 -0.644539058208 -0.000979 0.002938 -0.999995
0.114046499133 1.210768103600 -0.644870579243 -0.000979 0.002938 -0.999995
0.959034800529 1.638780236244 -0.643954157829 -0.000979 0.002938 -0.999995
0.189923197031 1.141896009445 -0.645020961761 -0.000979 0.002938 -0.999995
1.035773396492 1.745464205742 -0.643723845482 -0.000979 0.002938 -0.999995
0.905969262123 1.441474795341 -0.644381284714 -0.000979 0.002938 -0.999995
0.816605448723 1.537830829620 -0.644171118736 -0.000979 0.002938 -0.999995
0.938640713692 1.582612514496 -0.644075691700 -0.000979 0.002938 -0.999995
0.577555060387 1.260221123695 -0.644769787788 -0.000979 0.002938 -0.999995
0.310895025730 1.123023509979 -0.645063579082 -0.000979 0.002938 -0.999995
0.774649739265 1.094588518143 -0.645131766796 -0.000979 0.002938 -0.999995
0.399017393589 1.371973395348 -0.644524931908 -0.000979 0.002938 -0.999995
0.989841461182 1.611672759056 -0.644013404846 -0.000979 0.002938 -0.999995
0.714419841766 1.185580015182 -0.644933581352 -0.000979 0.002938 -0.999995
0.950452685356 1.522399067879 -0.644206404686 -0.000979 0.002938 -0.999995
0.058992750943 1.134129524231 -0.645035982132 -0.000979 0.002938 -0.999995
0.723840355873 1.171177029610 -0.644964933395 -0.000979 0.002938 -0.999995
1.074386835098 1.286591053009 -0.644719541073 -0.000979 0.002938 -0.999995
0.660436213017 1.207779765129 -0.644884705544 -0.000979 0.002938 -0.999995
0.873511970043 1.551098465919 -0.644143104553 -0.000979 0.002938 -0.999995
0.266537487507 1.195907473564 -0.644904911518 -0.000979 0.002938 -0.999995
0.959196329117 1.446571826935 -0.644370973110 -0.000979 0.002938 -0.999995
0.718611896038 1.400576949120 -0.644467353821 -0.000979 0.002938 -0.999995
0.558145999908 1.290431857109 -0.644703984261 -0.000979 0.002938 -0.999995
1.030232071877 1.219066858292 -0.644865393639 -0.000979 0.002938 -0.999995
0.728203117847 1.553163170815 -0.644136607647 -0.000979 0.002938 -0.999995
1.067537307739 1.272698163986 -0.644749581814 -0.000979 0.002938 -0.999995
0.147857815027 1.101332545280 -0.645108342171 -0.000979 0.002938 -0.999995
0.531493306160 1.269967317581 -0.644748032093 -0.000979 0.002938 -0.999995
0.829599261284 1.427752733231 -0.644410014153 -0.000979 0.002938 -0.999995
0.503720641136 1.259282112122 -0.644770801067 -0.000979 0.002938 -0.999995
0.587279796600 1.160093903542 -0.644987046719 -0.000979 0.002938 -0.999995
1.041836977005 1.112542510033 -0.645096540451 -0.000979 0.002938 -0.999995
0.698045909405 1.216030716896 -0.644867300987 -0.000979 0.002938 -0.999995
0.398451268673 1.129267930984 -0.645051300526 -0.000979 0.002938 -0.999995
1.126676082611 1.744452834129 -0.643727362156 -0.000979 0.002938 -0.999995
0.707681715488 1.100168585777 -0.645118713379 -0.000979 0.002938 -0.999995
0.887669324875 1.521410346031 -0.644207715988 -0.000979 0.002938 -0.999995
0.954861879349 1.222529411316 -0.644856810570 -0.000979 0.002938 -0.999995
0.964454650879 1.637702703476 -0.643956601620 -0.000979 0.002938 -0.999995
0.880610287189 1.527304530144 -0.644194841385 -0.000979 0.002938 -0.999995
0.918189883232 1.254099249840 -0.644787847996 -0.000979 0.002938 -0.999995
0.808491706848 1.495989799500 -0.644261717796 -0.000979 0.002938 -0.999995
0.638456344604 1.165021896362 -0.644977092743 -0.000979 0.002938 -0.999995
0.332735210657 1.282430887222 -0.644718229771 -0.000979 0.002938 -0.999995
0.200539886951 1.704991459846 -0.643800020218 -0.000979 0.002938 -0.999995
0.593361079693 1.520600676537 -0.644205331802 -0.000979 0.002938 -0.999995
0.201050490141 1.354113578796 -0.644560933113 -0.000979 0.002938 -0.999995
0.037773739547 1.305494785309 -0.644664049149 -0.000979 0.002938 -0.999995
0.246468544006 1.379167079926 -0.644507229328 -0.000979 0.002938 -0.999995
0.424037933350 1.716329336166 -0.643778562546 -0.000979 0.002938 -0.999995
0.675034940243 1.780049562454 -0.643643796444 -0.000979 0.002938 -0.999995
-0.000967007130 1.180285692215 -0.644935071468 -0.000979 0.002938 -0.999995
-0.000368136680 1.255860328674 -0.644771158695 -0.000979 0.002938 -0.999995
0.931935548782 1.760378241539 -0.643690049648 -0.000979 0.002938 -0.999995
-0.072643503547 1.685354471207 -0.643838763237 -0.000979 0.002938 -0.999995
0.083871796727 1.657675385475 -0.643900990486 -0.000979 0.002938 -0.999995
-0.093608610332 1.178982973099 -0.644936561584 -0.000979 0.002938 -0.999995
0.027888976038 1.664129734039 -0.643886208534 -0.000979 0.002938 -0.999995
0.225845977664 1.474042892456 -0.644301176071 -0.000979 0.002938 -0.999995
0.442566633224 1.468931674957 -0.644315302372 -0.000979 0.002938 -0.999995
0.047707866877 1.736168146133 -0.643730282784 -0.000979 0.002938 -0.999995
0.481780439615 1.514757990837 -0.644216477871 -0.000979 0.002938 -0.999995
0.797677218914 1.676949739456 -0.643869102001 -0.000979 0.002938 -0.999995
0.214337587357 1.484945058823 -0.644277393818 -0.000979 0.002938 -0.999995
0.291393518448 1.448013782501 -0.644358575344 -0.000979 0.002938 -0.999995
-0.053171668202 1.426325917244 -0.644400775433 -0.000979 0.002938 -0.999995
0.805812537670 1.684947252274 -0.643851876259 -0.000979 0.002938 -0.999995
0.471840977669 1.668619155884 -0.643882691860 -0.000979 0.002938 -0.999995
0.133530169725 1.801767826080 -0.643589198589 -0.000979 0.002938 -0.999995
0.556450843811 1.551628947258 -0.644137501717 -0.000979 0.002938 -0.999995
0.196774080396 1.697592020035 -0.643815994263 -0.000979 0.002938 -0.999995
0.013954982162 1.339901566505 -0.644589126110 -0.000979 0.002938 -0.999995
0.150520682335 1.414454579353 -0.644429385662 -0.000979 0.002938 -0.999995
-0.045673791319 1.554998159409 -0.644121825695 -0.000979 0.002938 -0.999995
0.516216218472 1.681194305420 -0.643856048584 -0.000979 0.002938 -0.999995
0.167216181755 1.524147391319 -0.644191741943 -0.000979 0.002938 -0.999995
0.477373719215 1.537076711655 -0.644168019295 -0.000979 0.002938 -0.999995
-0.084832645953 1.143539190292 -0.645013570786 -0.000979 0.002938 -0.999995
0.499059915543 1.540512800217 -0.644160866737 -0.000979 0.002938 -0.999995
0.321336895227 1.560538411140 -0.644114971161 -0.000979 0.002938 -0.999995
0.086586505175 1.424237251282 -0.644407272339 -0.000979 0.002938 -0.999995
0.293016761541 1.361550092697 -0.644546091557 -0.000979 0.002938 -0.999995
0.727699577808 1.723654866219 -0.643766880035 -0.000979 0.002938 -0.999995
0.197229236364 1.547600388527 -0.644141256809 -0.000979 0.002938 -0.999995
0.214052379131 1.506098508835 -0.644231498241 -0.000979 0.002938 -0.999995
-0.041598815471 1.772524118423 -0.643650174141 -0.000979 0.002938 -0.999995
0.799051761627 1.644260287285 -0.643940031528 -0.000979 0.002938 -0.999995
0.503430008888 1.614695072174 -0.644000053406 -0.000979 0.002938 -0.999995
0.382000297308 1.378463149071 -0.644510626793 -0.000979 0.002938 -0.999995
0.225243344903 1.904792189598 -0.652300059795 0.001065 -0.094759 -0.995500
0.246131479740 1.817412137985 -0.643942356110 0.001065 -0.094759 -0.995500
-0.047436527908 2.004214048386 -0.661962747574 0.001065 -0.094759 -0.995500
0.057349748909 1.904400944710 -0.652366101742 0.001065 -0.094759 -0.995500
0.136260628700 1.996457219124 -0.661108911037 0.001065 -0.094759 -0.995500
-0.036869250238 1.973333477974 -0.659007132053 0.001065 -0.094759 -0.995500
0.354609698057 1.864580750465 -0.648380160332 0.001065 -0.094759 -0.995500
-0.051552835852 1.837721467018 -0.646065294743 0.001065 -0.094759 -0.995500
0.952619194984 1.854475259781 -0.647046685219 0.001065 -0.094759 -0.995500
0.226660221815 1.913675665855 -0.653147518635 0.001065 -0.094759 -0.995500
0.553795874119 1.833812594414 -0.645319104195 0.001065 -0.094759 -0.995500
-0.118415005505 1.952240943909 -0.657043099403 0.001065 -0.094759 -0.995500
0.204506486654 1.872009992599 -0.649182081223 0.001065 -0.094759 -0.995500
-0.007498037070 1.930115103722 -0.654861688614 0.001065 -0.094759 -0.995500
0.127872377634 2.019366502762 -0.663301825523 0.001065 -0.094759 -0.995500
0.136098206043 2.013026952744 -0.662691354752 0.001065 -0.094759 -0.995500
0.188420757651 2.007364511490 -0.662118375301 0.001065 -0.094759 -0.995500
0.710995614529 1.902026414871 -0.651736676693 0.001065 -0.094759 -0.995500
0.317385554314 2.024887323380 -0.663712382317 0.001065 -0.094759 -0.995500
0.495339691639 2.021868467331 -0.663314461708 0.001065 -0.094759 -0.995500
0.897338926792 1.922125577927 -0.653541326523 0.001065 -0.094759 -0.995500
0.935197293758 2.050724506378 -0.665799200535 0.001065 -0.094759 -0.995500
0.961065411568 2.078768968582 -0.668461561203 0.001065 -0.094759 -0.995500
0.847189009190 2.036441326141 -0.664489388466 0.001065 -0.094759 -0.995500
-0.024493882433 2.094091653824 -0.670531988144 0.001065 -0.094759 -0.995500
0.218635782599 2.060881137848 -0.667210638523 0.001065 -0.094759 -0.995500
0.446801126003 2.019920110703 -0.663158297539 0.001065 -0.094759 -0.995500
0.538890659809 2.022635936737 -0.663360893726 0.001065 -0.094759 -0.995500
1.009623765945 1.954085469246 -0.656524360180 0.001065 -0.094759 -0.995500
1.061891317368 1.992205500603 -0.660132586956 0.001065 -0.094759 -0.995500
0.817510962486 1.918938398361 -0.653286159039 0.001065 -0.094759 -0.995500
0.696867823601 1.993040561676 -0.660437226295 0.001065 -0.094759 -0.995500
1.144718408585 2.008934736252 -0.661679208279 0.001065 -0.094759 -0.995500
0.307262927294 2.074315786362 -0.668439030647 0.001065 -0.094759 -0.995500
0.938988149166 1.907571911812 -0.652125835419 0.001065 -0.094759 -0.995500
0.647215604782 2.017352342606 -0.662789583206 0.001065 -0.094759 -0.995500
0.843377530575 1.904106974602 -0.651853799820 0.001065 -0.094759 -0.995500
1.128163218498 1.844689011574 -0.646003961563 0.001065 -0.094759 -0.995500
0.586046397686 2.114447116852 -0.719866394997 0.006102 -0.957976 -0.286783
0.381845414639 2.108873844147 -0.705601394176 0.006102 -0.957976 -0.286783
0.873495399952 2.112042665482 -0.705594658852 0.006102 -0.957976 -0.286783
0.517505347729 2.105091333389 -0.689993798733 0.006102 -0.957976 -0.286783
0.699352264404 2.103388786316 -0.680357515812 0.006102 -0.957976 -0.286783
-0.090887285769 2.100358486176 -0.698111414909 0.025657 -0.991692 -0.126053
0.164511114359 2.110463619232 -0.727961599827 0.025657 -0.991692 -0.126053
0.199090167880 2.110673904419 -0.722807705402 0.025657 -0.991692 -0.126053
-0.303732931614 2.066903352737 -0.682590067387 0.224276 -0.937501 -0.266067
-0.200564339757 1.913387417793 -0.657964587212 0.068075 -0.081467 -0.994348
-0.183904886246 2.006886959076 -0.664382934570 0.068075 -0.081467 -0.994348
-0.344245076180 2.012282371521 -0.739774227142 -0.310282 -0.006181 -0.950625
-0.362064093351 2.026537418365 -0.733691930771 -0.332624 0.001246 -0.943059
-0.389549016953 1.973992466927 -0.715590298176 -0.983890 0.045844 -0.172798
-0.385971009731 2.134161233902 -0.696547329426 -0.978706 0.039339 -0.201463
-0.390964478254 2.272034168243 -0.661625981331 -0.236949 0.035239 -0.970883
-0.252980470657 2.353373765945 -0.748940467834 -0.014085 0.364942 -0.930924
-0.276757836342 2.382564067841 -0.736792743206 -0.048907 0.379363 -0.923954
-0.320652633905 2.350079298019 -0.741006851196 -0.269816 0.287130 -0.919106
-0.234693363309 2.202415227890 -0.748427867889 -0.032482 -0.042960 -0.998549
-0.229070141912 2.311174154282 -0.765229463577 -0.957277 -0.038792 -0.286558
-0.224494308233 2.229808330536 -0.769529879093 -0.957277 -0.038792 -0.286558
-0.221502408385 2.156535863876 -0.769253551960 -0.952933 -0.044293 -0.299927
-0.143989935517 2.205190420151 -0.829109013081 -0.322963 -0.016337 -0.946270
-0.138005450368 2.291378498077 -0.834173977375 -0.338999 -0.031981 -0.940243
0.077154442668 2.256148338318 -0.834642887115 0.001003 -0.027071 -0.999633
0.188506960869 2.248148679733 -0.834325253963 0.001003 -0.027071 -0.999633
0.194084942341 2.243421792984 -0.834195971489 0.001003 -0.027071 -0.999633
0.342806369066 2.252608299255 -0.834340572357 0.001007 -0.029192 -0.999573
0.460429847240 2.239264488220 -0.833879053593 0.001007 -0.029192 -0.999573
0.258986204863 2.299898862839 -0.835792362690 0.001007 -0.029192 -0.999573
0.396315813065 2.301881790161 -0.835775494576 0.001007 -0.029192 -0.999573
0.068715937436 2.304105997086 -0.835888683796 -0.020199 0.480734 -0.876634
-0.089213363826 2.326145172119 -0.820180475712 -0.020199 0.480734 -0.876634
0.127005666494 2.335766792297 -0.819894909859 -0.020199 0.480734 -0.876634
0.227771803737 2.330260038376 -0.825234174728 -0.020199 0.480734 -0.876634
0.266055017710 2.349763154984 -0.800500392914 -0.036696 0.876628 0.479767
0.391288846731 2.345735073090 -0.787192344666 -0.026188 0.831128 0.555464
0.630947947502 2.319082260132 -0.776263654232 0.003456 0.197001 0.980397
0.483187854290 2.301825284958 -0.772602915764 -0.005773 0.197445 0.980297
0.088598355651 2.310837507248 -0.777024507523 -0.008027 0.184629 0.982776
0.145518392324 2.328827619553 -0.780019223690 -0.008027 0.184629 0.982776
-0.026266239583 2.273007869720 -0.695541143417 -0.040210 0.999072 -0.015466
0.109786719084 2.278544902802 -0.696657538414 -0.040210 0.999072 -0.015466
0.164679870009 2.279974699020 -0.749707996845 -0.040210 0.999072 -0.015466
0.091975197196 2.277205467224 -0.736717879772 -0.040210 0.999072 -0.015466
0.111048020422 2.279820919037 -0.616579174995 -0.040210 0.999072 -0.015466
0.183785900474 2.282335281372 -0.646343767643 -0.040210 0.999072 -0.015466
0.108177289367 2.278018236160 -0.726809144020 -0.040210 0.999072 -0.015466
0.310684144497 2.285624742508 -0.770009040833 -0.040210 0.999072 -0.015466
-0.132963612676 2.268884420395 -0.691355824471 -0.031709 0.999346 -0.017389
-0.177383884788 0.637771129608 1.044009327888 0.669158 -0.032401 -0.742413
-0.147642374039 1.963225364685 1.014113545418 0.669158 -0.032401 -0.742413
-0.172806039453 1.050577759743 1.030469536781 0.669158 -0.032401 -0.742413
-0.202337056398 -0.052148669958 1.051020622253 0.669158 -0.032401 -0.742413
-0.155690729618 1.218057870865 1.038748860359 0.669158 -0.032401 -0.742413
-0.156384930015 1.293732404709 1.034882664680 0.669158 -0.032401 -0.742413
0.007260452956 2.205654144287 1.054855823517 0.022123 0.189794 -0.981575
-0.104927100241 2.221882581711 1.048527598381 0.121637 0.189352 -0.974346
-0.117302849889 2.194935083389 1.070127606392 -0.088393 0.595563 0.798431
-0.187185496092 2.172203302383 1.079504251480 -0.066988 0.577233 0.813827
-0.244702622294 2.314614772797 -0.356007993221 -0.988815 0.148938 -0.007839
-0.242097243667 2.322455406189 -0.494086533785 -0.979053 0.202846 -0.017588
-0.287998586893 2.308574199677 -0.534049928188 -0.001098 0.130653 0.991428
-0.277182042599 2.307265758514 -0.489287912846 -0.035367 0.999374 -0.001010
-0.265781253576 2.308303594589 -0.318690806627 -0.072515 0.997340 -0.007357
-0.245927810669 2.323805570602 -0.165675878525 -0.997795 0.065961 -0.007329
-0.343468368053 2.311180114746 -0.299875944853 0.078950 0.996874 -0.003158
-0.320950627327 2.305240631104 -0.457774460316 -0.162760 0.986665 0.001122
-0.347763150930 2.298102617264 -0.409564942122 -0.282288 0.959291 -0.008554
-0.371231079102 2.252966642380 -0.332433015108 -0.967289 0.253538 -0.008411
-0.370373159647 2.260672807693 -0.248421698809 -0.976376 0.215533 -0.015311
-0.384327411652 2.247969627380 -0.306136995554 0.578911 0.807544 -0.112851
-0.366454243660 1.540707349777 -0.449207633734 0.001135 -0.175987 -0.984392
0.641962349415 1.605382680893 -0.459601372480 0.001135 -0.175987 -0.984392
-0.197154402733 1.500568628311 -0.441840738058 0.001135 -0.175987 -0.984392
0.143351793289 1.540313005447 -0.448549687862 0.001135 -0.175987 -0.984392
-0.334034800529 1.488002777100 -0.439753264189 0.001135 -0.175987 -0.984392
-0.370848059654 1.493253946304 -0.440733939409 0.001135 -0.175987 -0.984392
0.466091662645 1.541559815407 -0.448400527239 0.001135 -0.175987 -0.984392
0.928013801575 1.590099573135 -0.456541031599 0.001135 -0.175987 -0.984392
-0.115760207176 1.525970697403 -0.446285665035 0.001135 -0.175987 -0.984392
0.026016891003 1.549716949463 -0.450365126133 0.001135 -0.175987 -0.984392
1.497873187065 1.608398318291 -0.459153860807 0.001135 -0.175987 -0.984392
-0.328102529049 1.540455937386 -0.449118494987 0.001135 -0.175987 -0.984392
0.027903556824 1.586341619492 -0.456906914711 0.001135 -0.175987 -0.984392
-0.527433395386 1.467664241791 -0.436342179775 0.001135 -0.175987 -0.984392
-0.172420233488 1.491960287094 -0.440274149179 0.001135 -0.175987 -0.984392
1.584019660950 1.585635542870 -0.454987436533 0.001135 -0.175987 -0.984392
0.878554582596 1.519242525101 -0.443937659264 0.001135 -0.175987 -0.984392
0.832975387573 1.503333926201 -0.441147685051 0.001135 -0.175987 -0.984392
0.557966232300 1.513054847717 -0.443201512098 0.001135 -0.175987 -0.984392
0.522293746471 1.484938621521 -0.438218951225 0.001135 -0.175987 -0.984392
0.990132868290 1.479078769684 -0.436632812023 0.001135 -0.175987 -0.984392
0.718115568161 1.501863360405 -0.441017329693 0.001135 -0.175987 -0.984392
1.566884279251 1.506554126740 -0.440877318382 0.001135 -0.175987 -0.984392
-0.128800481558 1.471630692482 -0.436591476202 0.001135 -0.175987 -0.984392
0.143844604492 1.493409514427 -0.440168619156 0.001135 -0.175987 -0.984392
1.030801892281 1.533266425133 -0.446267902851 0.001135 -0.175987 -0.984392
1.110600709915 1.515368580818 -0.442978054285 0.001135 -0.175987 -0.984392
0.763559281826 1.521113038063 -0.444404363632 0.001135 -0.175987 -0.984392
0.653916239738 1.479735732079 -0.437137633562 0.001135 -0.175987 -0.984392
1.057793736458 1.544808626175 -0.448299139738 0.001135 -0.175987 -0.984392
1.233418107033 1.686726927757 -0.502902209759 0.004008 -0.498291 -0.867000
1.021016120911 1.667499780655 -0.492615610361 0.004008 -0.498291 -0.867000
1.403634309769 1.647095680237 -0.479440242052 0.004008 -0.498291 -0.867000
1.363339662552 1.690097332001 -0.504361033440 0.004008 -0.498291 -0.867000
1.124495983124 1.695888161659 -0.508584141731 0.004008 -0.498291 -0.867000
0.999650239944 1.683555841446 -0.501943945885 0.004008 -0.498291 -0.867000
0.649017393589 1.647434353828 -0.482439130545 0.004008 -0.498291 -0.867000
0.676279962063 1.638782739639 -0.477354079485 0.004008 -0.498291 -0.867000
0.833249807358 1.677655935287 -0.499163657427 0.004008 -0.498291 -0.867000
1.263283967972 1.623835802078 -0.466562956572 0.004008 -0.498291 -0.867000
1.223491907120 1.680966973305 -0.499621063471 0.004008 -0.498291 -0.867000
1.319886803627 1.616301655769 -0.462012708187 0.004008 -0.498291 -0.867000
0.535436391830 1.663848519325 -0.492316395044 0.004008 -0.498291 -0.867000
0.682174801826 1.671712398529 -0.496301174164 0.004008 -0.498291 -0.867000
-0.375034332275 1.692992210388 -0.512487232685 0.004008 -0.498291 -0.867000
-0.430557370186 1.654020547867 -0.490244030952 0.004008 -0.498291 -0.867000
0.604086816311 1.705356597900 -0.515971899033 0.004008 -0.498291 -0.867000
-0.441435992718 1.653910636902 -0.490221142769 0.004008 -0.498291 -0.867000
0.358412563801 1.682559967041 -0.503752768040 0.004008 -0.498291 -0.867000
0.862360000610 1.706884264946 -0.515892386436 0.004008 -0.498291 -0.867000
-0.394558787346 1.705071330070 -0.519517958164 0.004008 -0.498291 -0.867000
0.029373168945 1.710973620415 -0.521342813969 0.004008 -0.498291 -0.867000
0.340889632702 1.699951887131 -0.513836443424 0.004008 -0.498291 -0.867000
0.039555549622 1.656605482101 -0.489986449480 0.004008 -0.498291 -0.867000
-0.547252058983 1.605346322060 -0.462638944387 0.004008 -0.498291 -0.867000
0.161511182785 1.704560279846 -0.517157495022 0.004008 -0.498291 -0.867000
0.659272491932 1.702034115791 -0.513853013515 0.004008 -0.498291 -0.867000
0.178340077400 1.701100707054 -0.515102088451 0.004008 -0.498291 -0.867000
0.163844347000 1.696949720383 -0.512764751911 0.004008 -0.498291 -0.867000
-0.478458046913 1.750841856003 -0.566977977753 0.004149 -0.756412 -0.654082
0.604501187801 1.740774631500 -0.547238588333 0.004149 -0.756412 -0.654082
0.459838062525 1.743785142899 -0.551803648472 0.004149 -0.756412 -0.654082
-0.402745932341 1.753417491913 -0.569394230843 0.004149 -0.756412 -0.654082
-0.262850582600 1.746033668518 -0.559802234173 0.004149 -0.756412 -0.654082
0.236104324460 1.723187923431 -0.529630780220 0.004149 -0.756412 -0.654082
-0.448311090469 1.750389933586 -0.566229760647 0.004149 -0.756412 -0.654082
0.813421964645 1.735318541527 -0.539362907410 0.004149 -0.756412 -0.654082
0.581292092800 1.767133831978 -0.577925145626 0.004149 -0.756412 -0.654082
0.527082800865 1.747990250587 -0.556169390678 0.004149 -0.756412 -0.654082
0.384734362364 1.748473644257 -0.557791888714 0.004149 -0.756412 -0.654082
1.538070797920 1.761904478073 -0.564728200436 0.004149 -0.756412 -0.654082
1.508453845978 1.753645181656 -0.555388331413 0.004149 -0.756412 -0.654082
1.090052604675 1.740544557571 -0.543347060680 0.004149 -0.756412 -0.654082
-0.086247012019 1.756730675697 -0.570866584778 0.004149 -0.756412 -0.654082
1.408672690392 1.775310873985 -0.581284880638 0.006751 -0.849266 -0.527922
-0.516892015934 1.806289196014 -0.651068627834 0.006751 -0.849266 -0.527922
-0.403649836779 1.803475022316 -0.645368814468 0.006751 -0.849266 -0.527922
1.355895638466 1.775459647179 -0.582071661949 0.006751 -0.849266 -0.527922
0.835654556751 1.780758857727 -0.595988094807 0.006751 -0.849266 -0.527922
-0.343722760677 1.785938858986 -0.616549253464 0.006751 -0.849266 -0.527922
-0.308452546597 1.791576623917 -0.625248908997 0.006751 -0.849266 -0.527922
0.302106022835 1.775089859962 -0.592405974865 0.006751 -0.849266 -0.527922
-0.112074241042 1.787402272224 -0.616499900818 0.006751 -0.849266 -0.527922
0.834588289261 1.787312150002 -0.606537103653 0.006751 -0.849266 -0.527922
1.208786129951 1.807867527008 -0.635450065136 0.006751 -0.849266 -0.527922
0.979644656181 1.791621327400 -0.611815273762 0.006751 -0.849266 -0.527922
1.427676916122 1.800388097763 -0.621220767498 0.006751 -0.849266 -0.527922
1.357567548752 1.788165092468 -0.602382957935 0.006751 -0.849266 -0.527922
0.861245214939 1.804555058479 -0.633736371994 0.006751 -0.849266 -0.527922
0.810316801071 1.792865037918 -0.615553379059 0.006751 -0.849266 -0.527922
1.321932435036 1.812150120735 -0.641135931015 0.006751 -0.849266 -0.527922
1.301706314087 2.317637443542 -0.390498340130 0.022971 0.999736 -0.000999
1.339972138405 2.316814899445 -0.288070499897 0.022971 0.999736 -0.000999
1.369378089905 2.312884807587 -0.157914772630 0.150135 0.988665 0.001112
1.306805133820 2.318945884705 -0.126780331135 0.059208 0.998219 -0.007271
1.269590973854 2.348880767822 -0.370037853718 0.986817 0.161644 -0.007913
1.438263893127 1.951947569847 -0.656984090805 0.251789 -0.003580 -0.967776
1.439780592918 1.853414893150 -0.664441525936 0.982976 0.058101 -0.174303
1.380052685738 2.095049858093 -0.738633751869 0.334192 0.003755 -0.942497
1.365713834763 2.385669231415 -0.686387896538 0.553146 0.830427 -0.066491
1.413983225822 2.262922286987 -0.673192620277 0.955077 0.210896 -0.208209
1.419304728508 2.218924283981 -0.667723536491 0.978236 0.051739 -0.200941
1.423607707024 2.115751743317 -0.673783004284 0.978236 0.051739 -0.200941
1.439070820808 1.893323898315 -0.656599938869 -0.146420 0.010059 0.989171
1.418254613876 1.920047402382 -0.658074676991 0.036751 0.038851 0.998569
1.389350056648 2.133513450623 -0.665463566780 0.036751 0.038851 0.998569
1.415227770805 1.852438330650 -0.756100058556 0.005870 -0.975587 -0.219536
0.576351284981 1.860245585442 -0.814822137356 0.005870 -0.975587 -0.219536
1.016575217247 1.857096433640 -0.788217484951 0.005870 -0.975587 -0.219536
0.438083469868 1.858564019203 -0.811313927174 0.005870 -0.975587 -0.219536
1.419299721718 1.852822661400 -0.757690608501 0.005870 -0.975587 -0.219536
1.006429791451 1.855822086334 -0.782846391201 0.005870 -0.975587 -0.219536
1.214514493942 1.865580797195 -0.820238769054 0.005870 -0.975587 -0.219536
0.607639610767 1.860947608948 -0.817045152187 0.005870 -0.975587 -0.219536
1.064780354500 1.853831648827 -0.772331953049 0.005870 -0.975587 -0.219536
0.119203217328 1.848002433777 -0.773529052734 0.005870 -0.975587 -0.219536
1.158258318901 1.851601123810 -0.759743750095 0.005870 -0.975587 -0.219536
-0.171714425087 1.848593473434 -0.784490704536 0.005870 -0.975587 -0.219536
-0.194363832474 1.842276215553 -0.757074296474 0.005870 -0.975587 -0.219536
-0.315581053495 1.840651988983 -0.753331661224 0.005870 -0.975587 -0.219536
0.305942922831 1.847125053406 -0.764280378819 0.005870 -0.975587 -0.219536
-0.253523051739 1.853248953819 -0.807517945766 0.005870 -0.975587 -0.219536
-0.493552714586 1.848037123680 -0.791241049767 0.005870 -0.975587 -0.219536
0.778368234634 1.830827116966 -0.698018729687 0.006166 -0.953247 -0.302129
1.563691854477 1.838942289352 -0.707639634609 0.006166 -0.953247 -0.302129
1.070254087448 1.836983680725 -0.711500227451 0.006166 -0.953247 -0.302129
0.024454556406 1.834863543510 -0.726088464260 0.006166 -0.953247 -0.302129
0.568532705307 1.830824136734 -0.702278435230 0.006166 -0.953247 -0.302129
1.464055657387 1.834108829498 -0.694420516491 0.006166 -0.953247 -0.302129
-0.211746975780 1.838375806808 -0.741972386837 0.006166 -0.953247 -0.302129
0.996886372566 1.843801498413 -0.734498023987 0.006166 -0.953247 -0.302129
1.005177855492 1.835776925087 -0.709017753601 0.006166 -0.953247 -0.302129
1.129419922829 1.831704974174 -0.693645894527 0.006166 -0.953247 -0.302129
0.307349592447 1.823090672493 -0.683198690414 0.006166 -0.953247 -0.302129
0.154200196266 1.828136086464 -0.702229201794 0.006166 -0.953247 -0.302129
0.645879924297 1.823506951332 -0.677624523640 0.006166 -0.953247 -0.302129
-0.466265678406 1.815714597702 -0.675671398640 0.006166 -0.953247 -0.302129
0.769810795784 1.819805860519 -0.663429260254 0.006166 -0.953247 -0.302129
0.065487869084 1.823089480400 -0.688115417957 0.006166 -0.953247 -0.302129
-0.108426623046 1.820885300636 -0.684700846672 0.006166 -0.953247 -0.302129
0.850968599319 1.823008656502 -0.671880364418 0.006166 -0.953247 -0.302129
0.456976979971 1.823830246925 -0.682487607002 0.006166 -0.953247 -0.302129
0.194860130548 1.824686646461 -0.690521240234 0.006166 -0.953247 -0.302129
-0.075590647757 2.330908775330 -0.793719232082 -0.046086 0.830951 0.554433
0.031767457724 2.321245670319 -0.779534459114 -0.010439 0.198335 0.980079
0.682581901550 2.307516336441 -0.774171829224 0.003431 0.186428 0.982463
0.902692198753 2.324915647507 -0.778471112251 0.003431 0.186428 0.982463
0.743206441402 2.288773536682 -0.691524863243 0.027509 0.999505 -0.015283
1.097808003426 2.279481887817 -0.651959776878 0.027509 0.999505 -0.015283
1.129323482513 2.277006149292 -0.756420731544 0.027509 0.999505 -0.015283
0.986449480057 2.282186031342 -0.678395032883 0.027509 0.999505 -0.015283
1.100516200066 2.280496120453 -0.580654919147 0.027509 0.999505 -0.015283
0.956747531891 2.282090663910 -0.738859176636 0.027509 0.999505 -0.015283
0.860788226128 2.285962104797 -0.660777807236 0.027509 0.999505 -0.015283
1.158372282982 2.280246973038 -0.536547183990 0.017081 0.999769 0.013062
1.402563333511 1.870295166969 -0.886696994305 0.007130 -0.999264 -0.037689
0.470248609781 1.863771438599 -0.872872054577 0.007130 -0.999264 -0.037689
0.366765707731 1.863175749779 -0.874813318253 0.007130 -0.999264 -0.037689
1.198465943336 1.867888092995 -0.857160329819 0.007130 -0.999264 -0.037689
1.057238578796 1.867989182472 -0.884566009045 0.007130 -0.999264 -0.037689
0.832879304886 1.865735292435 -0.862717330456 0.007130 -0.999264 -0.037689
0.131515800953 1.861300945282 -0.865134358406 0.007130 -0.999264 -0.037689
-0.132146522403 1.858758926392 -0.842344284058 0.007130 -0.999264 -0.037689
-0.106742896140 1.860199689865 -0.876925110817 0.007130 -0.999264 -0.037689
1.105558276176 1.866136670113 -0.825959503651 0.007130 -0.999264 -0.037689
0.516194403172 1.862792849541 -0.838346302509 0.007130 -0.999264 -0.037689
-0.450025379658 1.857656478882 -0.868011713028 0.007130 -0.999264 -0.037689
0.674362540245 2.358417034149 -0.813846528530 0.014725 0.480581 -0.876827
0.604775369167 2.363432645798 -0.812209367752 0.014725 0.480581 -0.876827
0.929067730904 2.351531505585 -0.806252717972 0.022945 0.875957 0.481844
0.668552398682 2.344811201096 -0.821395576000 0.014725 0.480581 -0.876827
0.948023498058 2.280546903610 -0.835148990154 -0.001005 -0.029133 -0.999575
0.950710892677 2.294723510742 -0.835570871830 -0.001005 -0.029133 -0.999575
0.687183558941 2.286476373672 -0.835281372070 -0.001005 -0.029133 -0.999575
1.039948940277 2.294913291931 -0.835591614246 -0.001005 -0.029133 -0.999575
0.823598563671 2.230152368546 -0.833731591702 -0.001003 -0.027071 -0.999633
0.687663137913 2.222754240036 -0.833451807499 -0.001003 -0.027071 -0.999633
1.104375839233 2.216974020004 -0.833563387394 -0.001003 -0.027071 -0.999633
1.181909084320 2.261497735977 -0.827784538269 0.338212 -0.029354 -0.940612
0.642041146755 2.131309270859 -0.755606949329 -0.009724 -0.704290 -0.709846
1.195836186409 2.165254354477 -0.795919358730 -0.009724 -0.704290 -0.709846
1.074563026428 2.167268514633 -0.796440780163 -0.009724 -0.704290 -0.709846
1.132538795471 2.178635597229 -0.808393299580 -0.009724 -0.704290 -0.709846
0.738027334213 2.125206947327 -0.750733077526 -0.009724 -0.704290 -0.709846
0.840119779110 2.169692277908 -0.795472681522 -0.015325 -0.675708 -0.737010
0.625315845013 2.214160203934 -0.831687986851 -0.015325 -0.675708 -0.737010
0.702585816383 2.165195465088 -0.788415253162 -0.015325 -0.675708 -0.737010
0.702904224396 2.145859241486 -0.770683407784 -0.015325 -0.675708 -0.737010
0.448942184448 2.149273633957 -0.772162318230 0.026675 -0.675293 -0.737067
0.303503572941 2.193918228149 -0.818205475807 0.026675 -0.675293 -0.737067
0.452137291431 2.196663856506 -0.815508246422 0.026675 -0.675293 -0.737067
0.506847441196 2.212942838669 -0.828516840935 0.026675 -0.675293 -0.737067
0.312118411064 2.119791984558 -0.747804462910 0.018164 -0.708386 -0.705591
-0.121606782079 2.188799858093 -0.828098952770 0.018164 -0.708386 -0.705591
0.368595123291 2.135936498642 -0.762596845627 0.018164 -0.708386 -0.705591
-0.142156451941 2.161366939545 -0.801057338715 0.018164 -0.708386 -0.705591
0.055975303054 2.164498567581 -0.799194991589 0.018164 -0.708386 -0.705591
-0.165803462267 2.171411752701 -0.810283184052 -0.079888 -0.652173 -0.753849
-0.220127418637 2.134024858475 -0.770388662815 -0.952933 -0.044293 -0.299927
-0.188236355782 2.286918878555 -0.815965116024 -0.338999 -0.031981 -0.940243
1.218066096306 2.106300830841 -0.692190527916 -0.012139 -0.992120 -0.124705
1.023575067520 2.110740423203 -0.709001660347 -0.012139 -0.992120 -0.124705
1.201791167259 2.107721567154 -0.701929688454 -0.012139 -0.992120 -0.124705
1.271195769310 2.091057300568 -0.679126977921 -0.211827 -0.940069 -0.267207
1.352504611015 2.138917207718 -0.744416594505 0.007075 -0.027289 -0.999603
1.290997266769 2.270678520203 -0.750106036663 0.032482 -0.042960 -0.998549
1.258571982384 2.281518697739 -0.760163962841 0.957603 -0.026083 -0.286908
1.375325918198 1.989212274551 -0.740207850933 -0.996844 -0.072048 0.033336
1.206333637238 2.023574590683 -0.664290904999 -0.068075 -0.081467 -0.994348
1.282990098000 2.058681011200 -0.672374725342 -0.068075 -0.081467 -0.994348
1.279148936272 1.978474378586 -0.665550410748 -0.068075 -0.081467 -0.994348
1.357876658440 1.878656506538 -0.658012330532 -0.038935 -0.107906 -0.993398
1.312223792076 1.948985815048 -0.663939237595 -0.038935 -0.107906 -0.993398
1.371029615402 1.876850366592 -0.658314406872 -0.038935 -0.107906 -0.993398
1.183448553085 2.315594434738 -0.774270713329 -0.210455 0.186630 0.959624
0.518065929413 2.336283206940 -0.661983847618 -0.999120 0.041843 0.003062
0.520228564739 2.383496522903 -0.428678393364 -0.998255 0.058964 -0.003103
0.516054868698 2.302955627441 -0.490343511105 -0.998623 0.052451 -0.001028
0.514837145805 2.276907682419 -0.573982179165 -0.998623 0.052451 -0.001028
0.518887162209 2.362262010574 -0.331859916449 -0.998623 0.052451 -0.001028
0.517242789268 2.333019495010 -0.277438700199 -0.998623 0.052451 -0.001028
0.509525120258 2.362775802612 -0.340946048498 0.997849 0.065552 -0.001041
0.511284291744 2.332529544830 -0.462121009827 0.997849 0.065552 -0.001041
