-0.053151395172 1.439523220062 0.439519017935 0.001018 -0.043791 0.999040
-0.258874565363 1.277043342590 0.431245505810 -0.007187 -0.044149 0.998999
-0.197584599257 1.278892755508 0.431803017855 -0.007187 -0.044149 0.998999
-0.185055077076 1.406626343727 0.437637090683 -0.005133 -0.046199 0.998919
-0.313966393471 1.286460042000 0.431517302990 0.003074 -0.046105 0.998932
-0.447486668825 1.373562812805 0.435069799423 -0.007145 -0.037766 0.999261
-0.521040081978 1.358508110046 0.434359014034 0.007186 -0.046198 0.998906
-0.614613473415 1.179851531982 0.423600316048 0.017292 -0.180989 0.983333
-0.669276416302 1.073827862740 0.407363325357 0.171278 -0.205272 0.963601
-0.706099927425 0.914732038975 0.321598827839 0.989410 -0.145143 0.001108
-0.401769399643 1.238329052925 0.429758429527 0.003050 -0.037613 0.999288
-0.113231733441 1.266403555870 0.431896537542 0.001018 -0.043791 0.999040
-0.079748481512 1.298683881760 0.433317869902 0.001018 -0.043791 0.999040
0.022093825042 1.371938347816 0.436543256044 0.001018 -0.043791 0.999040
0.111714027822 1.424091100693 0.438839554787 0.001018 -0.043791 0.999040
0.043785873801 1.455171346664 0.440208017826 0.001018 -0.043791 0.999040
0.113139219582 1.537218093872 0.439567446709 0.001040 0.067624 0.997710
0.014933094382 1.579342007637 0.434989124537 0.001354 0.553762 0.832674
0.109593853354 1.621912837029 0.401871711016 0.001381 0.705724 0.708486
0.204720526934 1.620868206024 0.394462853670 0.073848 0.705176 0.705176
0.327069312334 1.611387252808 0.389887690544 0.117285 0.702227 0.702227
0.470387458801 1.572922587395 0.404420644045 0.199944 0.692828 0.692828
0.656841874123 1.504467606544 0.389430165291 0.549958 0.590570 0.590570
0.467393726110 1.545897006989 0.423370122910 0.096756 0.553097 0.827479
0.156992673874 1.584905624390 0.428545147181 0.066491 0.553146 0.830427
0.211381256580 1.511633753777 0.439235329628 0.012279 0.139535 0.990141
0.178445920348 1.482915759087 0.441159397364 0.003073 -0.048149 0.998835
0.127559795976 1.452602505684 0.440054655075 0.005113 -0.043969 0.999020
0.286246687174 1.400703549385 0.436877012253 0.005133 -0.046199 0.998919
0.235939368606 1.382828116417 0.436272531748 0.005133 -0.046199 0.998919
0.129162356257 1.416121125221 0.438404589891 0.007187 -0.044149 0.998999
0.225764259696 1.320578336716 0.433428347111 0.007187 -0.044149 0.998999
-0.177226662636 1.139577031136 0.411070257425 -0.005818 -0.205948 0.978546
-0.254006147385 1.177029371262 0.418602466583 -0.003495 -0.210880 0.977506
-0.425852239132 1.136978387833 0.411652892828 0.010519 -0.206883 0.978309
-0.508338034153 1.180874586105 0.421227037907 -0.001156 -0.202338 0.979315
-0.560299634933 1.107203841209 0.393890619278 0.167869 -0.985809 0.001127
-0.528915643692 1.111815333366 0.326883077621 0.092452 -0.995717 0.001063
-0.052342914045 1.133077979088 0.361886650324 0.001168 -0.975327 -0.220763
-0.040070984513 1.131020426750 0.356733590364 0.000978 0.000978 0.999999
-0.060209028423 1.129032135010 0.351345092058 0.000978 -0.999999 0.000978
-0.023945242167 1.129032135010 0.316954255104 0.000978 -0.999999 0.000978
0.386279940605 1.122720599174 0.376555562019 -0.039848 -0.974465 -0.220975
0.039669360965 1.132231235504 0.365629822016 0.001168 -0.975327 -0.220763
0.169326394796 1.131440281868 0.365178436041 -0.015401 -0.975029 -0.221544
0.003780908883 1.153133630753 0.414377480745 0.001158 -0.207235 0.978290
0.046608269215 1.202009677887 0.424740463495 0.001158 -0.207235 0.978290
0.116698883474 1.160469889641 0.415920346975 0.005818 -0.205948 0.978546
0.263978183270 1.207138419151 0.425066351891 0.003495 -0.210880 0.977506
0.380738675594 1.182802677155 0.420858502388 -0.010519 -0.206883 0.978309
0.359042763710 1.313513755798 0.432940632105 -0.003074 -0.046105 0.998932
0.348588228226 1.327727317810 0.433576196432 -0.003074 -0.046105 0.998932
0.418225079775 1.317874193192 0.433129370213 0.007145 -0.037766 0.999261
0.366080522537 1.363680005074 0.435246974230 0.007145 -0.037766 0.999261
0.301120400429 1.444898843765 0.438884943724 0.007200 -0.048346 0.998805
0.380480229855 1.519273042679 0.433472543955 0.044608 0.138398 0.989372
0.491226226091 1.466101527214 0.438773125410 -0.011340 -0.044329 0.998953
0.474838554859 1.417295455933 0.436735212803 -0.007186 -0.046198 0.998906
0.464751869440 1.308527350426 0.432421803474 0.009205 -0.037842 0.999241
0.544603705406 1.112230300903 0.407178670168 -0.012810 -0.201472 0.979410
0.553395926952 1.425851464272 0.437695890665 -0.013401 -0.044328 0.998927
0.569802403450 1.482497930527 0.430329352617 0.149110 0.211347 0.965970
0.650279223919 1.116361975670 0.411889791489 -0.010367 -0.185461 0.982597
0.697421729565 0.970330595970 0.392236560583 -0.506771 -0.228124 0.831350
0.704886496067 0.928613781929 0.340809762478 -0.989050 -0.147066 0.012349
0.682664215565 1.019313097000 0.373624831438 -0.949175 -0.314746 0.001234
0.512105524540 1.113741397858 0.383736640215 -0.092452 -0.995717 0.001063
0.459010928869 1.118615984917 0.401230722666 -0.092452 -0.995717 0.001063
0.565125823021 1.109500288963 0.361141264439 -0.170075 -0.961120 -0.217537
0.717556715012 1.216676950455 0.427260905504 0.576387 0.034890 0.816432
0.745543181896 1.169565796852 0.395323812962 0.987081 0.160219 0.001120
0.729258656502 1.322839856148 0.377857416868 0.984549 0.123820 0.123820
0.683627665043 1.274107336998 0.436652660370 -0.068953 -0.141412 0.987547
0.676773965359 1.197379112244 0.426186978817 -0.053709 -0.124559 0.990757
0.580399990082 1.136033296585 0.412391394377 -0.027062 -0.196497 0.980131
-0.021958855912 1.178478956223 0.419751346111 0.001158 -0.207235 0.978290
0.876155972481 -0.640629827976 0.381358593702 0.073237 -0.358194 0.930771
0.821454942226 -0.699058711529 0.353840947151 0.107921 -0.669700 0.734748
0.696642220020 -0.689819991589 0.413648098707 0.870172 -0.079871 0.486231
0.725828468800 -0.727022111416 0.360313475132 0.849273 -0.020448 0.527558
0.785470068455 -0.668708324432 0.271131902933 0.003207 0.097280 -0.995252
0.800454616547 -0.726026833057 0.267360299826 0.714513 -0.501325 -0.488001
0.788446128368 -0.739617288113 0.294171154499 0.572541 -0.814826 0.090857
0.890866100788 -0.685957849026 0.325042665005 0.419500 -0.901717 0.104527
0.906715452671 -0.677066326141 0.333806276321 0.408879 -0.887134 0.214034
0.946419239044 -0.614410758018 0.330055385828 0.999371 0.001013 -0.035439
0.886903345585 -0.651849150658 0.273955374956 0.041279 -0.045513 -0.998111
0.817227721214 -0.636581182480 0.273960769176 0.017738 0.051127 -0.998535
0.927787244320 -0.598506093025 0.355729341507 -0.839554 -0.230077 -0.492152
0.765434801579 -0.812323391438 0.273358345032 0.986817 -0.007913 0.161644
0.760446548462 -0.888555943966 0.277342379093 0.956866 -0.075576 0.280527
0.750813007355 -0.831725776196 0.310749918222 0.882329 -0.085297 0.462838
0.671569287777 -0.637952029705 0.453804105520 0.001330 -0.490829 0.871255
0.713636100292 -0.627245962620 0.374972254038 0.000991 0.999889 -0.014865
0.752996027470 -0.628819227219 0.295466542244 0.027289 0.999586 -0.009096
0.760116338730 -0.931458055973 0.236097976565 0.436163 0.055709 -0.898142
0.763524949551 -0.703136920929 0.243841633201 0.437266 0.001305 -0.899331
0.732571184635 -0.864120125771 0.272461801767 -0.856095 0.057073 -0.513657
0.735434532166 -0.868299126625 0.312115550041 0.001351 -0.544370 0.838844
0.728865325451 -0.671522080898 0.288734138012 -0.938422 -0.003769 -0.345470
0.732333481312 -0.642926871777 0.276293963194 -0.914966 -0.105943 -0.389376
0.673814594746 -0.684989452362 0.392531126738 -0.844562 0.098938 -0.526238
0.698570251465 -0.810589611530 0.343392699957 -0.844562 0.098938 -0.526238
-0.888933420181 -0.673455655575 0.286609321833 -0.351298 -0.681355 -0.642141
-0.839850246906 -0.702362835407 0.298085361719 -0.309020 -0.872257 -0.379044
-0.774091124535 -0.728090047836 0.259129524231 -0.439081 0.067025 -0.895944
-0.760335564613 -0.830201506615 0.292920053005 -0.882329 -0.085297 0.462838
-0.715520083904 -0.795408666134 0.359178215265 0.001350 -0.541234 0.840871
-0.657410264015 -0.640941083431 0.428566187620 0.853039 0.101791 -0.511823
-0.671527683735 -0.706279397011 0.392261147499 0.844562 0.098938 -0.526238
-0.733272850513 -0.816578805447 0.276535242796 0.856095 0.057073 -0.513657
-0.747974991798 -0.913825750351 0.235011771321 0.901326 -0.014474 -0.432900
-0.703852593899 -0.631549775600 0.340944290161 0.919454 -0.014265 -0.392940
-0.732545673847 -0.653581202030 0.278522402048 0.938422 -0.003769 -0.345470
-0.735301911831 -0.721973180771 0.277798891068 0.957099 -0.006112 -0.289697
-0.742978572845 -0.652656495571 0.324360132217 -0.949403 0.074030 0.305212
-0.774441301823 -0.725549876690 0.318099409342 0.118834 -0.576564 0.808364
-0.889980077744 -0.623387992382 0.385122060776 0.021999 -0.053426 0.998329
-0.709900796413 -0.681750774384 0.391238272190 -0.870172 -0.079871 0.486231
-0.765837788582 0.428417652845 0.302270710468 -0.357376 -0.070412 0.931303
-0.716550767422 1.354871869087 0.374326229095 -0.387578 -0.019444 0.921632
0.117517419159 1.622046709061 0.397879332304 0.001272 0.375114 0.926978
-0.179400935769 1.615565180779 0.396977633238 -0.057068 0.375586 0.925029
-0.366488754749 1.606990575790 0.387528628111 -0.076456 0.374232 0.924178
-0.527693331242 1.577485322952 0.383540332317 -0.116419 0.362954 0.924506
-0.646233260632 1.509031534195 0.384575784206 -0.635040 0.645040 0.425027
-0.388969272375 1.593758463860 0.391798049212 -0.134973 0.896507 0.421969
-0.345508754253 1.599282622337 0.394135564566 -0.137198 0.900981 0.411594
-0.638596415520 1.508176922798 0.392969071865 -0.521681 0.511616 0.682714
-0.753822088242 0.470135509968 0.315052688122 -0.714654 -0.052990 0.697468
-0.766488254070 0.492062389851 0.290833085775 0.001048 0.076536 -0.997066
-0.735463261604 0.763604879379 0.332990497351 0.950699 -0.021294 0.309384
-0.736636281013 0.998710215092 0.351462095976 -0.996959 0.077341 -0.009535
-0.736715853214 0.382552593946 0.308127850294 0.950645 -0.023797 0.309367
-0.725959539413 1.131672859192 0.361480683088 -0.996181 0.084896 -0.020418
-0.375540822744 1.587521791458 0.400026828051 -0.027344 0.011140 0.999564
-0.703121960163 1.321005225182 0.381113618612 -0.024577 -0.073731 0.996975
-0.721722066402 1.084282517433 0.352886229753 0.802517 -0.119273 0.584586
-0.772919476032 0.847160339355 0.317225664854 -0.897973 0.030689 -0.438979
-0.137097060680 1.605950236320 0.398909747601 -0.035726 0.009187 0.999319
0.044992029667 1.599382042885 0.408250361681 0.000987 0.010858 0.999941
-0.388357758522 1.577523350716 0.394455194473 -0.138320 0.990372 -0.005533
-0.761854648590 1.084001302719 0.334473401308 -0.892762 0.114240 -0.435803
-0.670011043549 1.455215454102 0.391570508480 -0.010923 0.004965 0.999928
-0.617452740669 1.507482528687 0.391820549965 0.652091 -0.697174 0.297869
-0.674678206444 1.426841378212 0.374681562185 0.855992 -0.497263 -0.141450
-0.634655117989 1.481323957443 0.373737037182 0.684615 -0.711939 -0.156353
-0.710217356682 1.445928454399 0.361997097731 0.095636 0.061882 -0.993491
-0.581257462502 1.517477393150 0.379217624664 0.420435 -0.891437 -0.169041
-0.131341069937 1.588947296143 0.390755802393 0.074091 -0.986704 -0.144654
-0.228865221143 1.588083148003 0.397726297379 0.034922 -0.806002 0.590882
-0.346998363733 1.573353886604 0.389323204756 0.094520 -0.798334 0.594751
0.251603305340 1.626234292984 0.380894750357 0.068470 0.997559 -0.013694
0.350448459387 1.616276860237 0.385100483894 0.137635 0.990300 -0.019023
0.444298028946 1.588107466698 0.388763695955 0.076456 0.374232 0.924178
0.249206721783 1.584614396095 0.375457257032 -0.035726 -0.009187 -0.999319
0.736562430859 0.750170230865 0.310269296169 0.001042 0.069839 -0.997558
0.403114825487 1.576575636864 0.390609890223 0.027344 0.011140 0.999564
0.482912302017 1.556846499443 0.394575893879 -0.227109 -0.921290 0.315667
0.294963449240 1.579057455063 0.375534564257 -0.074091 -0.986704 -0.144654
0.312125235796 1.576716423035 0.377819448709 -0.138727 -0.980910 -0.136272
0.726251542568 0.962441027164 0.334164708853 -0.989497 -0.021388 -0.142965
0.729756116867 0.772314608097 0.320336520672 -0.986738 0.010196 -0.162002
0.729635059834 0.625274002552 0.314639598131 -0.806340 -0.046438 0.589627
0.712966561317 1.155940175056 0.355602413416 -0.797624 -0.119422 0.591215
0.711810231209 1.166052222252 0.356333404779 -0.795340 -0.138255 0.590187
0.697696626186 1.305812478065 0.370799332857 -0.792056 -0.151224 0.591421
0.741505682468 0.845621466637 0.337472945452 0.999586 0.027289 0.009096
0.741566777229 0.417549967766 0.308887362480 0.999999 0.000978 0.000978
0.747820317745 0.797530353069 0.334724694490 -0.999999 0.000978 0.000978
0.671454727650 1.506583213806 0.377933502197 0.217569 0.212163 0.952707
0.754868566990 0.912257790565 0.343459993601 0.909201 -0.003891 0.416339
0.749550342560 0.925552189350 0.321934610605 0.001034 0.061026 -0.998136
0.674551010132 1.486555695534 0.363575518131 -0.015374 0.033823 -0.999310
0.303613543510 1.608884453773 0.373312652111 -0.027344 -0.011140 -0.999564
0.243282347918 1.610324144363 0.375411093235 -0.035726 -0.009187 -0.999319
0.511880099773 1.583754777908 0.383055806160 0.116419 0.362954 0.924506
0.608354687691 1.552522420883 0.373534053564 0.470085 0.882250 0.025592
0.742411315441 1.283557295799 0.356624394655 0.990801 0.134553 -0.014456
0.774919033051 0.502547740936 0.297257721424 0.999999 0.000978 0.000978
0.519640743732 1.584901928902 0.369580179453 0.223627 0.884140 -0.410229
-0.373284876347 -2.330509901047 -0.228176623583 -0.999999 0.000978 0.000978
-0.363435506821 -2.335987329483 -0.253250807524 0.999999 0.000978 0.000978
-0.368698745966 -2.362906694412 -0.252526283264 0.000979 -0.999995 0.002938
0.274843424559 -2.307738780975 -0.058788008988 -0.999999 0.000978 0.000978
0.274843424559 -2.330364942551 -0.158956304193 -0.999999 0.000978 0.000978
0.284692853689 -2.307759284973 -0.314157038927 0.999999 0.000978 0.000978
0.284692853689 -2.307330369949 -0.246431276202 0.999999 0.000978 0.000978
0.284692853689 -2.348587512970 -0.153546273708 0.999999 0.000978 0.000978
0.284692853689 -2.300677061081 -0.148598521948 0.999999 0.000978 0.000978
-0.190889611840 -2.305795669556 -0.030721612275 -0.999999 0.000978 0.000978
-0.190889611840 -2.369205951691 -0.305102795362 -0.999999 0.000978 0.000978
-0.181040346622 -2.337504625320 -0.303926467896 0.999999 0.000978 0.000978
-0.102297730744 -2.307425498962 -0.050996445119 -0.999999 0.000978 0.000978
-0.092448368669 -2.351626873016 -0.212629199028 0.999999 0.000978 0.000978
-0.092448368669 -2.303539991379 -0.047154765576 0.999999 0.000978 0.000978
-0.102199241519 -2.363979339600 -0.096808373928 0.001120 -0.987081 0.160219
-0.284692883492 -2.298609018326 -0.062850698829 -0.999999 0.000978 0.000978
-0.284692883492 -2.348672866821 -0.199932068586 -0.999999 0.000978 0.000978
-0.284692883492 -2.307504653931 -0.260599404573 -0.999999 0.000978 0.000978
-0.284692883492 -2.327834606171 -0.309743881226 -0.999999 0.000978 0.000978
-0.274843513966 -2.358755111694 -0.312886595726 0.999999 0.000978 0.000978
-0.274843513966 -2.271172046661 -0.036554336548 0.999999 0.000978 0.000978
0.181040197611 -2.318671226501 -0.033082842827 -0.999999 0.000978 0.000978
0.181040197611 -2.281566143036 -0.038361363113 -0.999999 0.000978 0.000978
0.190889567137 -2.348468542099 -0.119418248534 0.999999 0.000978 0.000978
0.190889567137 -2.320531129837 -0.179708182812 0.999999 0.000978 0.000978
0.092448264360 -2.365621328354 -0.195385292172 -0.999999 0.000978 0.000978
0.102297633886 -2.375044107437 -0.267611235380 0.999999 0.000978 0.000978
0.102297633886 -2.316570281982 -0.036793995649 0.999999 0.000978 0.000978
-0.001355007407 -2.345867395401 -0.091771826148 -0.999999 0.000978 0.000978
-0.001355007407 -2.327488422394 -0.181048899889 -0.999999 0.000978 0.000978
0.008494359441 -2.329376697540 -0.249273732305 0.999999 0.000978 0.000978
0.008494359441 -2.355619430542 -0.165148362517 0.999999 0.000978 0.000978
0.008494359441 -2.328587293625 -0.148015767336 0.999999 0.000978 0.000978
-0.001355007407 -2.324749469757 -0.026743931696 -0.999999 0.000978 0.000978
0.369352817535 -2.333905696869 -0.064358294010 0.001227 -0.953006 0.302950
0.363435417414 -2.315716505051 -0.043799921870 -0.999999 0.000978 0.000978
0.363435417414 -2.319632053375 -0.258298337460 -0.999999 0.000978 0.000978
0.373284786940 -2.326199769974 -0.240136668086 0.999999 0.000978 0.000978
0.373284786940 -2.351368665695 -0.169913172722 0.999999 0.000978 0.000978
0.373284786940 -2.306422710419 -0.128596931696 0.999999 0.000978 0.000978
-0.184042766690 -2.378717899323 -0.102781884372 0.000978 0.000978 -0.999999
-0.004407754168 -2.358115196228 -0.102781884372 0.000978 0.000978 -0.999999
0.015245646238 -2.348440647125 -0.102781884372 0.000978 0.000978 -0.999999
0.156735032797 -2.371705532074 -0.102781884372 0.000978 0.000978 -0.999999
0.062820531428 -2.401154994965 -0.094646796584 0.000978 -0.999999 0.000978
-0.298965513706 -2.385493755341 -0.087148070335 -0.000978 -0.000978 0.999999
-0.172666117549 -2.355841636658 -0.087148040533 -0.000978 -0.000978 0.999999
-0.119272723794 -2.345870256424 -0.087148033082 0.000978 -0.000978 0.999999
-0.041822183877 -2.348435640335 -0.087148033082 0.000978 -0.000978 0.999999
0.064424142241 -2.393851757050 -0.087148070335 0.000978 -0.000978 0.999999
0.374123275280 -2.340910911560 -0.102781906724 -0.000978 -0.000978 -0.999999
0.315320551395 -2.329373121262 -0.087148033082 0.000978 -0.000978 0.999999
0.061180822551 -2.402636766434 -0.149683550000 0.000978 -0.000978 -0.999999
0.340388774872 -2.383656501770 -0.149683550000 0.000978 -0.000978 -0.999999
-0.125542595983 -2.381298065186 -0.134049654007 0.000978 0.000978 0.999999
0.277330398560 -2.401104927063 -0.142232760787 0.137718 -0.990471 0.001102
0.378413081169 -2.329711437225 -0.149683579803 0.000978 -0.000978 -0.999999
0.266833662987 -2.358150243759 -0.134049654007 0.000978 0.000978 0.999999
-0.380424320698 -2.361407995224 -0.202877134085 -0.999999 0.000978 0.000978
-0.251227915287 -2.371986627579 -0.207007765770 0.000978 0.000978 -0.999999
-0.328759640455 -2.342039823532 -0.207007765770 0.000978 0.000978 -0.999999
-0.144562542439 -2.368889093399 -0.207007765770 0.000978 0.000978 -0.999999
-0.142754346132 -2.411197900772 -0.207007780671 0.000978 0.000978 -0.999999
-0.038116838783 -2.377232074738 -0.207007765770 0.000978 0.000978 -0.999999
0.102663554251 -2.365516901016 -0.207007765770 0.000978 0.000978 -0.999999
0.256847441196 -2.363889455795 -0.207007765770 -0.000978 0.000978 -0.999999
0.071293994784 -2.421999931335 -0.194252103567 0.000978 -0.999999 0.000978
-0.338143199682 -2.398176193237 -0.192262783647 -0.186011 -0.982547 0.001141
-0.106713950634 -2.394844293594 -0.191373884678 0.000978 -0.000978 0.999999
-0.000500666152 -2.403219699860 -0.191373884678 0.000978 -0.000978 0.999999
0.100181996822 -2.366536378860 -0.191373869777 0.000978 -0.000978 0.999999
0.080143928528 -2.415706634521 -0.191373899579 0.000978 -0.000978 0.999999
-0.335182428360 -2.358658552170 -0.264331996441 0.000978 0.000978 -0.999999
-0.121679700911 -2.385727405548 -0.264331996441 0.000978 -0.000978 -0.999999
-0.073323428631 -2.375268459320 -0.264331996441 0.000978 -0.000978 -0.999999
0.024857163429 -2.392781734467 -0.264331966639 0.000978 -0.000978 -0.999999
0.030790366232 -2.365602731705 -0.264331996441 0.000978 -0.000978 -0.999999
0.209716290236 -2.394877195358 -0.264331996441 0.000978 0.000978 -0.999999
-0.064086139202 -2.421999931335 -0.249412119389 0.000978 -0.999999 0.000978
-0.296032816172 -2.367917776108 -0.248698115349 0.000978 0.000978 0.999999
-0.105648562312 -2.420294523239 -0.248698100448 0.000978 0.000978 0.999999
-0.058528095484 -2.377728462219 -0.248698115349 0.000978 0.000978 0.999999
0.102714359760 -2.372808218002 -0.248698115349 0.000978 0.000978 0.999999
-0.308853536844 -2.352473497391 -0.050669010729 -0.000978 -0.000978 -0.999999
-0.221915662289 -2.350172281265 -0.050669010729 -0.000978 -0.000978 -0.999999
-0.178205221891 -2.362442970276 -0.050669010729 -0.000978 -0.000978 -0.999999
-0.059361886233 -2.347597837448 -0.050669010729 0.000978 -0.000978 -0.999999
-0.055877763778 -2.329800367355 -0.050669014454 0.000978 -0.000978 -0.999999
0.113329038024 -2.365680932999 -0.050669010729 0.000978 -0.000978 -0.999999
0.215688049793 -2.314540386200 -0.050669014454 0.000978 -0.000978 -0.999999
0.024616749957 -2.375098228455 -0.040311552584 0.000978 -0.999999 0.000978
-0.105717197061 -2.375098228455 -0.036282710731 0.000978 -0.999999 0.000978
-0.279347538948 -2.353466510773 -0.035035140812 0.000978 0.000978 0.999999
-0.168006658554 -2.341992378235 -0.035035125911 -0.000978 -0.000978 0.999999
-0.100449398160 -2.360904216766 -0.035035137087 0.000978 -0.000978 0.999999
-0.008496497758 -2.353855371475 -0.035035133362 0.000978 -0.000978 0.999999
-0.760393619537 -0.883591473103 0.234280318022 0.000987 0.010858 -0.999941
-0.747661828995 -0.685561180115 0.239173233509 0.001012 0.037461 -0.999298
-0.772286951542 -0.581456601620 0.243057727814 0.001012 0.037461 -0.999298
-0.742985844612 -0.240256085992 0.257911264896 0.001020 0.045917 -0.998945
-0.731707572937 -0.481733024120 0.246976390481 0.001020 0.045917 -0.998945
-0.729322373867 -0.899160981178 0.246873542666 0.800146 -0.006862 0.599766
-0.729928016663 -0.726255834103 0.244952753186 0.986470 0.005650 -0.163847
-0.730579853058 -0.534519255161 0.248196184635 0.986470 0.005650 -0.163847
-0.731552779675 -0.348164677620 0.268855839968 0.799887 -0.026431 0.599568
-0.730376780033 -0.232243776321 0.262879431248 0.986455 0.007910 -0.163844
-0.764262855053 -0.359294414520 0.269023954868 -0.351512 -0.042804 0.935204
-0.762445032597 0.223205879331 0.292632520199 -0.349919 -0.034863 0.936131
-0.766348838806 0.337543070316 0.295681297779 -0.353856 -0.037589 0.934544
-0.773902773857 -0.854323506355 0.247464358807 -0.350962 -0.011403 0.936320
-0.741914093494 -0.950778067112 0.252176135778 0.000981 -0.004907 0.999987
-0.743356406689 -0.358624726534 0.271311759949 0.001020 -0.045917 0.998945
-0.752718627453 -0.277828574181 0.282579392195 -0.706734 -0.032445 0.706734
-0.750611424446 -0.408801972866 0.277377605438 0.001020 -0.045917 0.998945
-0.748328387737 -0.464610219002 0.274850428104 0.001020 -0.045917 0.998945
-0.747820317745 0.311832815409 0.302298754454 0.999999 0.000978 0.000978
-0.747820317745 0.145947128534 0.299056708813 0.999999 0.000978 0.000978
-0.747820317745 -0.817466199398 0.256099551916 0.999999 0.000978 0.000978
-0.729929327965 0.087365940213 0.277559280396 0.986470 0.005650 -0.163847
-0.745674490929 0.228154003620 0.275636374950 0.001012 0.037461 -0.999298
-0.730300962925 0.347481012344 0.285286039114 0.986892 0.005639 -0.161286
-0.774919092655 -0.072058573365 0.272898703814 -0.999999 0.000978 0.000978
0.797445595264 -1.596512317657 -0.216454789042 0.999999 0.000978 0.000978
0.797445595264 -1.480394721031 -0.206942617893 0.999999 0.000978 0.000978
0.797445595264 -1.531565070152 -0.456156104803 0.999999 0.000978 0.000978
0.789009034634 -1.570414662361 -0.439309179783 0.001286 -0.399807 -0.916599
0.784774601460 -1.345336675644 -0.307888060808 0.001081 0.993536 0.113516
0.784673511982 -1.374318122864 -0.310852766037 -0.999999 0.000978 0.000978
0.784673511982 -1.363476634026 -0.325073719025 -0.999999 0.000978 0.000978
0.784673511982 -1.600931286812 -0.379062801600 -0.999999 0.000978 0.000978
0.784673511982 -1.463079452515 -0.170089006424 -0.999999 0.000978 0.000978
0.784673511982 -1.511581182480 -0.209588706493 -0.999999 0.000978 0.000978
0.793188095093 -1.603062510490 -0.209851413965 -0.999999 0.000978 0.000978
0.793188095093 -1.504367947578 -0.209403097630 0.999999 0.000978 0.000978
0.797445595264 -1.598229885101 -0.321493923664 0.999999 0.000978 0.000978
0.720445692539 -1.556642293930 -0.361363649368 -0.489606 -0.700153 -0.519684
0.707827508450 -1.541142225266 -0.367733329535 -0.491188 -0.541481 -0.682299
0.767109036446 -1.534230113029 -0.226194962859 -0.491555 -0.317693 0.810829
0.724967360497 -1.479312777519 -0.245258614421 -0.490909 0.128882 0.861625
0.696518063545 -1.500312447548 -0.377534836531 -0.490909 -0.128882 -0.861625
0.682137072086 -1.451932430267 -0.345916867256 0.001286 0.916599 -0.399807
0.650476813316 -1.522152900696 -0.269766449928 0.001266 -0.365926 0.930643
0.763765633106 -1.426792502403 -0.383611142635 -0.491188 0.682299 -0.541481
0.805960357189 -1.552828550339 -0.389878600836 0.999999 0.000978 0.000978
0.813331544399 -1.512041211128 -0.243320330977 0.847167 -0.060212 0.527904
0.816126942635 -1.440614700317 -0.360269874334 0.847350 0.415124 -0.331166
0.806775629520 -1.335754990578 -0.335504531860 0.001073 0.994569 -0.104070
0.816603899002 -1.398076653481 -0.232318028808 0.999999 0.000978 0.000978
0.811256766319 -1.332529902458 -0.302061498165 0.001304 0.900850 0.434129
0.817424356937 -1.365267992020 -0.339230477810 0.001373 -0.624527 -0.781002
0.761667668819 -1.378707051277 -0.314907848835 0.000978 -0.999999 0.000978
0.793083965778 -1.328391075134 -0.315807580948 0.000978 0.999999 0.000978
-0.891132891178 1.286063432693 -0.406807869673 -0.999999 0.000978 0.000978
-0.834225535393 1.500215411186 -0.266927033663 0.001158 0.978290 0.207235
-0.884454846382 1.460081458092 -0.184537217021 0.001364 0.808912 0.587928
-0.861909985542 1.409513831139 -0.383972704411 0.001334 0.500299 0.865851
-0.858368813992 1.330796480179 -0.403117716312 0.001364 -0.808912 -0.587928
-0.891132891178 1.403380274773 -0.502526581287 -0.999999 0.000978 0.000978
-0.875976085663 1.415730953217 -0.501815319061 0.001364 0.587928 -0.808912
-0.885296344757 1.083799600601 -0.424030572176 0.001334 -0.865851 -0.500299
-0.828978955746 1.062155485153 -0.358646571636 0.001158 -0.978290 -0.207235
-0.657669723034 1.158719539642 -0.189486652613 0.999999 0.000978 0.000978
-0.698442518711 1.314098238945 -0.099436894059 0.001073 0.104070 0.994569
-0.682224571705 1.384858131409 -0.121517792344 0.001289 0.406019 0.913864
-0.657669723034 1.384405255318 -0.131988734007 0.999999 0.000978 0.000978
-0.664103031158 1.295865297318 -0.144048556685 0.001073 -0.104070 -0.994569
-0.716399669647 1.290877461433 -0.143682599068 0.000978 0.000978 -0.999999
-0.786136090755 1.234380483627 -0.150343179703 0.001230 0.308835 -0.951115
-0.673559367657 1.203166961670 -0.162415415049 0.001289 0.406019 -0.913864
-0.728163957596 1.134328246117 -0.223618403077 0.001364 0.808912 -0.587928
-0.679002046585 1.111084818840 -0.275125563145 0.001230 0.951115 -0.308835
-0.891132891178 1.079518914223 -0.270985990763 -0.999999 0.000978 0.000978
-0.848235130310 1.158922314644 -0.271585017443 0.001230 0.308835 0.951115
-0.861949980259 1.117234110832 -0.223422229290 -0.999999 0.000978 0.000978
-0.857787489891 1.091100215912 -0.206527590752 0.001334 -0.865851 0.500299
-0.882651448250 1.242915630341 -0.465970158577 0.001158 -0.978290 0.207235
-0.891132891178 1.176786065102 -0.518224477768 -0.999999 0.000978 0.000978
-0.867828905582 1.114912152290 -0.438632756472 0.001362 0.815569 0.578659
-0.657669723034 1.081350564957 -0.344470262527 0.999999 0.000978 0.000978
-0.657669723034 1.088790297508 -0.328051209450 0.999999 0.000978 0.000978
-0.676653206348 1.060748815536 -0.292074590921 0.001073 -0.994569 0.104070
-0.690278947353 1.096370458603 -0.197148486972 0.001364 -0.808912 0.587928
-0.659967243671 1.215169191360 -0.107931710780 0.001230 -0.308835 0.951115
-0.677310705185 1.507237792015 -0.312710046768 0.000978 0.999999 0.000978
-0.671953916550 1.474645614624 -0.438106715679 0.001334 0.865851 -0.500299
-0.670708417892 1.498730063438 -0.259897708893 0.001230 0.951115 0.308835
-0.689211726189 1.431844234467 -0.223692566156 0.001364 -0.808912 -0.587928
-0.780175089836 1.427001118660 -0.217026725411 0.001364 -0.808912 -0.587928
-0.842145144939 1.236543178558 -0.246545270085 0.001364 -0.587928 0.808912
-0.730664908886 1.443564414978 -0.398531764746 0.001289 -0.913864 0.406019
-0.779247701168 1.439330101013 -0.406770884991 0.001334 -0.865851 0.500299
-0.792023062706 1.428481459618 -0.424139112234 0.001364 -0.808912 0.587928
-0.882594466209 1.423186063766 -0.496398895979 0.001364 0.587928 -0.808912
-0.835456311703 1.393273711205 -0.457600891590 0.001364 0.808912 0.587928
-0.735597431660 1.418080449104 -0.437541127205 0.001379 -0.743362 0.668888
-0.691599845886 1.418576121330 -0.436990618706 0.001379 -0.743362 0.668888
-0.805891871452 1.332164645195 -0.492721557617 0.001230 -0.308835 0.951115
-0.730929732323 1.299960613251 -0.498724371195 0.001073 -0.104070 0.994569
-0.657669723034 1.118809461594 -0.394650161266 0.999999 0.000978 0.000978
-0.889572024345 1.363578915596 -0.163570299745 0.001289 0.913864 -0.406019
-0.889342248440 1.322916746140 -0.302523493767 0.001275 0.924466 -0.381263
-0.849564135075 1.229648470879 -0.410922676325 0.001364 0.808912 -0.587928
-0.705175638199 1.230494260788 -0.491597503424 0.001230 0.308835 0.951115
-0.711158156395 1.144905924797 -0.434062868357 0.001379 0.743362 0.668888
-0.750145792961 1.134989619255 -0.420495510101 0.001364 0.808912 0.587928
-0.657669723034 1.108960509300 -0.460258990526 0.999999 0.000978 0.000978
-0.891132891178 1.226467370987 -0.386439234018 -0.999999 0.000978 0.000978
-0.657669723034 1.070718288422 -0.372908860445 0.999999 0.000978 0.000978
-0.889944255352 1.261848568916 -0.297197431326 -0.669037 -0.435458 0.602300
-0.852595329285 1.373159766197 -0.340437710285 0.001073 -0.104070 -0.994569
-0.889007627964 1.326952695847 -0.338198542595 -0.996609 -0.078482 0.024727
-0.739132285118 1.456082940102 -0.363332897425 0.001158 -0.978290 0.207235
-0.695851087570 1.458667159081 -0.351175278425 0.001158 -0.978290 0.207235
-0.691280722618 1.457806825638 -0.287981450558 0.001158 -0.978290 -0.207235
-0.657669723034 1.456227302551 -0.262390643358 0.999999 0.000978 0.000978
-0.889159679413 1.435186743736 -0.197139948606 0.001379 0.668888 -0.743362
-0.887386083603 1.426839351654 -0.204655960202 0.001379 0.668888 -0.743362
-0.862172782421 1.206967353821 -0.111030839384 0.001230 -0.308835 0.951115
-0.852339625359 1.234683513641 -0.103106498718 0.001158 -0.207235 0.978290
-0.880557358265 1.273612976074 -0.097823202610 0.000978 0.000978 0.999999
-0.874609649181 1.218496680260 -0.153882160783 0.001289 0.913864 0.406019
-0.891132891178 1.171955823898 -0.138818234205 -0.999999 0.000978 0.000978
-0.879550576210 1.373625040054 -0.321863859892 0.001073 0.104070 0.994569
-0.737214326859 1.347724676132 -0.155635997653 0.001289 -0.406019 -0.913864
-0.698595166206 1.444960713387 -0.166367962956 0.001379 0.743362 0.668888
-0.893094599247 1.507032632828 -0.291580498219 -0.877615 -0.471701 -0.085382
-0.899464428425 1.512999534607 -0.410078346729 -0.999999 0.000978 0.000978
-0.896031618118 1.542306303978 -0.453872293234 -0.954741 0.244360 -0.169583
-0.893689513206 1.523146271706 -0.490217208862 -0.869197 0.406437 -0.281614
-0.899464428425 1.537644863129 -0.378646373749 -0.999999 0.000978 0.000978
-0.899142682552 1.444162249565 -0.144606724381 -0.888298 -0.261264 -0.377713
-0.899464428425 1.374693155289 -0.084151618183 -0.999999 0.000978 0.000978
-0.713258504868 1.133926868439 -0.153130829334 0.001350 0.541234 -0.840871
-0.758936762810 1.116279721260 -0.171020001173 0.001359 0.822094 -0.569351
-0.668448150158 1.141969680786 -0.141708210111 0.896501 0.239950 -0.372438
-0.670893609524 1.225787639618 -0.028853029013 0.888918 -0.081819 0.450700
-0.724802672863 1.351344227791 -0.109839454293 0.001162 -0.212622 -0.977134
-0.865975677967 1.343067288399 -0.108042359352 0.001162 -0.212622 -0.977134
-0.713028490543 1.265283823013 -0.099354602396 0.001135 0.178186 -0.983996
-0.880245983601 1.222109794617 -0.107161790133 0.001135 0.178186 -0.983996
-0.716643810272 1.195776581764 -0.113347843289 0.001350 0.541234 -0.840871
-0.758188843727 1.440667986870 -0.161806702614 0.001359 -0.569351 -0.822094
-0.674749195576 1.406112790108 -0.137834995985 0.001359 -0.569351 -0.822094
-0.668419420719 1.576909303665 -0.350536674261 0.888284 0.449038 -0.096522
-0.665993690491 1.575626134872 -0.329889446497 0.959777 0.274402 -0.059433
-0.662849068642 1.512108206749 -0.192364469171 0.999999 0.000978 0.000978
-0.669978797436 1.491772055626 -0.233545973897 0.896501 -0.372438 -0.239950
-0.700300574303 1.475431323051 -0.212126836181 0.001350 -0.840871 -0.541234
-0.747680544853 1.446942090988 -0.167835399508 0.001350 -0.840871 -0.541234
-0.879884123802 1.499261379242 -0.274693220854 0.001135 -0.983996 -0.178186
-0.748487710953 1.498648524284 -0.271303921938 0.001135 -0.983996 -0.178186
-0.688677549362 1.508346438408 -0.327308773994 0.001162 -0.977134 0.212622
-0.895063936710 1.470712423325 -0.547494411469 -0.868498 0.268279 -0.416818
-0.662849068642 1.033741831779 -0.248915672302 0.999999 0.000978 0.000978
-0.891085267067 1.105944275856 -0.184247702360 -0.878137 0.393128 -0.272629
-0.860773921013 1.077363252640 -0.227117761970 0.001359 0.822094 -0.569351
-0.796807885170 1.070599079132 -0.247806295753 0.001162 0.977134 -0.212622
-0.663116931915 1.041231632233 -0.306955307722 0.898989 0.428024 -0.092808
-0.663366913795 1.095149755478 -0.174118950963 0.897778 0.361175 -0.252085
-0.684092402458 1.065958619118 -0.377319395542 0.001135 0.983996 0.178186
-0.797873556614 1.067376971245 -0.385162770748 0.001135 0.983996 0.178186
-0.687676131725 1.077635169029 -0.415624707937 0.001350 0.840871 0.541234
-0.670816898346 1.113193631172 -0.471753865480 0.896501 0.372438 0.239950
-0.662849068642 1.049827337265 -0.385575711727 0.999999 0.000978 0.000978
-0.670257568359 1.049643754959 -0.511577367783 0.888595 -0.385504 -0.248568
-0.662926256657 1.111092448235 -0.542307794094 0.959745 -0.159738 -0.231025
-0.681397020817 1.161797761917 -0.509515702724 0.001359 0.569351 0.822094
-0.866908848286 1.189857482910 -0.528981447220 0.001359 0.569351 0.822094
-0.739200651646 1.248760700226 -0.542575597763 0.001162 0.212622 0.977134
-0.793392479420 1.243134260178 -0.541354000568 0.001162 0.212622 0.977134
-0.832849144936 1.287623167038 -0.547175586224 0.001135 -0.178186 0.983996
-0.862648248672 1.303173661232 -0.544363617897 0.001135 -0.178186 0.983996
-0.785724997520 1.391922950745 -0.515872359276 0.001350 -0.541234 0.840871
-0.808559656143 1.428259134293 -0.492500185966 0.001350 -0.541234 0.840871
-0.835894405842 1.441753506660 -0.481941998005 0.001359 -0.822094 0.569351
-0.736944258213 1.484606266022 -0.420169651508 0.001359 -0.822094 0.569351
-0.899345099926 1.378989458084 -0.587605357170 -0.954508 0.052110 -0.293597
-0.895863592625 1.083902716637 -0.537175536156 -0.954741 -0.169583 -0.244360
-0.899464428425 1.034330368042 -0.296081334352 -0.999999 0.000978 0.000978
-0.899464428425 1.054247260094 -0.434194177389 -0.999999 0.000978 0.000978
-0.899464428425 1.069337964058 -0.495585858822 -0.999999 0.000978 0.000978
-0.899464428425 1.210979342461 -0.554420351982 -0.999999 0.000978 0.000978
-0.899464428425 1.287554502487 -0.582140743732 -0.999999 0.000978 0.000978
-0.815796494484 1.065934896469 -0.269287735224 0.001162 0.977134 -0.212622
-0.879391670227 1.079772710800 -0.418947786093 0.001350 0.840871 0.541234
-0.664252161980 1.013893365860 -0.225546747446 0.959777 -0.274402 0.059433
-0.663435339928 1.002054214478 -0.293232887983 0.959777 -0.274402 0.059433
-0.800727903843 1.491040945053 -0.407012879848 0.001162 -0.977134 0.212622
-0.665292441845 1.517320871353 -0.485229790211 0.959745 0.231025 -0.159738
-0.666339933872 1.414891719818 -0.512464225292 0.906041 -0.228328 0.356308
-0.666528582573 1.449558854103 -0.559923231602 0.959953 0.151433 -0.235709
-0.662849068642 1.319856762886 -0.579184770584 0.999999 0.000978 0.000978
-0.669836878777 1.302284240723 -0.620525658131 0.888918 0.081819 -0.450700
-0.899395525455 1.221405506134 -0.050939366221 -0.954508 -0.052110 0.293597
-0.898617088795 1.566249132156 -0.318161308765 -0.954508 0.293597 0.052110
-0.852695584297 1.506881833076 -0.553308725357 0.001359 0.822094 -0.569351
-0.818505883217 1.575703740120 -0.454101383686 0.001359 0.822094 -0.569351
-0.671043276787 1.545512557030 -0.495219200850 0.999999 0.000978 0.000978
-0.686095297337 1.583424329758 -0.211608976126 0.001135 0.983996 0.178186
-0.781574189663 1.590226411819 -0.249225050211 0.001135 0.983996 0.178186
-0.862223386765 1.585241913795 -0.221660241485 0.001135 0.983996 0.178186
-0.696544766426 1.587399721146 -0.406829923391 0.001162 0.977134 -0.212622
-0.762181937695 1.586535215378 -0.410811424255 0.001162 0.977134 -0.212622
-0.885718822479 1.589774489403 -0.385898053646 -0.825423 0.562852 -0.043296
-0.890566766262 1.573956489563 -0.429580718279 -0.999999 0.000978 0.000978
-0.684958636761 1.217614293098 -0.012645574287 0.001135 -0.178186 0.983996
-0.864642024040 1.198394060135 -0.016121180728 0.001135 -0.178186 0.983996
-0.860996842384 1.293279409409 -0.001213434152 0.001162 0.212622 0.977134
-0.822165489197 1.302324175835 -0.003177248407 0.001162 0.212622 0.977134
-0.840538620949 1.400435209274 -0.024479309097 0.001162 0.212622 0.977134
-0.749158143997 1.434312939644 -0.043131850660 0.001359 0.569351 0.822094
-0.805608749390 1.453529715538 -0.056462910026 0.001359 0.569351 0.822094
-0.827685832977 1.521948099136 -0.110756322742 0.001350 0.840871 0.541234
-0.683806002140 1.557132124901 -0.165456175804 0.001350 0.840871 0.541234
-0.878371834755 1.455955743790 -0.586725771427 0.001350 0.541234 -0.840871
-0.780226230621 1.411486506462 -0.615329086781 0.001350 0.541234 -0.840871
-0.766443192959 1.382976889610 -0.625699460506 0.001135 0.178186 -0.983996
-0.878996372223 1.386167287827 -0.625122606754 0.001135 0.178186 -0.983996
-0.700150430202 1.266880154610 -0.642918407917 0.001162 -0.212622 -0.977134
-0.800146460533 1.235608339310 -0.636128664017 0.001162 -0.212622 -0.977134
-0.807631909847 1.223180532455 -0.633430361748 0.001162 -0.212622 -0.977134
-0.811927795410 1.156543374062 -0.618962109089 0.001162 -0.212622 -0.977134
-0.719001233578 1.150678634644 -0.616401135921 0.001359 -0.569351 -0.822094
-0.723533689976 1.103501439095 -0.583673000336 0.001359 -0.569351 -0.822094
-0.863217771053 1.103276014328 -0.583516657352 0.001359 -0.569351 -0.822094
-0.722162365913 1.042328357697 -0.534651696682 0.001350 -0.840871 -0.541234
-0.854321837425 1.004137635231 -0.475277572870 0.001350 -0.840871 -0.541234
-0.810132622719 0.990589380264 -0.454214334488 0.001350 -0.840871 -0.541234
-0.849152088165 0.968101561069 -0.364424943924 0.001135 -0.983996 -0.178186
-0.759900987148 0.962849557400 -0.335381120443 0.001135 -0.983996 -0.178186
-0.681802153587 0.978314042091 -0.420900225639 0.001135 -0.983996 -0.178186
-0.809121489525 0.976030230522 -0.408270955086 0.001135 -0.983996 -0.178186
-0.688398003578 1.080836176872 -0.075732588768 0.001350 -0.541234 0.840871
-0.840241432190 1.082288980484 -0.074798136950 0.001350 -0.541234 0.840871
-0.755985915661 1.036187529564 -0.121813274920 0.001359 -0.822094 0.569351
-0.882483899593 0.993074893951 -0.183960020542 0.001359 -0.822094 0.569351
-0.701589286327 0.989902496338 -0.188533008099 0.001359 -0.822094 0.569351
-0.746242225170 0.985870599747 -0.195393502712 0.001162 -0.977134 0.212622
-0.886822044849 0.978114306927 -0.231116518378 0.001162 -0.977134 0.212622
-0.722562015057 0.963245511055 -0.299597740173 0.001162 -0.977134 0.212622
-0.736301481724 1.433296084404 -0.601300835609 0.001350 0.541234 -0.840871
-0.880312144756 1.503372192383 -0.556226670742 0.001350 0.541234 -0.840871
-0.755468308926 1.558049917221 -0.166883051395 0.001350 0.840871 0.541234
0.891132831573 1.341549754143 -0.192840367556 0.999999 0.000978 0.000978
0.889561414719 1.303246736526 -0.117779329419 0.001059 -0.087863 -0.996132
0.846134960651 1.216647744179 -0.107885524631 0.001230 -0.308835 0.951115
0.859946310520 1.103071928024 -0.454585015774 0.001364 -0.808912 -0.587928
0.842699289322 1.506823658943 -0.309741497040 0.001073 0.994569 0.104070
0.848422169685 1.473252415657 -0.439734190702 0.001334 0.865851 -0.500299
0.879994213581 1.479643821716 -0.214539676905 0.001334 0.865851 0.500299
0.891132831573 1.435660243034 -0.161790430546 0.999999 0.000978 0.000978
0.726556956768 1.371224641800 -0.167060837150 0.001334 -0.500299 -0.865851
0.780951082706 1.344663143158 -0.154542848468 0.001230 -0.308835 -0.951115
0.750208735466 1.306987643242 -0.145217508078 0.001073 -0.104070 -0.994569
0.796782135963 1.247838616371 -0.147194162011 0.001158 0.207235 -0.978290
0.762957453728 1.235242009163 -0.150063246489 0.001230 0.308835 -0.951115
0.815180003643 1.212410807610 -0.158299729228 0.001289 0.406019 -0.913864
0.699109435081 1.165309071541 -0.188210532069 0.001379 0.668888 -0.743362
0.834774553776 1.213010191917 -0.187093898654 0.001289 -0.913864 -0.406019
0.890800535679 1.356724739075 -0.267787277699 0.001379 0.668888 -0.743362
0.896389842033 1.300047993660 -0.322333782911 0.980024 0.197878 -0.019905
0.859981894493 1.316931486130 -0.436478883028 0.001158 0.978290 0.207235
0.850934386253 1.303950309753 -0.464487075806 0.001158 -0.978290 -0.207235
0.843668520451 1.302114486694 -0.455850332975 0.001158 -0.978290 -0.207235
0.731477916241 1.344054937363 -0.488858073950 0.001230 -0.308835 0.951115
0.767130732536 1.382339239120 -0.469390481710 0.001364 -0.587928 0.808912
0.677143633366 1.400516748428 -0.455256134272 0.001379 -0.668888 0.743362
0.689022541046 1.183315277100 -0.522571742535 0.001289 -0.406019 -0.913864
0.677900433540 1.138656616211 -0.493227869272 0.001379 -0.668888 -0.743362
0.657669663429 1.126099348068 -0.472847133875 -0.999999 0.000978 0.000978
0.657669663429 1.150897979736 -0.487162441015 -0.999999 0.000978 0.000978
0.712841629982 1.286498188972 -0.499520748854 0.000978 0.000978 0.999999
0.769826769829 1.273368835449 -0.499482274055 0.001073 0.104070 0.994569
0.752629339695 1.238466382027 -0.494017064571 0.001158 0.207235 0.978290
0.718564212322 1.192150473595 -0.474558800459 0.001334 0.500299 0.865851
0.749243915081 1.172512531281 -0.461204975843 0.001364 0.587928 0.808912
0.702881991863 1.149765610695 -0.439459890127 0.001379 0.743362 0.668888
0.891132831573 1.365265727043 -0.435909599066 0.999999 0.000978 0.000978
0.840973913670 1.189666152000 -0.473002344370 0.001337 0.506611 0.862174
0.884234189987 1.199823021889 -0.451974153519 0.001364 0.808912 -0.587928
0.891132831573 1.193828701973 -0.456603348255 0.999999 0.000978 0.000978
0.832925200462 1.105275869370 -0.327847808599 -0.019091 0.999777 0.009043
0.859981477261 1.119104623795 -0.252772092819 0.001284 0.917945 -0.396706
0.846479296684 1.176671624184 -0.277352184057 0.001230 0.308835 0.951115
0.839850425720 1.178997516632 -0.297581851482 0.001230 -0.308835 -0.951115
0.891132831573 1.102212548256 -0.258865207434 0.999999 0.000978 0.000978
0.833809256554 1.281289935112 -0.234731838107 -0.999999 0.000978 0.000978
0.883517086506 1.292318224907 -0.160148724914 0.000978 0.999999 0.000978
0.889079153538 1.292318224907 -0.164103388786 0.000978 0.999999 0.000978
0.873610913754 1.138941407204 -0.175930902362 0.001380 0.680398 -0.732842
0.832092285156 1.105610013008 -0.307807415724 0.001073 0.994569 -0.104070
0.807387471199 1.111042380333 -0.275256335735 0.001230 0.951115 -0.308835
0.657669663429 1.130086302757 -0.181672334671 -0.999999 0.000978 0.000978
0.657669663429 1.095966458321 -0.254127860069 -0.999999 0.000978 0.000978
0.696704626083 1.107068419456 -0.182424038649 0.001364 -0.808912 0.587928
0.699294388294 1.129190087318 -0.158470824361 0.001379 -0.668888 0.743362
0.677139401436 1.500201225281 -0.378253877163 0.001158 0.978290 -0.207235
0.667174100876 1.458531141281 -0.461466014385 0.001364 0.808912 -0.587928
0.657669663429 1.449489712715 -0.470191061497 -0.999999 0.000978 0.000978
0.833809256554 1.162346959114 -0.387104004622 -0.999999 0.000978 0.000978
0.753257036209 1.130053043365 -0.412425547838 0.001334 0.865851 0.500299
0.834139943123 1.217114448547 -0.380091875792 0.001379 -0.743362 -0.668888
0.883383393288 1.218028783798 -0.395406424999 0.001364 -0.808912 0.587928
0.890320360661 1.203336715698 -0.510526895523 0.001289 0.406019 0.913864
0.838365197182 1.350127458572 -0.310038179159 -0.706618 -0.703716 -0.073999
0.772305548191 1.450287103653 -0.382685095072 0.001230 -0.951115 0.308835
0.879962265491 1.429006934166 -0.283971101046 0.001230 0.308835 -0.951115
0.798347890377 1.456074833870 -0.279833287001 0.001158 -0.978290 -0.207235
0.833809256554 1.416160225868 -0.270055830479 -0.999999 0.000978 0.000978
0.713847100735 1.436674356461 -0.231832832098 0.001334 -0.865851 -0.500299
0.796500384808 1.431039214134 -0.222584575415 0.001364 -0.808912 -0.587928
0.664186239243 1.426225066185 -0.215958729386 0.001364 -0.808912 -0.587928
0.657669663429 1.414507627487 -0.195654556155 -0.999999 0.000978 0.000978
0.667163848877 1.407404661179 -0.194149091840 0.001379 -0.668888 -0.743362
0.891132831573 1.419534921646 -0.490679413080 0.999999 0.000978 0.000978
0.891132831573 1.235854148865 -0.258515149355 0.999999 0.000978 0.000978
0.865938007832 1.078106522560 -0.315381258726 0.000991 0.999889 0.014865
0.892860293388 1.315680265427 -0.027711793780 0.869694 0.103908 0.482531
0.897072970867 1.334488511086 -0.093809835613 0.887691 -0.096763 -0.450156
0.893965244293 1.183667778969 -0.113715149462 0.878490 0.259793 -0.400952
0.728994429111 1.132108569145 -0.154300451279 0.001350 0.541234 -0.840871
0.843392372131 1.122874140739 -0.161514177918 0.001359 0.822094 -0.569351
0.892923593521 1.141860127449 -0.142881438136 0.878490 0.259793 -0.400952
0.866350829601 1.190974712372 -0.116436503828 0.001350 0.541234 -0.840871
0.688846766949 1.239286780357 -0.104055665433 0.001135 0.178186 -0.983996
0.662848949432 1.536200046539 -0.357918709517 -0.999999 0.000978 0.000978
0.662848949432 1.529035329819 -0.271494626999 -0.999999 0.000978 0.000978
0.669477641582 1.384671330452 -0.041671995074 -0.888284 0.096522 0.449038
0.894626736641 1.402732610703 -0.050731197000 0.869197 0.281614 0.406437
0.899464309216 1.442484378815 -0.120508708060 0.999999 0.000978 0.000978
0.782551288605 1.400897026062 -0.134216696024 0.001359 -0.569351 -0.822094
0.694978058338 1.363535642624 -0.112486459315 0.001162 -0.212622 -0.977134
0.738433003426 1.321129560471 -0.103279195726 0.001162 -0.212622 -0.977134
0.890232443810 1.269395112991 -0.098611168563 0.001135 0.178186 -0.983996
0.671168863773 1.388373136520 -0.125528529286 0.001359 -0.569351 -0.822094
0.745906114578 1.469920277596 -0.203558996320 0.001350 -0.840871 -0.541234
0.890075743198 1.460788011551 -0.189361140132 0.001350 -0.840871 -0.541234
0.763442575932 1.495010375977 -0.251185119152 0.001135 -0.983996 -0.178186
0.812842607498 1.501745820045 -0.288432449102 0.001135 -0.983996 -0.178186
0.675425589085 1.498408675194 -0.373079419136 0.001162 -0.977134 0.212622
0.663893520832 1.404678344727 -0.578083395958 -0.959953 0.151433 -0.235709
0.670105576515 1.417141675949 -0.589184522629 -0.888595 0.248568 -0.385504
0.670589566231 1.033067822456 -0.486995786428 -0.888595 -0.385504 -0.248568
0.662848949432 1.047797679901 -0.201887145638 -0.999999 0.000978 0.000978
0.811617910862 1.090310454369 -0.208454579115 0.001359 0.822094 -0.569351
0.813793957233 1.065425038338 -0.271636247635 0.001162 0.977134 -0.212622
0.869081139565 1.068644762039 -0.392173826694 0.001135 0.983996 0.178186
0.677584707737 1.057571887970 -0.330940485001 0.001135 0.983996 0.178186
0.866245090961 1.096991777420 -0.445717811584 0.001350 0.840871 0.541234
0.899464309216 1.172102451324 -0.572525322437 0.999999 0.000978 0.000978
0.743023157120 1.123260021210 -0.482781112194 0.001359 0.569351 0.822094
0.882586658001 1.252067089081 -0.543293535709 0.001162 0.212622 0.977134
0.740313172340 1.242152333260 -0.541140794754 0.001162 0.212622 0.977134
0.778707265854 1.302717328072 -0.544446110725 0.001135 -0.178186 0.983996
0.727268636227 1.319349884987 -0.541438460350 0.001135 -0.178186 0.983996
0.874968647957 1.414493799210 -0.501354277134 0.001350 -0.541234 0.840871
0.713575363159 1.429836153984 -0.491485834122 0.001350 -0.541234 0.840871
0.829161942005 1.444371700287 -0.478167951107 0.001359 -0.822094 0.569351
0.754643678665 1.476791024208 -0.431435346603 0.001359 -0.822094 0.569351
0.662848949432 1.021215319633 -0.293065428734 -0.999999 0.000978 0.000978
0.734542965889 1.059440255165 -0.299199908972 0.001162 0.977134 -0.212622
