0.094363629818 0.600821137428 -0.466259717941 0.000979 -0.002938 -0.999995
0.264148533344 0.783419847488 -0.465263068676 -0.001038 0.065416 -0.997858
0.214116990566 0.808773338795 -0.463452011347 -0.001127 0.167869 -0.985809
0.326094180346 0.837802410126 -0.458568602800 -0.001127 0.167869 -0.985809
0.414724737406 0.843606173992 -0.457292556763 -0.001222 0.291939 -0.956436
0.467858433723 0.884976685047 -0.443045467138 -0.001263 0.359825 -0.933019
0.024924993515 0.860554277897 -0.451702117920 -0.001223 0.294859 -0.955540
0.019860476255 0.882232367992 -0.443439930677 -0.001264 0.362873 -0.931838
0.441141635180 0.921987712383 -0.426208674908 -0.001302 0.425734 -0.904847
0.232275411487 0.940137088299 -0.416902601719 -0.001322 0.466672 -0.884429
0.422761023045 1.024104237556 -0.373275846243 -0.001322 0.466672 -0.884429
0.339248478413 0.967753529549 -0.402678161860 -0.001322 0.466672 -0.884429
0.316896080971 0.930416643620 -0.421945303679 -0.001302 0.430994 -0.902354
0.203892648220 1.020550966263 -0.374196499586 -0.003980 0.470929 -0.882162
0.022911591455 0.985320091248 -0.392141789198 -0.003980 0.470929 -0.882162
0.317842721939 1.036624431610 -0.366165757179 -0.003980 0.470929 -0.882162
0.268995940685 1.098665833473 -0.342686146498 -0.003694 0.306605 -0.951830
0.173551857471 1.069800138474 -0.352282851934 -0.003817 0.367656 -0.929954
0.044083233923 1.082319855690 -0.347193628550 -0.003700 0.309558 -0.950873
0.140079379082 1.126963853836 -0.333519518375 -0.003562 0.243372 -0.969926
0.077619463205 1.237521886826 -0.312413543463 -0.001116 0.155160 -0.987889
0.009573131800 1.218459606171 -0.315272122622 -0.001116 0.155160 -0.987889
0.277586400509 1.176102399826 -0.322381198406 -0.001116 0.155160 -0.987889
0.173293933272 1.161811113358 -0.324810951948 -0.003568 0.246170 -0.969220
0.104065030813 1.301802515984 -0.302296906710 -0.001119 0.155503 -0.987835
0.285973072052 1.268576383591 -0.307887941599 -0.001119 0.155503 -0.987835
0.342651486397 1.338330149651 -0.297520309687 -0.001079 0.111142 -0.993804
0.180015549064 1.327852249146 -0.298482000828 -0.001079 0.109010 -0.994040
0.168893173337 1.388926506042 -0.292317152023 -0.001057 0.083483 -0.996509
0.167324662209 1.410068035126 -0.290527641773 -0.001057 0.083483 -0.996509
0.173627346754 1.439575552940 -0.288811385632 -0.001032 0.056785 -0.998386
0.139416456223 1.415232181549 -0.290193855762 -0.001032 0.056785 -0.998386
0.055206537247 1.480437397957 -0.287859708071 0.000985 0.008867 -0.999960
0.037528399378 1.455029606819 -0.288072824478 0.000985 0.008867 -0.999960
0.387968212366 1.530011773109 -0.287440627813 0.000985 0.008867 -0.999960
0.022477269173 1.549504280090 -0.287281215191 0.000985 0.008867 -0.999960
0.217387691140 1.570104122162 -0.287106573582 0.000985 0.008867 -0.999960
0.037521243095 1.628656864166 -0.286617964506 0.000985 0.008867 -0.999960
0.216304421425 1.634803891182 -0.286564499140 0.000985 0.008867 -0.999960
0.437726378441 1.678328394890 -0.286197364330 0.000985 0.008867 -0.999960
0.298089444637 1.644127368927 -0.286485463381 0.000985 0.008867 -0.999960
0.039807036519 1.731916666031 -0.285752445459 0.000985 0.008867 -0.999960
0.171730369329 1.860836386681 -0.284670621157 0.000985 0.008867 -0.999960
0.201237231493 1.817585825920 -0.285032778978 0.000985 0.008867 -0.999960
0.389705240726 1.764011025429 -0.285479813814 0.000985 0.008867 -0.999960
0.243341892958 1.892745375633 -0.284402430058 0.000985 0.008867 -0.999960
0.140439942479 1.896897792816 -0.284368723631 0.000985 0.008867 -0.999960
0.408530294895 1.716115117073 -0.285881012678 0.000985 0.008867 -0.999960
0.284204959869 1.773936986923 -0.285397708416 0.000985 0.008867 -0.999960
0.274935066700 1.947778940201 -0.283940911293 0.000985 0.008867 -0.999960
0.361651003361 1.885725736618 -0.284460067749 0.000985 0.008867 -0.999960
0.482865452766 1.692141771317 -0.286081165075 0.000985 0.008867 -0.999960
0.410173177719 1.931809306145 -0.284073263407 0.000985 0.008867 -0.999960
0.491128593683 1.869337797165 -0.293008148670 -0.999736 0.022971 0.000999
0.406020104885 1.976611614227 -0.326472997665 -0.232828 -0.764112 -0.601601
0.201509371400 1.982535123825 -0.283661961555 -0.113398 -0.787894 -0.605280
0.171973720193 2.006326675415 -0.441127896309 0.225095 -0.965980 -0.127340
0.072764977813 1.998137116432 -0.331708312035 -0.024472 -0.982379 -0.185289
0.125885829329 1.998850584030 -0.342799484730 -0.024472 -0.982379 -0.185289
0.076580427587 1.986423015594 -0.283619076014 0.000985 0.008867 -0.999960
0.053879149258 1.856938838959 -0.284704506397 0.000985 0.008867 -0.999960
0.541631460190 1.801434159279 -0.340691089630 0.999941 0.010858 0.000987
0.616780459881 1.696691155434 -0.286041408777 0.000985 0.008867 -0.999960
0.720290124416 1.733851552010 -0.454065263271 -0.928428 -0.168932 -0.330883
0.671324610710 1.691470742226 -0.295645743608 -0.943177 -0.099491 -0.317046
0.535901904106 1.615564227104 -0.286722153425 0.000985 0.008867 -0.999960
0.563666164875 1.605836033821 -0.449764430523 -0.066569 0.996348 0.053473
0.574536740780 1.606052875519 -0.440304934978 -0.066569 0.996348 0.053473
0.551720917225 1.597894072533 -0.431102186441 -0.178118 -0.973967 -0.140221
0.521510720253 1.407589793205 -0.146726638079 -0.163731 -0.342855 -0.925009
0.551992714405 1.389009118080 -0.145452141762 -0.172262 -0.267209 -0.948117
0.612112522125 0.892778694630 -0.570595324039 -0.954373 0.290796 -0.067895
0.614435493946 0.818850278854 -0.471583396196 0.999439 0.033348 0.003032
0.618697822094 0.818191409111 -0.521647334099 -0.997025 -0.022441 -0.073735
0.616858720779 0.737259924412 -0.482599914074 0.998393 0.056668 0.001030
0.616817533970 0.639921486378 -0.481352508068 0.999941 -0.010858 -0.000987
0.590750813484 0.512334346771 -0.596787691116 0.000985 0.999960 0.008867
0.584170520306 0.507802903652 -0.604890882969 -0.043955 -0.193641 -0.980087
0.741359591484 0.266517907381 -0.564324200153 -0.043955 -0.193641 -0.980087
0.716646730900 0.352799236774 -0.576201140881 0.341831 0.008830 -0.939720
0.706289231777 0.477346152067 -0.578655242920 0.341831 0.008830 -0.939720
0.549464881420 0.705676138401 -0.498415023088 -0.000987 -0.010858 -0.999941
0.522407293320 0.511865258217 -0.530191600323 0.000985 0.999960 0.008867
0.490804463625 0.984253644943 -0.430584371090 -0.154797 0.390542 -0.907477
0.472634613514 1.105068206787 -0.379860728979 -0.079123 0.299629 -0.950769
0.564651846886 0.955436646938 -0.422198325396 -0.051370 0.367491 -0.928607
0.593362152576 0.915065348148 -0.402296602726 0.828631 -0.552899 0.087602
0.508201062679 1.078179121017 -0.292295038700 0.963250 0.222890 0.149897
0.488598942757 1.154403209686 -0.328833699226 0.755217 0.355683 -0.550578
0.433031797409 1.232980728149 -0.358413457870 0.076494 0.031244 -0.996580
0.411500751972 1.312786102295 -0.345566391945 -0.998136 0.061026 0.001034
0.497264474630 1.097879886627 -0.204751923680 0.990591 0.124826 0.056114
0.590158045292 0.989705085754 -0.232192963362 0.100837 0.781854 -0.615253
0.490241259336 1.148671030998 -0.160844504833 0.994521 0.098020 0.036345
0.490278929472 1.181276082993 -0.210556343198 0.999999 -0.000978 -0.000978
0.496180772781 1.131662011147 -0.146219655871 0.701577 0.351606 -0.619808
0.557128131390 1.118742227554 -0.144576743245 -0.009063 0.402635 -0.915316
0.490322858095 1.199218034744 -0.163402870297 0.999445 -0.033281 -0.001009
0.463618814945 1.298553943634 -0.304623603821 0.999445 -0.033281 -0.001009
0.581087172031 1.519100189209 -0.247565791011 -0.407805 -0.708292 -0.576210
0.578409075737 1.508640170097 -0.233698606491 -0.348529 -0.672515 -0.652879
0.557105958462 1.487575173378 -0.207908362150 -0.224192 -0.570530 -0.790084
0.497026175261 1.357757449150 -0.259079098701 0.992715 -0.109300 0.050706
0.494195908308 1.323689460754 -0.140747785568 0.999999 -0.000978 -0.000978
0.504886627197 1.348946928978 -0.130014970899 0.699473 -0.146542 -0.699473
0.530738472939 1.345666408539 -0.131415531039 -0.136685 -0.203111 -0.969568
0.561062395573 1.230854392052 -0.124109216034 -0.102831 0.036488 -0.994029
0.531912982464 1.510560870171 -0.281718313694 0.333522 -0.166063 -0.928001
0.525407731533 1.611127376556 -0.349486887455 0.004945 0.006924 -0.999964
0.489119738340 1.597276091576 -0.349824666977 0.006937 0.006937 -0.999952
0.488172233105 1.744747161865 -0.320208519697 -0.999736 0.022971 0.000999
0.565678477287 0.954940795898 -0.364767253399 0.887292 0.289759 0.358820
0.528296113014 1.044417977333 -0.342610716820 0.925777 0.307647 0.219748
0.735830128193 0.478963166475 -0.567940890789 0.336413 -0.003752 -0.941707
0.693852841854 0.681837916374 -0.586455166340 0.338928 -0.019041 -0.940620
0.660389661789 0.715441882610 -0.596780657768 0.294171 0.001221 -0.955752
0.737263739109 0.812488555908 -0.573096156120 0.294171 0.001221 -0.955752
0.668633997440 0.627008676529 -0.594299674034 0.294171 0.001221 -0.955752
0.622012794018 0.613681495190 -0.543179571629 -0.998919 -0.005133 -0.046199
0.622714042664 0.680213987827 -0.565547108650 -0.998919 -0.005133 -0.046199
0.617406070232 0.626714348793 -0.474790602922 -0.997440 0.011586 -0.070569
0.514952242374 0.283190369606 -0.577982306480 0.057359 -0.102346 -0.993094
0.269477158785 0.213325977325 -0.584871411324 0.057359 -0.102346 -0.993094
0.318786591291 0.336139917374 -0.594725608826 0.057359 -0.102346 -0.993094
0.453610777855 0.289830207825 -0.582193434238 0.057359 -0.102346 -0.993094
0.600602388382 0.256977081299 -0.570352196693 0.057359 -0.102346 -0.993094
0.454801172018 0.327567040920 -0.586023628712 0.057359 -0.102346 -0.993094
0.329323589802 0.318431913853 -0.592290699482 0.057359 -0.102346 -0.993094
0.599842727184 0.357735872269 -0.580805242062 0.057359 -0.102346 -0.993094
0.396679133177 0.294255584478 -0.585922300816 0.057359 -0.102346 -0.993094
0.289745748043 0.252771854401 -0.587781786919 0.057359 -0.102346 -0.993094
0.671125590801 1.803603172302 -0.341150105000 -0.839882 -0.273774 -0.468664
0.610661685467 1.760015130043 -0.285510778427 0.000985 0.008867 -0.999960
0.629392683506 1.953432917595 -0.392022430897 -0.541018 -0.530906 -0.652256
0.664098262787 1.843338847160 -0.348628193140 -0.903324 -0.066762 -0.423731
0.585857272148 1.946918249130 -0.376166880131 0.438872 -0.747891 -0.498046
0.585147857666 2.009074687958 -0.436215847731 0.001376 -0.625868 -0.779928
0.541660130024 1.798407435417 -0.296112149954 0.999941 0.010858 0.000987
0.515607237816 -0.980571150780 -0.536908984184 -0.025311 -0.993725 -0.108947
0.718132615089 -0.922020792961 -0.568924427032 0.105696 0.041166 -0.993546
0.507471561432 -1.381381511688 -0.123511515558 -0.060069 0.020023 -0.997993
0.482580661774 -1.186756610870 -0.282630801201 0.999999 -0.000978 0.000978
0.482740074396 -1.064250230789 -0.301714658737 0.999999 -0.000978 -0.000978
0.482417851686 -1.311799764633 -0.360413700342 0.999999 -0.000978 0.000978
0.482616424561 -1.159289717674 -0.370462864637 0.999999 -0.000978 -0.000978
0.488692522049 -1.001814484596 -0.427183091640 0.705933 -0.703010 -0.086232
0.543893396854 -1.000442862511 -0.400319635868 -0.114813 -0.963651 -0.241235
0.559541523457 -1.008378267288 -0.383326202631 -0.125857 -0.937841 -0.323440
0.556676089764 -1.025407433510 -0.336741447449 -0.125456 -0.900744 -0.415837
0.549887239933 -1.054606080055 -0.275578081608 -0.129857 -0.841882 -0.523805
0.576818406582 -1.160693407059 -0.178048282862 -0.146809 -0.544233 -0.825989
0.531431555748 -1.153643846512 -0.175166845322 -0.115780 -0.473126 -0.873354
0.558673381805 -1.250856995583 -0.137615323067 -0.067067 -0.203641 -0.976746
0.485788255930 -1.142713904381 -0.191975936294 0.655359 -0.460930 -0.598371
0.492825984955 -1.015701293945 -0.358886003494 0.649240 -0.721553 -0.240518
0.184701368213 -1.013584017754 -0.548684775829 -0.517720 -0.521071 -0.678565
0.243757739663 -1.067990064621 -0.475996643305 -0.114528 -0.963835 -0.240637
0.279175758362 -1.085711121559 -0.420049786568 -0.117001 -0.979115 -0.166265
0.211436167359 -1.074530601501 -0.427799463272 -0.145234 -0.973700 -0.175544
0.559400320053 -1.694861531258 -0.489220649004 -0.171166 0.982708 -0.070621
0.648293375969 -1.508639812469 -0.167101979256 0.001287 0.402911 -0.915238
0.671842813492 -1.514420032501 -0.169917792082 0.001322 0.471891 -0.881656
0.609016895294 -1.567589521408 -0.197984918952 0.001263 0.359825 -0.933019
0.805296599865 -1.589882731438 -0.221003741026 0.001380 0.652721 -0.757597
0.689432322979 -1.606307148933 -0.238552704453 0.001380 0.732842 -0.680398
0.694650411606 -1.660533547401 -0.333078712225 0.001235 0.949911 -0.312519
0.691509544849 -1.676574945450 -0.389746218920 0.001167 0.976433 -0.215818
0.692068755627 -1.688426017761 -0.471444547176 0.001067 0.995277 -0.097074
0.705262482166 -1.690318346024 -0.494993269444 0.001071 0.994811 -0.101730
0.704209208488 -0.982715368271 -0.545320987701 -0.001118 -0.987489 -0.157685
0.683980762959 1.591432452202 -0.442485481501 -0.001075 -0.994321 -0.106419
0.729496300220 1.590823292732 -0.437320172787 -0.001075 -0.994321 -0.106419
0.766322851181 1.590409278870 -0.434228181839 -0.001108 -0.989726 -0.142973
0.752172648907 1.581862330437 -0.399803012609 -0.001218 -0.958193 -0.286119
0.616747260094 1.548764824867 -0.306059151888 -0.001310 -0.897290 -0.441440
0.743679523468 1.546687722206 -0.302230417728 -0.001310 -0.897290 -0.441440
0.757231771946 1.519742250443 -0.257413923740 -0.001376 -0.777500 -0.628881
0.809600234032 1.504131913185 -0.238209828734 -0.001376 -0.777500 -0.628881
0.665443003178 1.497280836105 -0.230137646198 -0.001384 -0.718088 -0.695951
0.641333222389 1.464956998825 -0.198706418276 -0.001378 -0.657235 -0.753685
0.747775673866 1.420040726662 -0.167204394937 -0.001346 -0.531813 -0.846861
0.697579741478 1.355858325958 -0.143755972385 -0.001201 -0.263117 -0.964763
0.808484911919 1.360184907913 -0.144979685545 -0.001201 -0.263117 -0.964763
0.812621533871 1.317573428154 -0.134871512651 -0.001133 -0.175594 -0.984462
0.794622123241 1.295050501823 -0.131476089358 -0.001089 -0.123096 -0.992394
0.648942410946 1.198928713799 -0.129439398646 0.001069 0.099398 -0.995047
0.751041948795 1.188389062881 -0.130479201674 0.001069 0.099398 -0.995047
0.679101467133 1.170558571815 -0.132908523083 0.001120 0.160219 -0.987081
0.665553569794 1.141920328140 -0.138233393431 0.001205 0.271059 -0.962562
0.614231586456 1.078956604004 -0.160825714469 0.001313 0.447738 -0.894164
0.777890622616 1.061484217644 -0.169612869620 0.001349 0.538096 -0.842882
0.797029912472 1.049891114235 -0.177006632090 0.001349 0.538096 -0.842882
0.746533334255 0.976041555405 -0.249379485846 0.001353 0.840077 -0.542465
0.800315916538 0.951421856880 -0.289001017809 0.001339 0.858436 -0.512919
0.720987141132 0.947016358376 -0.296650677919 0.001292 0.911072 -0.412244
0.683966994286 0.935105264187 -0.323140978813 0.001292 0.911072 -0.412244
0.734664916992 0.931656002998 -0.331765055656 0.001216 0.959055 -0.283219
0.718889236450 0.914101600647 -0.401175409555 0.001118 0.987489 -0.157685
0.640023946762 0.911630988121 -0.417446494102 0.001118 0.987489 -0.157685
0.643162310123 0.890407979488 -0.505239188671 0.001065 0.995500 -0.094759
0.700405716896 0.891879022121 -0.487603187561 0.001362 0.815569 -0.578659
0.628219127655 -0.990769624710 -0.492325454950 -0.001073 -0.994789 -0.101947
0.766357600689 -0.996654689312 -0.440268725157 -0.001176 -0.972780 -0.231726
0.665950417519 -1.009764194489 -0.391556262970 -0.001243 -0.945912 -0.324419
0.624939560890 -1.038363814354 -0.319711446762 -0.001316 -0.888291 -0.459279
0.693007946014 -1.052246332169 -0.293065011501 -0.001316 -0.888291 -0.459279
0.795190274715 -1.064861297607 -0.270181655884 -0.001325 -0.878249 -0.478202
0.674860000610 -1.163085699081 -0.178900748491 -0.001353 -0.550634 -0.834745
0.739069402218 -1.189092040062 -0.164423525333 -0.001311 -0.449834 -0.893111
0.728533744812 -1.234200954437 -0.146142616868 -0.001240 -0.323658 -0.946173
0.625672101974 -1.260801792145 -0.137724280357 -0.001156 -0.204554 -0.978855
0.664340496063 -1.306088566780 -0.128997087479 -0.001135 -0.178186 -0.983996
0.719323694706 -1.307740092278 -0.128823921084 -0.001007 -0.031203 -0.999513
0.780614197254 -1.328307867050 -0.128188699484 -0.001007 -0.031203 -0.999513
0.630135416985 -1.344161033630 -0.127824813128 0.000995 0.018902 -0.999821
0.775616943836 -0.138119161129 -0.558798074722 0.443546 -0.001308 -0.896251
0.781398296356 -0.788613915443 -0.518933951855 0.999134 -0.011295 0.040048
0.775699615479 -0.685602784157 -0.499210774899 0.138321 -0.003320 0.990382
0.784028530121 -0.529115438461 -0.509960293770 0.999162 -0.009204 0.039885
0.792021095753 0.649409949780 -0.540619194508 0.975811 -0.047042 -0.213496
0.788252592087 0.773947060108 -0.514181137085 0.975828 0.001169 0.218539
0.787234902382 0.579487740993 -0.511012852192 0.996860 0.003165 0.079116
0.787127733231 -0.215095907450 -0.521626472473 0.998563 -0.009313 0.052774
0.779429614544 0.390539407730 -0.491729050875 0.131794 -0.009968 0.991227
0.784309208393 0.868079721928 -0.557795464993 0.369856 -0.001271 -0.929088
0.787465691566 0.164168551564 -0.540467917919 0.997558 0.001042 -0.069839
0.773653149605 -0.622752189636 -0.498639196157 0.153318 -0.003357 0.988171
0.033797156066 0.150371626019 -0.548777461052 0.258246 -0.028150 0.965669
0.016738802195 -0.466681271791 -0.567074477673 -0.258246 -0.028150 0.965669
0.010854250751 -0.391373634338 -0.567182064056 -0.706990 -0.018200 0.706990
0.003561808728 -0.226148471236 -0.569980680943 -0.706990 -0.018200 0.706990
-0.000538043678 0.127046063542 -0.571044325829 -0.965957 -0.006015 0.258631
-0.000496111810 -0.491186380386 -0.585423469543 -0.965957 -0.006015 0.258631
-0.002535621636 -0.439495563507 -0.593591213226 -0.965779 0.008440 -0.259229
0.001089778496 -0.437756419182 -0.607065260410 -0.965779 0.008440 -0.259229
0.014692123048 -0.333217829466 -0.615480303764 -0.258246 0.028150 -0.965669
0.033434256911 -0.269730776548 -0.614878535271 0.258246 0.028150 -0.965669
0.051672417670 -0.146478921175 -0.598419487476 0.965957 0.006015 -0.258631
0.045120384544 0.106783986092 -0.598354697227 0.706990 0.018200 -0.706990
0.028992716223 0.200614511967 -0.602804481983 0.258246 0.028150 -0.965669
0.051434643567 -0.438031375408 -0.579162538052 0.965779 -0.008440 0.259229
0.051463745534 0.237842828035 -0.558268785477 0.706951 -0.020999 0.706951
0.041642852128 0.135040566325 -0.551522254944 0.706951 -0.020999 0.706951
0.035269889981 -0.555025100708 -0.569577336311 0.258246 -0.028150 0.965669
0.014716312289 -0.696691274643 -0.571592509747 -0.258627 -0.008420 0.965941
0.007292923518 -0.626326739788 -0.576046228409 -0.707101 -0.004151 0.707101
0.007013428956 -0.708150148392 -0.576900601387 -0.707101 -0.004151 0.707101
-0.001076699002 -0.738074719906 -0.605722665787 -0.966129 0.003600 -0.258034
0.037800669670 -0.849913597107 -0.595547318459 0.196322 -0.484061 -0.852727
-0.000116915631 -0.792544901371 -0.582203805447 -0.954671 0.142072 0.261572
0.008263717405 -0.859628677368 -0.584687888622 -0.734451 -0.350126 -0.581372
0.006791698746 -0.882251083851 -0.522105574608 -0.663156 0.376831 0.646701
0.051666036248 -0.806336820126 -0.599212408066 0.955786 -0.119309 -0.268774
0.053274393082 -0.872145414352 -0.540043354034 0.971963 0.146112 0.184228
-0.245392799377 0.649526238441 -0.584851801395 0.000985 0.008867 -0.999960
-0.236077770591 0.690989911556 -0.584504187107 0.000985 0.008867 -0.999960
-0.257641762495 0.546516716480 -0.585715234280 0.000985 0.008867 -0.999960
-0.087842822075 0.682799100876 -0.584571123123 0.000985 0.008867 -0.999960
-0.085689485073 0.626390159130 -0.585043907166 0.000985 0.008867 -0.999960
-0.271247357130 0.536125421524 -0.582811713219 -0.096519 -0.543102 -0.834101
-0.267249792814 0.513155996799 -0.537892758846 -0.001090 -0.992658 -0.120950
-0.012281852774 0.606221914291 -0.585211992264 0.000985 0.008867 -0.999960
-0.023612413555 0.544274866581 -0.569899260998 0.474670 -0.793262 -0.381345
-0.391782641411 0.596991658211 -0.499822705984 -0.877493 -0.459639 -0.136883
-0.442681938410 0.757702291012 -0.537063419819 -0.975798 -0.022582 -0.217504
-0.367236942053 0.940209209919 -0.553515732288 0.006342 0.932343 -0.361521
0.020722016692 0.943602383137 -0.535672426224 0.005522 0.990714 -0.135850
-0.251289486885 0.947103261948 -0.521207094193 0.005356 0.995222 -0.097487
0.252857327461 0.946180701256 -0.499614000320 0.005337 0.995862 -0.090727
-0.445727586746 0.801148533821 -0.527859210968 -0.975798 -0.022582 -0.217504
-0.378016769886 0.530739307404 -0.490992456675 -0.886083 -0.463510 -0.003962
-0.376066952944 0.564933061600 -0.488614976406 -0.886083 -0.463510 -0.003962
-0.341530084610 0.540660262108 -0.469477653503 -0.000985 -0.008867 0.999960
-0.245774775743 0.608583033085 -0.468907296658 -0.000985 -0.008867 0.999960
-0.341964453459 0.640985310078 -0.468636929989 -0.000985 -0.008867 0.999960
-0.445697367191 0.888744533062 -0.466561824083 -0.000985 -0.008867 0.999960
-0.414867699146 0.798733592033 -0.467315763235 -0.000985 -0.008867 0.999960
-0.400700151920 0.760991871357 -0.467631876469 -0.000985 -0.008867 0.999960
-0.247327744961 0.776762306690 -0.467497944832 -0.000985 -0.008867 0.999960
-0.397063255310 0.872765898705 -0.466695129871 -0.000985 -0.008867 0.999960
-0.311397790909 0.856821298599 -0.466827720404 -0.000985 -0.008867 0.999960
0.124462619424 0.858369231224 -0.466809898615 -0.000985 -0.008867 0.999960
-0.274256378412 0.884104609489 -0.466598629951 -0.000985 -0.008867 0.999960
-0.134374260902 0.889650762081 -0.466550588608 -0.000985 -0.008867 0.999960
-0.028384223580 0.804209649563 -0.467265456915 -0.000985 -0.008867 0.999960
0.069156907499 0.928844392300 -0.466219902039 -0.000985 -0.008867 0.999960
-0.055131390691 0.847234189510 -0.466905176640 -0.000985 -0.008867 0.999960
0.225477904081 0.931266605854 -0.466197878122 -0.000985 -0.008867 0.999960
-0.240150824189 0.855904400349 -0.466834545135 -0.000985 -0.008867 0.999960
0.016629189253 0.763276576996 -0.467607975006 -0.000985 -0.008867 0.999960
0.256045013666 0.876558482647 -0.466655969620 -0.000985 -0.008867 0.999960
0.218904018402 0.689239740372 -0.468226104975 -0.000985 -0.008867 0.999960
0.173883363605 0.718560099602 -0.467980891466 -0.000985 -0.008867 0.999960
0.181492388248 0.814652442932 -0.467175483704 -0.000985 -0.008867 0.999960
0.101844727993 0.688325643539 -0.468235105276 -0.000985 -0.008867 0.999960
0.272279441357 0.680345416069 -0.468300074339 -0.000985 -0.008867 0.999960
0.283460557461 0.630854308605 -0.468714684248 -0.000985 -0.008867 0.999960
0.150821477175 0.640484273434 -0.468635410070 -0.000985 -0.008867 0.999960
-0.023731963709 0.683069705963 -0.468280553818 -0.000985 -0.008867 0.999960
-0.026401130483 0.668551206589 -0.468402266502 -0.000985 -0.008867 0.999960
-0.036311060190 0.532494544983 -0.469542682171 -0.000985 -0.008867 0.999960
-0.056243486702 0.579394042492 -0.469149827957 -0.000985 -0.008867 0.999960
-0.202579438686 0.538119196892 -0.469497293234 -0.000985 -0.008867 0.999960
-0.170102342963 0.562025547028 -0.469296604395 -0.000985 -0.008867 0.999960
-0.350178986788 0.515005648136 -0.493820369244 0.000985 0.008867 -0.999960
-0.077685542405 0.496244788170 -0.490799635649 -0.000985 -0.008867 0.999960
-0.043086282909 0.666792631149 -0.584704697132 0.000985 0.008867 -0.999960
0.201917186379 0.584536135197 -0.570076286793 -0.001221 -0.955752 -0.294171
0.178461343050 0.576673448086 -0.529983997345 -0.001055 -0.996523 -0.083307
0.318668246269 0.694853663445 -0.501662075520 0.987565 -0.010158 -0.156882
0.317246109247 0.900666177273 -0.501748681068 0.914230 0.367109 -0.171507
0.295729249716 0.899944603443 -0.557257533073 0.650783 0.265723 -0.711247
0.291348606348 0.622246682644 -0.563437819481 0.680626 -0.286664 -0.674220
0.145951598883 0.629395961761 -0.585016012192 0.000985 0.008867 -0.999960
0.207546785474 0.707485377789 -0.584360837936 0.000985 0.008867 -0.999960
0.162291988730 0.712679147720 -0.584317803383 0.000985 0.008867 -0.999960
0.150011092424 0.799503087997 -0.583590328693 0.000985 0.008867 -0.999960
0.061494320631 0.708567023277 -0.584353506565 0.000985 0.008867 -0.999960
0.225724056363 0.875400483608 -0.582953453064 0.000985 0.008867 -0.999960
0.094378083944 0.870519757271 -0.582995951176 0.000985 0.008867 -0.999960
-0.044386245310 0.781660258770 -0.583742141724 0.000985 0.008867 -0.999960
-0.018970655277 0.749835968018 -0.584008574486 0.000985 0.008867 -0.999960
-0.079200744629 0.803891956806 -0.583556234837 0.000985 0.008867 -0.999960
-0.081378892064 0.819398522377 -0.583426296711 0.000985 0.008867 -0.999960
-0.161869883537 0.809955418110 -0.583506345749 0.000985 0.008867 -0.999960
-0.361239552498 0.838207781315 -0.583271741867 0.000985 0.008867 -0.999960
-0.366181194782 0.717213094234 -0.584285974503 0.000985 0.008867 -0.999960
-0.288565963507 0.804586827755 -0.583552718163 0.000985 0.008867 -0.999960
-0.187227904797 0.701545655727 -0.584415197372 0.000985 0.008867 -0.999960
-0.438671797514 0.759415745735 -0.546941161156 -0.852038 -0.017666 -0.523181
-0.369832962751 0.910532116890 -0.581474184990 -0.147593 0.375307 -0.915074
0.092352271080 0.933577716351 -0.560975492001 0.004009 0.869958 -0.493110
-0.153401762247 0.963409304619 -0.490060389042 0.000985 0.008867 -0.999960
0.229022368789 0.963749110699 -0.486878097057 -0.000985 -0.008867 0.999960
-0.373562455177 0.955312311649 -0.486955791712 -0.000985 -0.008867 0.999960
-0.451573848724 0.872889816761 -0.503154039383 -0.988208 -0.023881 -0.151245
-0.450247228146 0.741912603378 -0.482854336500 -0.999686 -0.025017 -0.001001
-0.396765112877 0.604329705238 -0.473401576281 -0.886083 -0.463510 -0.003962
0.207904845476 1.629061698914 -0.466936141253 -0.001376 -0.625868 -0.779928
0.239297747612 1.630394101143 -0.454919606447 0.999999 -0.000978 0.000978
0.108681261539 1.657330155373 -0.370083242655 -0.001325 -0.478202 0.878249
-0.030887611210 1.674134612083 -0.361964464188 -0.001286 -0.399807 0.916599
-0.079538300633 1.694595813751 -0.353092640638 -0.001286 -0.399807 0.916599
0.040287122130 1.699611544609 -0.351108908653 -0.001225 -0.297786 0.954632
0.113075330853 1.724940538406 -0.343162596226 -0.001225 -0.297786 0.954632
0.031150788069 1.778398036957 -0.333610028028 -0.001055 -0.083307 0.996523
-0.162957757711 1.840836286545 -0.330853313208 -0.000993 -0.016879 0.999857
-0.178706794977 1.848972082138 -0.331094890833 0.001114 0.152643 0.988281
0.052826300263 1.862704396248 -0.334201306105 0.001287 0.402911 0.915238
0.111542120576 1.871389985085 -0.338076055050 0.001376 0.625868 0.779928
0.236991614103 1.750204801559 -0.342664062977 0.706137 -0.140023 0.694092
0.239394962788 1.702344298363 -0.428326696157 0.999999 -0.000978 -0.000978
0.239506334066 1.784527659416 -0.353490084410 0.999999 -0.000978 0.000978
-0.200272351503 1.895155787468 -0.374945729971 0.001079 0.994040 0.109010
0.055541917682 1.895375370979 -0.380118519068 0.001079 0.994040 0.109010
0.239608794451 1.860273838043 -0.375932842493 0.999999 -0.000978 -0.000978
-0.055484764278 1.891427278519 -0.400368332863 0.001287 0.915238 -0.402911
-0.055892661214 1.876879096031 -0.419812172651 0.001365 0.591008 -0.806665
-0.037412133068 1.869673848152 -0.425072103739 0.001365 0.591008 -0.806665
0.029638320208 1.864733219147 -0.427502185106 0.001310 0.446689 -0.894688
-0.192433193326 1.863796591759 -0.428118884563 0.001310 0.446689 -0.894688
0.229368731380 1.838106989861 -0.440380185843 0.001305 0.437266 -0.899331
0.181122019887 1.634324550629 -0.470440983772 -0.001287 -0.402911 -0.915238
0.017501965165 1.636545658112 -0.471321731806 -0.001287 -0.402911 -0.915238
0.091741785407 1.666134119034 -0.477054715157 -0.000995 -0.018902 -0.999821
-0.075625099242 1.646912813187 -0.475220263004 -0.001114 -0.152643 -0.988281
-0.049133643508 1.684478163719 -0.477398604155 -0.000995 -0.018902 -0.999821
-0.212965250015 1.684142708778 -0.468754619360 -0.999999 0.000978 0.000978
-0.010406911373 1.620703697205 -0.459011703730 -0.001365 -0.806665 -0.591008
0.047300472856 1.610129237175 -0.439272254705 -0.001264 -0.931838 -0.362873
0.192981317639 1.619393706322 -0.457599520683 -0.001365 -0.806665 -0.591008
0.091518133879 1.611795902252 -0.409293115139 -0.001287 -0.915238 0.402911
-0.110712341964 1.633058905602 -0.383764058352 -0.001365 -0.591008 0.806665
0.052228555083 1.637653946877 -0.380827397108 -0.001325 -0.478202 0.878249
-0.000451512635 1.730360388756 -0.474681764841 0.001133 0.175594 -0.984462
0.078215897083 1.713213205338 -0.476158380508 0.001042 0.069839 -0.997558
-0.020637527108 1.772711396217 -0.465881615877 0.001209 0.276796 -0.960928
-0.212834045291 1.781136631966 -0.449016183615 -0.999999 0.000978 0.000978
-0.009999848902 1.801695108414 -0.456543654203 0.001277 0.384343 -0.923189
0.169649630785 1.768794417381 -0.466939091682 0.001209 0.276796 -0.960928
0.202929526567 1.810206651688 -0.452870011330 0.001277 0.384343 -0.923189
0.101443260908 1.826831102371 -0.445932388306 0.001305 0.437266 -0.899331
-0.012580670416 1.895187735558 -0.385379612446 0.001114 0.988281 -0.152643
-0.196381613612 1.891682386398 -0.361809581518 0.001264 0.931838 0.362873
-0.399708688259 -1.350466609001 -0.484692901373 0.003619 0.963805 0.266584
-0.091429479420 -1.330506801605 -0.474647074938 0.789988 0.590603 0.164644
-0.121092960238 -1.341012597084 -0.450405448675 -0.930788 0.255649 0.261299
-0.233662411571 -1.360142230988 -0.473053276539 -0.030508 0.250168 0.967722
-0.163678675890 -1.355714440346 -0.485938549042 0.032508 0.713765 -0.699631
-0.092816397548 -1.388806939125 -0.499377429485 0.788052 -0.432053 -0.438526
-0.038444153965 -1.329783082008 -0.462645798922 0.001203 0.963981 0.265967
-0.043434888124 -1.334330320358 -0.456236690283 0.001384 0.701550 0.712619
-0.014027973637 -1.364094257355 -0.504145443439 -0.999999 0.000978 0.000978
-0.014454611577 -1.349228382111 -0.499268770218 0.001384 0.712619 -0.701550
-0.054518103600 -1.397789955139 -0.484118103981 -0.001203 -0.963981 -0.265967
-0.040692109615 -1.390793442726 -0.500706434250 -0.001381 -0.700167 -0.713977
-0.227366372943 -1.364359259605 -0.473503917456 -0.035862 -0.265877 0.963340
-0.245934307575 -1.367350935936 -0.488361179829 0.015339 -0.701424 -0.712579
-0.382113039494 -1.366432905197 -0.481974422932 -0.032444 -0.712354 0.701070
-0.090162530541 -1.392269372940 -0.482482850552 0.788579 -0.592565 -0.164350
-0.297747462988 -1.361569046974 -0.492940902710 0.030508 -0.250168 -0.967722
-0.043846994638 -1.062069416046 -0.410129696131 -0.204096 0.457354 0.865547
-0.080764777958 -1.128281712532 -0.393249303102 -0.407794 0.330267 0.851251
-0.071620702744 -1.069095015526 -0.415208995342 -0.430963 0.483399 0.761969
-0.042848143727 -0.929844796658 -0.490203708410 -0.635932 0.478207 0.605729
-0.004806147423 -0.864499568939 -0.534369647503 -0.349394 0.900758 0.257991
-0.103105135262 -1.069138646126 -0.449388682842 -0.791363 0.445040 0.419147
-0.016317702830 -1.120073080063 -0.487666398287 0.367235 -0.479490 -0.797012
0.023917827755 -1.089634180069 -0.472035646439 0.759949 -0.454657 -0.464505
0.047217018902 -1.092210888863 -0.467338562012 0.950636 -0.310286 -0.003709
0.045082457364 -1.055102229118 -0.480465590954 0.126169 0.372960 0.919229
0.053222265095 -0.934742391109 -0.494924724102 0.800459 0.009644 0.599311
0.017408121377 -1.151368975639 -0.438734352589 0.760636 -0.631102 0.152127
-0.074308596551 -0.915117859840 -0.521072626114 0.126169 0.372960 0.919229
-0.067435279489 -1.163079857826 -0.421148180962 0.126169 0.372960 0.919229
-0.079645395279 -0.997142553329 -0.496966838837 -0.886624 0.082121 -0.455143
-0.071441009641 -0.988106667995 -0.511303961277 -0.886624 0.082121 -0.455143
-0.073885343969 -1.002040386200 -0.508766055107 -0.762216 -0.044001 -0.645826
-0.087592609227 -1.119032621384 -0.477709263563 -0.622851 -0.307402 -0.719417
-0.210258632898 1.839839339256 -0.383978635073 0.999999 -0.000978 -0.000978
-0.334394067526 1.873288750648 -0.436080157757 -0.813669 -0.577120 -0.069824
0.017460037023 -1.513446331024 -0.413828849792 -0.000985 -0.008867 0.999960
-0.030862897635 -1.462515711784 -0.413402557373 -0.000985 -0.008867 0.999960
0.021931696683 -1.449974179268 -0.418237924576 0.000985 0.999960 0.008867
0.003219494829 -1.449610948563 -0.458634644747 0.000985 0.999960 0.008867
-0.020486617461 -1.509085774422 -0.483345240355 0.000985 0.008867 -0.999960
0.013862673193 -1.607441306114 -0.484169095755 0.000985 0.008867 -0.999960
0.047929264605 -1.527382731438 -0.441116213799 0.999999 -0.000978 -0.000978
-0.128509685397 -1.564792037010 -0.414260774851 -0.000985 -0.008867 0.999960
-0.046279542148 -1.587313890457 -0.484001100063 0.000985 0.008867 -0.999960
-0.252670526505 -1.662293076515 -0.458527952433 -0.000985 -0.999960 -0.008867
-0.198475286365 -1.633089423180 -0.515839636326 0.000985 0.008867 -0.999960
-0.215387761593 -1.640812039375 -0.514679789543 -0.001272 -0.375114 -0.926978
-0.260216593742 -1.661661148071 -0.492867410183 -0.001280 -0.920595 -0.390517
-0.229384213686 -1.494525432587 -0.514679074287 0.000985 0.008867 -0.999960
-0.292997121811 -1.596395611763 -0.465018689632 -0.999999 0.000978 0.000978
-0.257033377886 -1.501427292824 -0.413731217384 -0.000985 -0.008867 0.999960
-0.196936979890 -1.592487454414 -0.414493680000 -0.000985 -0.008867 0.999960
-0.098711907864 -1.662555932999 -0.451963722706 -0.000985 -0.999960 -0.008867
-0.133842185140 -1.548777818680 -0.489016890526 0.562521 0.006810 -0.826755
-0.133268013597 -1.655130624771 -0.473994523287 0.154514 -0.790572 -0.592554
-0.184210687876 -1.548505544662 -0.514461219311 0.097694 0.007515 -0.995188
-0.292850136757 -1.487741112709 -0.456923425198 -0.999999 0.000978 0.000978
-0.046964023262 -1.657535195351 -0.471504807472 -0.001384 -0.701550 -0.712619
0.054154843092 0.469085603952 -0.546932637691 -0.060261 0.066834 0.995943
0.020651228726 0.338919669390 -0.543497383595 -0.110818 0.043655 0.992881
0.421778023243 0.606962561607 -0.608300030231 -0.068136 -0.125878 -0.989703
0.456091344357 0.790095627308 -0.590439379215 0.924666 -0.024640 -0.379982
0.466285884380 1.133614897728 -0.437874704599 0.921040 0.038103 -0.387599
0.468473941088 1.187411546707 -0.431490540504 0.927487 -0.006379 -0.373801
0.452479928732 1.072803854942 -0.479352444410 0.582954 0.569436 -0.579575
0.454583555460 1.017705678940 -0.531200706959 0.582954 0.569436 -0.579575
0.465195804834 1.021502017975 -0.498322755098 0.993026 -0.108595 0.045901
0.432974487543 0.688285470009 -0.551627516747 0.377759 -0.024665 0.925575
0.429396003485 0.862975597382 -0.549597144127 -0.139231 -0.010025 0.990209
0.248332679272 0.530669808388 -0.550038158894 -0.056765 -0.142491 0.988167
0.054691500962 0.417717993259 -0.562075853348 0.726893 -0.403829 0.555471
0.274409532547 0.512829482555 -0.553848505020 -0.043822 -0.614915 0.787374
0.343154460192 0.509657323360 -0.559204995632 0.344653 -0.811603 0.471714
0.094450607896 0.501872539520 -0.607581913471 -0.061196 -0.253525 -0.965391
0.308693528175 0.532842874527 -0.601110219955 0.056765 0.142491 -0.988167
0.140260532498 0.541269063950 -0.609216153622 0.043822 0.614915 -0.787374
0.352270483971 0.530618011951 -0.597177088261 0.090745 -0.453725 -0.886509
0.402855068445 0.616817951202 -0.603006720543 -0.520283 0.054400 -0.852260
0.457542300224 0.741137683392 -0.578221559525 0.991020 -0.032696 0.129656
0.430194407701 0.848119556904 -0.605888724327 0.139231 0.010025 -0.990209
0.428144335747 0.901264429092 -0.604061722755 -0.377759 0.024665 -0.925575
0.435826450586 1.218455433846 -0.394721746445 -0.138543 -0.023654 0.990074
0.436028361320 1.544630289078 -0.483315467834 0.595236 0.116108 -0.795118
0.426047116518 1.499043226242 -0.486840486526 0.164129 -0.189976 -0.967973
0.422050565481 1.398655295372 -0.463132083416 -0.347945 -0.237301 -0.906986
0.409705072641 1.366894841194 -0.431970745325 -0.979587 -0.147000 -0.137117
0.384245157242 1.637550354004 -0.448792517185 -0.993452 -0.032118 -0.109645
0.394465863705 1.589800834656 -0.432831406593 -0.587752 -0.190829 0.786214
0.379902482033 1.708072781563 -0.397973120213 -0.073532 -0.292836 0.953331
0.327886909246 1.768050193787 -0.401361525059 0.136493 0.694464 0.706463
0.333289861679 1.719497323036 -0.436764597893 -0.265122 -0.649312 -0.712814
0.341377139091 1.762473702431 -0.442853242159 0.265852 0.660651 -0.702042
0.029461979866 0.471118777990 -0.558697879314 -0.771194 0.461412 0.438586
0.267905354500 -1.433349251747 -0.415867507458 0.000985 0.999960 0.008867
0.221860721707 -1.432896018028 -0.462501704693 0.000985 0.999960 0.008867
0.374169528484 -1.434802293777 -0.451374411583 0.708475 0.705702 0.006932
0.364375412464 -1.500236630440 -0.386570513248 -0.000985 -0.008867 0.999960
0.364657640457 -1.540832281113 -0.386910736561 -0.000985 -0.008867 0.999960
0.249441981316 -1.529057860374 -0.386813342571 -0.000985 -0.008867 0.999960
0.387412905693 -1.553506255150 -0.429293483496 0.999999 -0.000978 0.000978
0.387453019619 -1.523832321167 -0.401965737343 0.999999 -0.000978 0.000978
0.078777648509 -1.694007873535 -0.389197140932 -0.001384 -0.712619 0.701550
0.059859249741 -1.581009149551 -0.456977665424 -0.999999 0.000978 -0.000978
0.301502645016 -1.462977528572 -0.521324098110 0.001369 0.609379 -0.792878
0.387457549572 -1.520529985428 -0.497054070234 0.999999 -0.000978 -0.000978
0.387302935123 -1.634793996811 -0.452260881662 0.999999 -0.000978 -0.000978
0.329779505730 -1.707792878151 -0.456847429276 -0.000985 -0.999960 -0.008867
0.100830286741 -1.707538366318 -0.450218409300 -0.000985 -0.999960 -0.008867
0.188366144896 -1.707840442657 -0.428311854601 -0.000985 -0.999960 -0.008867
0.079820998013 -1.671328544617 -0.526416301727 -0.001334 -0.500299 -0.865851
0.247382804751 -1.698757290840 -0.504478573799 -0.001294 -0.909655 -0.415362
0.163592994213 -1.702249407768 -0.496565937996 -0.001294 -0.909655 -0.415362
0.149150863290 -1.694614171982 -0.509729921818 -0.001366 -0.594083 -0.804402
0.370533317327 -1.656024098396 -0.535476565361 -0.001334 -0.500299 -0.865851
0.366107016802 -1.613260149956 -0.552427232265 -0.001207 -0.273924 -0.961751
0.204260230064 -1.582159638405 -0.557632803917 -0.001089 -0.123096 -0.992394
0.194990560412 -1.561313390732 -0.557715475559 0.000985 0.008867 -0.999960
0.059860844165 -1.579848289490 -0.531409144402 -0.999999 0.000978 0.000978
0.059764850885 -1.650731086731 -0.504133641720 -0.999999 0.000978 0.000978
0.059750575572 -1.661303997040 -0.475477248430 -0.999999 0.000978 -0.000978
0.136283382773 -1.591596126556 -0.387338757515 -0.000985 -0.008867 0.999960
0.146350443363 -1.679751992226 -0.388077527285 -0.000985 -0.008867 0.999960
0.251174479723 -1.602877378464 -0.387432008982 -0.000985 -0.008867 0.999960
0.051326986402 -1.418945908546 -0.467017769814 -0.999999 0.000978 0.000978
0.170788273215 -1.417986154556 -0.530732274055 0.000985 0.008867 -0.999960
0.171388953924 -1.436505675316 -0.528569161892 -0.001384 -0.701550 -0.712619
0.144426643848 -1.449855566025 -0.445775181055 -0.000985 -0.999960 -0.008867
0.074426598847 -1.406922221184 -0.399616867304 -0.000985 -0.008867 0.999960
0.143593281507 -1.356618881226 -0.399194568396 -0.000985 -0.008867 0.999960
0.193097054958 -1.299908161163 -0.433967351913 0.000985 0.999960 0.008867
0.228768929839 -1.306294918060 -0.454360634089 0.708475 0.705702 0.006932
0.237130686641 -1.409452199936 -0.454657614231 0.999999 -0.000978 -0.000978
0.237248733640 -1.322323560715 -0.503601968288 0.999999 -0.000978 -0.000978
0.207667693496 -1.379307150841 -0.530407667160 0.000985 0.008867 -0.999960
0.579149365425 -1.385584354401 -0.588077604771 -0.000985 -0.008867 0.999960
0.451270878315 -1.332049846649 -0.598655700684 0.000985 0.008867 -0.999960
0.476810574532 -1.344543457031 -0.599016070366 -0.656364 -0.420406 0.626454
0.455605298281 -1.247902393341 -0.600313127041 0.820884 0.442992 0.360427
0.470003843307 -1.389441251755 -0.599136471748 0.000985 0.008867 -0.999960
0.383570790291 -1.211318731308 -0.619872987270 -0.001243 -0.945912 -0.324419
0.044161472470 -1.206453561783 -0.623904705048 -0.001378 -0.657235 -0.753685
0.009283602238 -1.194269299507 -0.602258801460 0.001378 0.657235 0.753685
0.476420432329 -1.312274456024 -0.587464332581 -0.000985 -0.008867 0.999960
0.516242265701 -1.327827811241 -0.598619699478 0.000985 0.008867 -0.999960
0.586842834949 -1.408508658409 -0.595987260342 -0.000985 -0.999960 -0.008867
0.649813711643 -1.363779306412 -0.587894022465 -0.000985 -0.008867 0.999960
0.637979686260 -1.408083200455 -0.589517474174 -0.001384 -0.712619 0.701550
0.682234823704 -1.376960396767 -0.453764945269 -0.001203 -0.268202 0.963362
0.610876619816 -1.344798445702 -0.524544298649 -0.944977 0.088303 -0.314992
0.606233894825 -1.359999895096 -0.525154709816 0.930551 -0.092920 -0.354175
0.637397766113 -1.406387090683 -0.491773635149 -0.871390 -0.475173 0.122023
0.588188409805 -1.336194634438 -0.479323983192 -0.954616 0.287286 0.078585
0.580309927464 -1.335654973984 -0.505947232246 -0.958821 0.203467 -0.198148
0.690921425819 -1.331291437149 -0.524091124535 0.001384 0.712619 -0.701550
0.352222293615 -0.679841935635 -0.592902719975 -0.000993 -0.016879 0.999857
0.353786349297 -0.617360174656 -0.591839909554 -0.000993 -0.016879 0.999857
0.365640580654 -0.963671147823 -0.597730159760 -0.000993 -0.016879 0.999857
0.363209903240 -0.993774354458 -0.598242282867 -0.000993 -0.016879 0.999857
0.337603420019 0.219410091639 -0.577607274055 -0.000993 -0.016879 0.999857
0.374931484461 -0.328872054815 -0.586932420731 -0.000993 -0.016879 0.999857
0.349121212959 0.137543827295 -0.578999519348 -0.000993 -0.016879 0.999857
0.345943063498 0.125976264477 -0.579196333885 -0.000993 -0.016879 0.999857
0.373551458120 -0.400951296091 -0.588158488274 -0.000993 -0.016879 0.999857
0.379141241312 0.108117073774 -0.579499423504 -0.000993 -0.016879 0.999857
0.425490081310 0.377747178078 -0.575040519238 -0.000985 -0.999960 -0.008867
0.554109334946 0.377306669950 -0.543253004551 -0.000985 -0.999960 -0.008867
0.608100950718 0.377127587795 -0.530604362488 -0.000985 -0.999960 -0.008867
0.335358589888 0.397697091103 -0.601305544376 0.000985 0.999960 0.008867
0.375629633665 -0.367149323225 -0.625297963619 0.000993 0.016879 -0.999857
0.397104740143 -0.858878016472 -0.633661389351 0.000993 0.016879 -0.999857
0.381335735321 -0.281060606241 -0.623833537102 0.000993 0.016879 -0.999857
0.372942715883 -0.014669159427 -0.619302690029 0.000993 0.016879 -0.999857
0.398655653000 -0.296202510595 -0.606679558754 0.999999 -0.000978 -0.000978
0.397776633501 -0.945524156094 -0.616455376148 0.999999 -0.000978 -0.000978
0.398931682110 -0.092267304659 -0.596659600735 0.999999 -0.000978 0.000978
0.398113578558 -0.696615338326 -0.597728908062 0.999999 -0.000978 0.000978
0.341189891100 0.378131479025 -0.607291042805 -0.000985 -0.999960 -0.008867
0.469397395849 0.378079056740 -0.616674065590 -0.001384 -0.701550 -0.712619
0.071319103241 0.377837032080 -0.540564477444 -0.000985 -0.999960 -0.008867
0.080274507403 0.377491205931 -0.496290773153 0.002961 -0.999956 -0.008884
0.422529667616 0.377030491829 -0.489030212164 -0.000985 -0.999960 -0.008867
0.198215588927 0.377389252186 -0.495604038239 -0.000985 -0.999960 -0.008867
0.317001521587 0.377483069897 -0.525993406773 -0.000985 -0.999960 -0.008867
0.623185038567 0.397250026464 -0.471250504255 0.999999 -0.000978 -0.000978
0.443418055773 0.479806929827 -0.479576975107 0.000991 0.999889 0.014865
0.570843636990 0.480268508196 -0.552007257938 0.000985 0.999960 0.008867
0.579564332962 0.480118393898 -0.535511553288 0.000985 0.999960 0.008867
0.401847183704 0.480265527964 -0.524347305298 0.000985 0.999960 0.008867
0.623216569424 0.420603156090 -0.601216554642 0.999999 -0.000978 0.000978
0.230898559093 0.425496429205 -0.625243604183 0.000985 0.008867 -0.999960
0.201471969485 0.417369395494 -0.625312089920 0.000985 0.008867 -0.999960
0.163068011403 0.480414807796 -0.503577351570 0.000985 0.999960 0.008867
0.470943123102 0.480697005987 -0.586982607841 0.000985 0.999960 0.008867
0.298166751862 0.480853736401 -0.577772378922 0.000985 0.999960 0.008867
0.455037653446 0.478889614344 -0.617874622345 0.001384 0.712619 -0.701550
0.601336598396 0.456734418869 -0.624977648258 0.000985 0.008867 -0.999960
0.565405428410 0.460592836142 -0.624945759773 0.000985 0.008867 -0.999960
0.176698595285 0.478809058666 -0.618339776993 0.001384 0.712619 -0.701550
0.053442023695 0.383616656065 -0.467114299536 -0.000985 -0.008867 0.999960
0.421879172325 0.408382445574 -0.466902464628 -0.000985 -0.008867 0.999960
0.488532453775 0.402849107981 -0.466948091984 -0.000985 -0.008867 0.999960
0.489347666502 0.427567660809 -0.466740906239 -0.000985 -0.008867 0.999960
0.447363615036 0.417753875256 -0.466823637486 -0.000985 -0.008867 0.999960
0.619427442551 0.468197584152 -0.466398984194 0.000985 -0.008867 0.999960
0.043307945132 0.480275660753 -0.474491178989 -0.000981 0.999987 0.004907
0.373713672161 -0.803638696671 -0.632722318172 0.000993 0.016879 -0.999857
0.339499443769 -0.232248634100 -0.623004317284 0.000993 0.016879 -0.999857
0.356026202440 -0.139819487929 -0.621431767941 0.000993 0.016879 -0.999857
0.333702325821 0.175910174847 -0.616061985493 0.000993 0.016879 -0.999857
0.332215070724 -0.883420169353 -0.634080290794 0.000993 0.016879 -0.999857
0.358235657215 -1.081055045128 -0.598791599274 -0.001359 -0.569351 -0.822094
0.330239593983 -0.609075486660 -0.623350381851 -0.999999 0.000978 -0.000978
0.329828083515 -0.913071393967 -0.616695523262 -0.999999 0.000978 -0.000978
0.331511318684 0.330395847559 -0.583842992783 -0.999999 0.000978 0.000978
0.331338286400 0.202577054501 -0.581732869148 -0.999999 0.000978 0.000978
0.333779811859 -1.292084217072 -0.605155825615 0.001026 0.052343 -0.998629
0.391443848610 -1.433213949203 -0.612651765347 0.001026 0.052343 -0.998629
0.400928080082 -1.216710090637 -0.592488884926 0.999999 -0.000978 -0.000978
0.346187621355 -1.147357463837 -0.547106564045 -0.001026 -0.052343 0.998629
0.107410706580 -1.224724054337 -0.601588845253 0.001026 0.052343 -0.998629
0.028064033017 -1.168293237686 -0.585016250610 0.001028 0.998623 0.052451
0.170553490520 -1.228569388390 -0.551438570023 -0.001026 -0.052343 0.998629
0.094683960080 -1.214041352272 -0.550671279430 -0.001026 -0.052343 0.998629
0.023853033781 -1.270754456520 -0.553692877293 -0.001026 -0.052343 0.998629
0.599791944027 1.269495368004 -0.372472703457 0.707925 0.705088 0.041142
0.555263400078 1.248550653458 -0.382694303989 -0.965162 -0.257128 -0.048444
0.578747987747 1.231172442436 -0.485576510429 -0.254713 -0.964897 -0.063992
0.590218186378 1.228034377098 -0.447948098183 0.253588 -0.966109 0.048244
0.628646910191 1.247360467911 -0.537928223610 -0.999999 0.000978 0.000978
0.685093045235 1.273830890656 -0.452625036240 0.999999 -0.000978 -0.000978
0.684291183949 1.297124385834 -0.443721920252 -0.000985 -0.008867 0.999960
0.674291968346 1.300949454308 -0.464171916246 -0.999999 0.000978 0.000978
0.685006618500 1.210121512413 -0.483631908894 0.999999 -0.000978 -0.000978
0.684972763062 1.185134410858 -0.498171687126 0.999999 -0.000978 -0.000978
0.161433309317 1.329249739647 -0.509462356567 -0.061737 0.268368 -0.961336
0.212309330702 1.320362091064 -0.511057436466 -0.046993 -0.702041 -0.710585
0.376984417439 1.335964202881 -0.515111982822 -0.015675 0.968224 -0.249592
0.146379962564 1.277145743370 -0.507922649384 -0.000985 -0.999960 -0.008867
0.124557770789 1.323051571846 -0.496959775686 -0.965696 -0.001197 0.259673
0.153846859932 1.276988506317 -0.490373045206 -0.000985 -0.999960 -0.008867
0.663770139217 1.245172500610 -0.539448559284 0.707101 0.004151 -0.707101
0.664221763611 1.172421813011 -0.517808079720 0.707090 -0.006946 0.707090
0.667983829975 1.233837604523 -0.588180780411 -0.000985 -0.999960 -0.008867
0.633247494698 1.123580336571 -0.581389129162 0.694966 -0.172596 -0.698021
0.629733264446 1.255683541298 -0.583293437958 0.000985 0.999960 0.008867
0.627399623394 1.233987689018 -0.599526107311 -0.000987 -0.999960 -0.008884
0.616996407509 1.093314170837 -0.577477455139 -0.952233 0.145573 -0.268442
0.572747945786 0.796055495739 -0.559993386269 0.255931 -0.113025 -0.960065
0.561044752598 0.751915216446 -0.526894211769 -0.255931 0.113025 0.960065
0.580681800842 0.775607347488 -0.573557436466 0.696449 -0.172964 -0.696449
0.579747378826 0.695167541504 -0.550531566143 0.264732 0.963225 0.045986
