0.635059475899 -1.137914538383 -0.452557116747 0.999999 0.000978 0.000978
0.635059475899 -1.127533912659 -0.438706189394 0.999999 0.000978 0.000978
0.635059475899 -1.140227437019 -0.427611142397 0.999999 0.000978 0.000978
0.628743529320 -1.108791947365 -0.417348116636 0.001096 0.130369 0.991465
0.658811330795 -1.102494835854 -0.470360785723 0.238917 0.591827 0.769844
0.662468314171 -1.135989427567 -0.469424307346 0.239950 -0.372438 0.896501
0.644573569298 -1.135233998299 -0.464352995157 0.239950 -0.372438 0.896501
-0.472810119390 -1.146703362465 -0.468212276697 0.001369 -0.609379 0.792878
-0.300001531839 -1.149850726128 -0.470627427101 0.001369 -0.609379 0.792878
-0.289294421673 -1.101552248001 -0.464153647423 0.001275 0.381263 0.924466
-0.237722843885 -1.151900291443 -0.572214186192 -0.609379 0.001369 -0.792878
-0.464623540640 -1.158080577850 -0.519825637341 0.001275 -0.924466 -0.381263
-0.529965221882 -1.170831084251 -0.547158658504 0.130369 -0.991465 0.001096
-0.605614483356 -1.043516993523 -0.574895083904 0.999999 0.000978 0.000978
-0.605614483356 -1.159664750099 -0.597617387772 0.999999 0.000978 0.000978
-0.605614483356 -1.055920600891 -0.590167939663 0.999999 0.000978 0.000978
-0.605614483356 -1.196357727051 -0.632547557354 0.999999 0.000978 0.000978
-0.605014145374 -1.116023778915 -0.459745526314 0.001096 0.130369 0.991465
-0.605614483356 -1.004808783531 -0.506865561008 0.999999 0.000978 0.000978
-0.605614483356 -1.037830471992 -0.537493288517 0.999999 0.000978 0.000978
-0.621972799301 -0.995309710503 -0.519993126392 -0.999999 0.000978 0.000978
-0.621972799301 -1.034498095512 -0.561871528625 -0.999999 0.000978 0.000978
-0.621972799301 -1.115164637566 -0.632996857166 -0.999999 0.000978 0.000978
-0.621972799301 -1.064768671989 -0.631597518921 -0.999999 0.000978 0.000978
-0.621972799301 -1.257085919380 -0.530927836895 -0.999999 0.000978 0.000978
-0.621972799301 -1.224763631821 -0.488448500633 -0.999999 0.000978 0.000978
-0.635059475899 -1.062522888184 -0.537611007690 -0.999999 0.000978 0.000978
-0.621972799301 -1.024356842041 -0.454391121864 -0.999999 0.000978 0.000978
-0.621972799301 -1.020447492599 -0.463370144367 -0.999999 0.000978 0.000978
-0.621972799301 -1.005105733871 -0.477703839540 -0.999999 0.000978 0.000978
-0.635059475899 -1.156710505486 -0.522667229176 -0.999999 0.000978 0.000978
-0.666036605835 -1.137131333351 -0.470846205950 -0.239950 -0.372438 0.896501
-0.636697173119 -1.089603066444 -0.474688202143 -0.238917 0.769844 0.591827
-0.660035073757 -1.150419235229 -0.520562887192 -0.238917 -0.769844 -0.591827
-0.621972799301 -1.035419821739 -0.394464492798 -0.999999 0.000978 0.000978
-0.605614483356 -1.084771037102 -0.376451402903 0.999999 0.000978 0.000978
-0.613747656345 -1.013847351074 -0.393253117800 0.001369 0.609379 0.792878
-0.581894993782 -1.107108473778 -0.460047394037 -0.999999 0.000978 0.000978
-0.557493984699 -1.078416585922 -0.448854982853 -0.609379 0.792878 0.001369
-0.564165174961 -1.094851732254 -0.446398317814 -0.629596 0.481851 0.609449
-0.269053786993 -1.101001143456 -0.537171900272 0.001275 0.381263 -0.924466
-0.153568133712 -0.956957101822 -0.469439417124 0.000978 0.999999 0.000978
0.668727815151 -1.135585546494 -0.478409737349 0.999999 0.000978 0.000978
-0.648964047432 -1.057461619377 -0.483046233654 -0.999999 0.000978 0.000978
0.199607610703 -1.541952490807 -0.240391403437 0.000978 -0.999999 0.000978
0.078445166349 -1.541952490807 -0.202201977372 0.000978 -0.999999 0.000978
0.109804853797 -1.541952490807 -0.217267125845 0.000978 -0.999999 0.000978
-0.182182371616 -1.541952490807 -0.279902368784 0.000978 -0.999999 0.000978
-0.118519634008 -1.541952490807 -0.251719176769 0.000978 -0.999999 0.000978
-0.312153488398 -1.541952490807 -0.230022549629 0.000978 -0.999999 0.000978
-0.328680694103 -1.538909196854 -0.224984332919 -0.999999 0.000978 0.000978
-0.328680694103 -1.500554323196 -0.212504163384 -0.999999 0.000978 0.000978
-0.328680694103 -1.269855260849 -0.229069530964 -0.999999 0.000978 0.000978
-0.328680694103 -1.440334081650 -0.190831065178 -0.999999 0.000978 0.000978
-0.328680694103 -1.168898463249 -0.148037418723 -0.999999 0.000978 0.000978
-0.328680694103 -1.152590513229 -0.153675705194 -0.999999 0.000978 0.000978
-0.328680694103 -1.248475670815 -0.148719564080 -0.999999 0.000978 0.000978
-0.316103339195 -1.505360364914 -0.181214705110 0.001104 -0.140185 0.990125
-0.292972564697 -1.489530563354 -0.178958505392 0.001104 -0.140185 0.990125
-0.283822864294 -1.385685920715 -0.164157658815 0.001104 -0.140185 0.990125
-0.272335439920 -1.113345742226 -0.138915896416 0.999999 0.000978 0.000978
-0.272335439920 -1.117972493172 -0.188953027129 0.999999 0.000978 0.000978
-0.272335439920 -0.698873102665 -0.250852018595 0.999999 0.000978 0.000978
-0.272335439920 -0.794489204884 -0.246725380421 0.999999 0.000978 0.000978
-0.272335439920 -0.835997045040 -0.240460872650 0.999999 0.000978 0.000978
-0.272335439920 -0.947263360023 -0.189682990313 0.999999 0.000978 0.000978
-0.272335439920 -0.737382888794 -0.290560781956 0.999999 0.000978 0.000978
-0.272335439920 -1.010507345200 -0.237974464893 0.999999 0.000978 0.000978
-0.272335439920 -0.397066056728 -0.358154028654 0.999999 0.000978 0.000978
-0.272335439920 -0.472959399223 -0.405061841011 0.999999 0.000978 0.000978
-0.310929387808 -0.546166300774 -0.386297225952 0.001217 -0.288352 -0.957524
-0.391076147556 -0.651026844978 -0.423275887966 0.001213 0.959249 -0.282560
-0.399919956923 -0.646326422691 -0.398159384727 0.001154 0.979409 -0.201881
-0.272335439920 -0.661680102348 -0.410658597946 0.999999 0.000978 0.000978
-0.344725608826 -0.673280656338 -0.422137409449 0.001178 -0.972119 -0.234487
-0.394453287125 -0.669599652290 -0.384724944830 0.999999 0.000978 0.000978
-0.328680694103 -0.579454302788 -0.344750940800 -0.999999 0.000978 0.000978
-0.328680694103 -0.608184337616 -0.360561490059 -0.999999 0.000978 0.000978
-0.328680694103 -0.506245136261 -0.377563178539 -0.999999 0.000978 0.000978
-0.306560665369 -0.392478108406 -0.412296503782 0.000978 0.000978 -0.999999
-0.288239747286 -0.363600790501 -0.412296503782 0.000978 0.000978 -0.999999
-0.087723165751 -0.337818890810 -0.412296503782 0.000978 0.000978 -0.999999
-0.071946516633 -0.303037106991 -0.412296503782 0.000978 0.000978 -0.999999
-0.309101074934 -0.179160475731 -0.412296503782 0.000978 0.000978 -0.999999
-0.312613755465 -0.102718845010 -0.412296503782 0.000978 0.000978 -0.999999
-0.308964073658 0.022117242217 -0.412296503782 0.000978 0.000978 -0.999999
-0.312783867121 0.064746275544 -0.412296503782 0.000978 0.000978 -0.999999
-0.306612461805 0.206302896142 -0.401685684919 0.001246 0.332624 -0.943059
-0.352212667465 0.258506745100 -0.383317381144 0.001246 0.332624 -0.943059
-0.339684396982 -0.144605025649 -0.348947346210 -0.997858 -0.065416 0.001038
-0.331955194473 -0.262008637190 -0.374993503094 -0.997858 -0.065416 0.001038
-0.331369131804 -0.270911127329 -0.337489187717 -0.997858 -0.065416 0.001038
-0.343490272760 -0.086794704199 -0.323447346687 -0.997858 -0.065416 0.001038
-0.366673350334 0.265349805355 -0.322729170322 -0.997858 -0.065416 -0.001038
-0.379308074713 0.457267493010 -0.283270984888 -0.997858 -0.065416 -0.001038
-0.368440419436 0.466192066669 -0.310243219137 0.001246 0.332624 -0.943059
-0.351658374071 0.558796644211 -0.277660101652 0.001246 0.332624 -0.943059
-0.399701625109 0.934171855450 -0.233869820833 0.000978 0.000978 -0.999999
-0.377373307943 0.959317386150 -0.233869820833 0.000978 0.000978 -0.999999
-0.404662519693 1.192477583885 -0.233869820833 0.000978 0.000978 -0.999999
-0.446601897478 1.231222987175 -0.233869820833 0.000978 0.000978 -0.999999
-0.419302910566 1.064777016640 -0.197998955846 -0.997858 -0.065416 0.001038
-0.405367940664 0.853108882904 -0.213795199990 -0.997858 -0.065416 0.001038
-0.398394703865 0.747187733650 -0.212852165103 -0.997858 -0.065416 0.001038
-0.405758321285 0.859038770199 -0.181062176824 -0.997858 -0.065416 0.001038
-0.383798569441 0.525476634502 -0.246807709336 -0.997858 -0.065416 0.001038
-0.389189153910 0.607358157635 -0.220623284578 -0.997858 -0.065416 0.001038
-0.366350710392 0.499218165874 -0.199070811272 0.001246 -0.332624 0.943059
-0.341348201036 0.314583003521 -0.264035046101 0.001246 -0.332624 0.943059
-0.314552962780 0.257033139467 -0.284284085035 0.001246 -0.332624 0.943059
-0.325681060553 0.432793855667 -0.222442343831 0.001246 -0.332624 0.943059
-0.323540836573 0.467410176992 -0.250464051962 0.997858 0.065416 -0.001038
-0.314416348934 0.328734695911 -0.280958741903 0.997858 0.065416 -0.001038
-0.322658836842 0.454005479813 -0.287825196981 0.997858 0.065416 -0.001038
-0.331122785807 0.582642316818 -0.256005406380 0.997858 0.065416 -0.001038
-0.307744681835 0.227336734533 -0.328410834074 0.997858 0.065416 -0.001038
-0.314149856567 0.324684023857 -0.346673816442 0.997858 0.065416 0.001038
-0.297596901655 0.073107928038 -0.358087182045 0.997858 0.065416 0.001038
-0.302470624447 0.147179991007 -0.369462370872 0.997858 0.065416 0.001038
-0.298589110374 0.088188141584 -0.369607239962 0.997858 0.065416 0.001038
-0.288257688284 -0.068831503391 -0.404919505119 0.997858 0.065416 0.001038
-0.060003936291 -0.283574730158 -0.363372087479 0.000978 0.999999 0.000978
-0.103839486837 -0.283574730158 -0.346100986004 0.000978 0.999999 0.000978
0.277156174183 -0.237555354834 -0.363062947989 -0.997858 0.065416 0.001038
0.278901666403 -0.211027249694 -0.345261186361 -0.997858 0.065416 0.001038
0.308800667524 0.243385463953 -0.362852871418 -0.997858 0.065416 0.001038
0.309766441584 0.258062720299 -0.379455357790 -0.997858 0.065416 -0.001038
0.355807334185 0.192151889205 -0.406664758921 0.001246 0.332624 -0.943059
0.429221838713 0.313685029745 -0.344172179699 0.000978 -0.999999 0.000978
0.292310208082 -0.007240721956 -0.335184574127 -0.997858 0.065416 0.001038
0.312892466784 -0.081661686301 -0.318387746811 0.000978 0.000978 0.999999
0.329302847385 -0.201924368739 -0.318387746811 0.000978 0.000978 0.999999
0.105939224362 -0.298273414373 -0.318387746811 0.000978 0.000978 0.999999
0.167439222336 -0.314965128899 -0.318387746811 0.000978 0.000978 0.999999
-0.274395853281 -0.381541520357 -0.318387746811 0.000978 0.000978 0.999999
-0.318723052740 -0.513043045998 -0.298190563917 0.001217 0.288352 0.957524
-0.317674100399 -0.504031598568 -0.300893992186 0.001217 0.288352 0.957524
-0.294387072325 -1.071576595306 -0.130630567670 0.001217 0.288352 0.957524
-0.309861958027 -0.937048017979 -0.170989081264 0.001217 0.288352 0.957524
-0.369955450296 -1.086949706078 -0.193638905883 0.001160 -0.977717 0.209925
-0.328680694103 -0.897388815880 -0.187125444412 -0.999999 0.000978 0.000978
-0.328680694103 -0.551133692265 -0.299026489258 -0.999999 0.000978 0.000978
-0.328680694103 -0.902674674988 -0.249793887138 -0.999999 0.000978 0.000978
-0.328680694103 -0.738057911396 -0.313198745251 -0.999999 0.000978 0.000978
-0.298796981573 -1.076534032822 -0.227186948061 0.001217 -0.288352 -0.957524
-0.274278759956 -1.015033006668 -0.245637223125 0.001217 -0.288352 -0.957524
-0.305006176233 -1.107918858528 -0.219425708055 0.001104 0.140185 -0.990125
-0.320446491241 -1.420277237892 -0.263945758343 0.001104 0.140185 -0.990125
-0.249032542109 -1.487534880638 -0.273531883955 0.001104 0.140185 -0.990125
-0.142984345555 -1.497834920883 -0.274999946356 0.001104 0.140185 -0.990125
0.255109220743 -1.512719392776 -0.277121394873 0.001104 0.140185 -0.990125
0.038853988051 -1.533781766891 -0.280123382807 0.001104 0.140185 -0.990125
0.109650909901 -1.537861466408 -0.280704855919 0.001104 0.140185 -0.990125
0.280980110168 -1.519792914391 -0.278129577637 0.001104 -0.140185 0.990125
0.170816347003 -1.485607266426 -0.209021717310 0.000978 0.999999 0.000978
0.168980658054 -1.485607266426 -0.229358673096 0.000978 0.999999 0.000978
-0.183237433434 -1.485607266426 -0.201653420925 0.000978 0.999999 0.000978
-0.178463265300 -1.485607266426 -0.184955760837 0.000978 0.999999 0.000978
-0.272335439920 -1.334385871887 -0.235998302698 0.999999 0.000978 0.000978
-0.026689078659 -1.505663156509 -0.181257858872 0.001104 -0.140185 0.990125
0.118872597814 -1.503982424736 -0.181018307805 0.001104 -0.140185 0.990125
-0.117768853903 -1.526396989822 -0.184213027358 0.001104 -0.140185 0.990125
0.323534399271 -1.253227710724 -0.145278528333 -0.001104 -0.140185 0.990125
0.328680753708 -1.132576823235 -0.156573936343 0.999999 0.000978 0.000978
0.328680753708 -1.141093730927 -0.210247099400 0.999999 0.000978 0.000978
0.328680753708 -1.170158147812 -0.219782918692 0.999999 0.000978 0.000978
0.328680753708 -1.288989424706 -0.229623451829 0.999999 0.000978 0.000978
0.320421695709 -1.263973116875 -0.241667926311 -0.001104 0.140185 -0.990125
0.276979327202 -1.146301984787 -0.224896416068 0.001104 0.140185 -0.990125
0.272335469723 -1.320211172104 -0.236551582813 -0.999999 0.000978 0.000978
0.272335469723 -1.237143874168 -0.215916618705 -0.999999 0.000978 0.000978
0.272335469723 -1.417973995209 -0.173139736056 -0.999999 0.000978 0.000978
0.272335469723 -1.032254457474 -0.146165981889 -0.999999 0.000978 0.000978
0.272335469723 -1.026757717133 -0.199572026730 -0.999999 0.000978 0.000978
0.272335469723 -0.845786750317 -0.251690626144 -0.999999 0.000978 0.000978
0.272335469723 -0.737167477608 -0.324445784092 -0.999999 0.000978 0.000978
0.272335469723 -0.721249341965 -0.321899354458 -0.999999 0.000978 0.000978
0.272335469723 -0.432301789522 -0.388026922941 -0.999999 0.000978 0.000978
0.328680753708 -0.411439061165 -0.341597348452 0.999999 0.000978 0.000978
0.012187242508 -0.331403225660 -0.318387746811 0.000978 0.000978 0.999999
0.336300998926 -0.100130960345 -0.412296503782 0.000978 0.000978 -0.999999
0.305602282286 0.169334739447 -0.412296503782 0.000978 0.000978 -0.999999
0.345265179873 -0.059835378081 -0.397224426270 0.997858 -0.065416 0.001038
0.334650307894 -0.221071958542 -0.391908526421 0.997858 -0.065416 0.001038
0.329679876566 -0.296571314335 -0.389206647873 0.997858 -0.065416 0.001038
0.346756249666 -0.037187099457 -0.351446270943 0.997858 -0.065416 0.001038
0.367055267096 0.271150350571 -0.328067034483 0.997858 -0.065416 0.001038
0.342338621616 -0.104289330542 -0.328475713730 0.997858 -0.065416 0.001038
0.504992902279 0.318999916315 -0.364403039217 0.000978 0.000978 0.999999
0.403191924095 0.368940055370 -0.334288388491 0.291258 -0.001219 0.956644
0.370249658823 0.370030134916 -0.366345137358 0.000978 0.999999 0.000978
0.357764303684 0.363877177238 -0.373793900013 0.000978 0.000978 -0.999999
0.503143191338 0.358567416668 -0.385685682297 0.001129 0.985368 -0.170436
0.464634329081 0.336343109608 -0.373793900013 0.000978 0.000978 -0.999999
0.336131900549 0.532761812210 -0.286820530891 0.001246 0.332624 -0.943059
0.372448027134 0.622157335281 -0.255366504192 0.001246 0.332624 -0.943059
0.365194499493 0.824168801308 -0.233869820833 0.000978 0.000978 -0.999999
0.393025934696 0.887422263622 -0.233869820833 0.000978 0.000978 -0.999999
-0.273380100727 0.912201464176 -0.233869820833 0.000978 0.000978 -0.999999
0.169307202101 0.887217998505 -0.233869820833 0.000978 0.000978 -0.999999
-0.104220673442 0.874644279480 -0.233869820833 0.000978 0.000978 -0.999999
0.019251883030 0.884705543518 -0.233869820833 0.000978 0.000978 -0.999999
-0.272334665060 0.912253618240 -0.184206783772 0.000978 0.999999 0.000978
-0.026476714760 0.928687751293 -0.215069949627 0.000978 0.999999 0.000978
0.095325522125 0.928687751293 -0.214906617999 0.000978 0.999999 0.000978
-0.119703881443 0.928687751293 -0.153382807970 0.000978 0.999999 0.000978
0.124556779861 0.928687751293 -0.204665943980 0.000978 0.999999 0.000978
0.069697320461 0.928687751293 -0.153333008289 0.000978 0.999999 0.000978
0.366633296013 1.122339129448 -0.170990526676 -0.997858 0.065416 0.001038
0.354374319315 0.936024069786 -0.215991809964 -0.997858 0.065416 0.001038
0.374276757240 1.238505721092 -0.178533643484 -0.997858 0.065416 0.001038
0.363165795803 1.069638967514 -0.224533200264 -0.997858 0.065416 0.001038
0.175294667482 1.280006289482 -0.173063725233 0.000978 -0.999999 0.000978
0.019570469856 1.280006289482 -0.152387082577 0.000978 -0.999999 0.000978
0.297437757254 1.280006289482 -0.209927633405 0.000978 -0.999999 0.000978
-0.175447747111 1.280006289482 -0.214025959373 0.000978 -0.999999 0.000978
-0.293976008892 1.280006289482 -0.170174449682 0.000978 -0.999999 0.000978
0.071610748768 1.280006289482 -0.218303680420 0.000978 -0.999999 0.000978
0.042199768126 1.280006289482 -0.205313801765 0.000978 -0.999999 0.000978
-0.366532653570 1.120810031891 -0.228437930346 0.997858 0.065416 0.001038
-0.376956075430 1.279227614403 -0.204443991184 0.997858 0.065416 0.001038
-0.357967317104 0.990631997585 -0.172800332308 0.997858 0.065416 0.001038
-0.355782210827 0.957422137260 -0.217463865876 0.997858 0.065416 0.001038
-0.399102419615 1.278629064560 -0.139961048961 0.000978 0.000978 0.999999
-0.391880780458 0.922838747501 -0.139961048961 0.000978 0.000978 0.999999
-0.406878352165 0.958010792732 -0.139961048961 0.000978 0.000978 0.999999
-0.349947452545 0.868744254112 -0.188887447119 0.997858 0.065416 0.001038
-0.339109688997 0.704029560089 -0.189001053572 0.997858 0.065416 -0.001038
-0.285957157612 0.872372865677 -0.176664412022 0.000978 -0.999999 0.000978
0.259359329939 0.872372865677 -0.228788390756 0.000978 -0.999999 0.000978
-0.260198742151 0.872372865677 -0.171654194593 0.000978 -0.999999 0.000978
-0.021031955257 0.872372865677 -0.182708948851 0.000978 -0.999999 0.000978
0.348254263401 0.872372865677 -0.160351499915 0.000978 -0.999999 0.000978
0.218572229147 0.872372865677 -0.178849101067 0.000978 -0.999999 0.000978
0.166562855244 0.872372865677 -0.188323125243 0.000978 -0.999999 0.000978
0.340946614742 0.731947243214 -0.147096708417 -0.997858 0.065416 0.001038
0.339592307806 0.711364150047 -0.172965377569 -0.997858 0.065416 -0.001038
0.318864196539 0.396333307028 -0.250455319881 -0.997858 0.065416 -0.001038
0.328025370836 0.535566985607 -0.227464094758 -0.997858 0.065416 -0.001038
0.323313981295 0.463962167501 -0.280600517988 -0.997858 0.065416 -0.001038
0.326536446810 0.512937724590 -0.281320810318 -0.997858 0.065416 -0.001038
0.359314948320 0.543980956078 -0.183320969343 0.001246 -0.332624 0.943059
0.354232698679 0.660968422890 -0.142158702016 0.001246 -0.332624 0.943059
0.362763345242 0.376162588596 -0.242368161678 0.001246 -0.332624 0.943059
0.383998513222 0.528513073921 -0.204154521227 0.997858 -0.065416 -0.001038
0.390501201153 0.627286791801 -0.208885237575 0.997858 -0.065416 -0.001038
0.361002951860 0.179217606783 -0.316100031137 0.997858 -0.065416 -0.001038
0.378761857748 0.448969721794 -0.315215706825 0.997858 -0.065416 0.001038
0.441678494215 0.360639482737 -0.348309695721 0.000978 -0.999999 0.000978
0.410307407379 0.928137481213 -0.210851773620 0.997858 -0.065416 -0.001038
0.397366911173 0.731574952602 -0.213326990604 0.997858 -0.065416 -0.001038
0.402328163385 0.806935071945 -0.193438634276 0.997858 -0.065416 -0.001038
0.426957547665 1.181048035622 -0.216889888048 0.997858 -0.065416 0.001038
-0.412117213011 1.248752236366 -0.270748794079 0.001381 -0.688930 0.724826
-0.482106268406 1.247120738029 -0.273333460093 0.001343 -0.852716 0.522373
-0.394162893295 1.251346111298 -0.233869820833 0.000978 0.000978 -0.999999
-0.427279084921 1.185932874680 -0.189144313335 -0.997858 -0.065416 -0.001038
-0.429847866297 1.224951863289 -0.185499981046 -0.997858 -0.065416 -0.001038
-0.408097893000 0.894576191902 -0.150321900845 -0.997858 -0.065416 -0.001038
0.103193029761 1.293279528618 -0.233869820833 0.000978 0.000978 -0.999999
0.373369097710 1.305535316467 -0.233869820833 0.000978 0.000978 -0.999999
0.269217133522 1.308178663254 -0.185393512249 0.000978 0.999999 0.000978
0.312569499016 1.308178663254 -0.207355126739 0.000978 0.999999 0.000978
0.302002340555 1.308178663254 -0.154882445931 0.000978 0.999999 0.000978
0.046073250473 1.308178663254 -0.195032030344 0.000978 0.999999 0.000978
-0.047825217247 1.308178663254 -0.142208650708 0.000978 0.999999 0.000978
-0.380543529987 1.308178663254 -0.184617996216 0.000978 0.999999 0.000978
-0.103895902634 1.308178663254 -0.158172309399 0.000978 0.999999 0.000978
0.038571089506 1.308178663254 -0.154173240066 0.000978 0.999999 0.000978
-0.105092108250 1.303628444672 -0.139961048961 0.000978 0.000978 0.999999
0.095045328140 1.292289972305 -0.139961048961 0.000978 0.000978 0.999999
0.394005000591 1.258802056313 -0.139961048961 0.000978 0.000978 0.999999
0.395793497562 1.077869057655 -0.139961048961 0.000978 0.000978 0.999999
0.404576033354 0.952392339706 -0.139961048961 0.000978 0.000978 0.999999
0.363264590502 0.673388123512 -0.139961048961 0.000978 0.000978 0.999999
0.422798842192 1.117878913879 -0.183304801583 0.997858 -0.065416 0.001038
0.450135856867 1.285640835762 -0.227219209075 0.000978 0.999999 0.000978
-0.436392635107 1.276249885559 -0.211808606982 0.000978 -0.999999 0.000978
0.193542793393 0.910088002682 -0.139961048961 0.000978 0.000978 0.999999
-0.168521821499 0.886675596237 -0.139961048961 0.000978 0.000978 0.999999
-0.071777790785 0.911990046501 -0.139961048961 0.000978 0.000978 0.999999
-0.067590653896 0.916422009468 -0.139961048961 0.000978 0.000978 0.999999
0.489041417837 1.259936928749 -0.233869820833 0.000978 0.000978 -0.999999
-0.331966906786 0.921060621738 -0.200762122869 0.975939 0.001166 -0.218041
-0.265264809132 0.934013783932 -0.151182651520 0.924466 0.001275 -0.381263
0.300079345703 0.912253618240 -0.177336007357 0.000978 0.999999 0.000978
0.078093789518 0.927128851414 -0.233869820833 0.000978 0.000978 -0.999999
0.169606775045 -0.301990687847 -0.337169498205 0.000978 0.000978 -0.999999
-0.026642188430 -0.339920192957 -0.351660609245 0.000978 -0.999999 0.000978
-0.247968524694 -0.339920192957 -0.399781286716 0.000978 -0.999999 0.000978
-0.049936622381 -0.339920192957 -0.406023919582 0.000978 -0.999999 0.000978
-0.138740658760 -0.283574730158 -0.390140622854 0.000978 0.999999 0.000978
0.314720749855 -0.567671060562 -0.281802177429 0.001217 0.288352 0.957524
0.278897166252 -0.800452351570 -0.211967796087 -0.001217 0.288352 0.957524
0.285748004913 -0.622438073158 -0.265372067690 -0.001217 0.288352 0.957524
0.305326819420 -1.130731940269 -0.127819344401 0.001104 -0.140185 0.990125
0.331094503403 -1.040551185608 -0.132696926594 0.944239 -0.093764 -0.315627
0.328680753708 -1.064899086952 -0.188709929585 0.999999 0.000978 0.000978
0.328680753708 -1.019863843918 -0.215427890420 0.999999 0.000978 0.000978
0.328680753708 -0.509370028973 -0.315794020891 0.999999 0.000978 0.000978
0.328680753708 -0.609011471272 -0.306284725666 0.999999 0.000978 0.000978
0.309101015329 -0.710117101669 -0.337112069130 0.001217 -0.288352 -0.957524
0.282006353140 -1.058073639870 -0.232725054026 0.001217 -0.288352 -0.957524
0.314082354307 -0.690200030804 -0.351275563240 0.000978 -0.999999 0.000978
0.382445991039 -0.634920001030 -0.383184790611 0.000978 0.000978 -0.999999
0.375869899988 -0.667470216751 -0.383184790611 0.000978 0.000978 -0.999999
0.312428086996 -0.582067847252 -0.375526756048 0.001217 -0.288352 -0.957524
0.328680753708 -0.677861750126 -0.252289682627 0.999999 0.000978 0.000978
0.344423830509 -1.043836474419 -0.110882535577 0.000978 0.000978 0.999999
-0.403844147921 -1.519786357880 -0.272785425186 -0.999999 0.000978 0.000978
-0.328680694103 -1.251650333405 -0.229649767280 -0.999999 0.000978 0.000978
-0.384370297194 -1.495301723480 -0.262368768454 -0.272313 -0.136821 0.952431
-0.341566383839 -1.519877791405 -0.316990822554 0.001178 -0.972119 -0.234487
-0.368003785610 -1.014718413353 -0.176775291562 0.001160 -0.977717 -0.209925
-0.358311295509 -1.073285102844 -0.152314499021 0.001160 0.977717 -0.209925
-0.375635087490 -1.006950497627 -0.193989396095 -0.999999 0.000978 0.000978
-0.357683688402 -1.042038559914 -0.112991780043 0.130369 -0.991465 0.001096
0.192222833633 -0.284397542477 -0.318387746811 0.000978 0.000978 0.999999
-0.327295154333 -0.265756428242 -0.318387746811 0.000978 0.000978 0.999999
-0.315930843353 0.040032118559 -0.318387746811 0.000978 0.000978 0.999999
-0.396529883146 0.313683629036 -0.354434639215 0.000978 -0.999999 0.000978
-0.322673439980 0.370030134916 -0.351662278175 0.000978 0.999999 0.000978
0.072676032782 0.021037133411 -0.120496004820 0.999999 0.000978 0.000978
0.102946370840 -0.163002341986 -0.098533824086 0.746221 0.571402 -0.341546
0.104378223419 -0.038895808160 -0.062629953027 -0.328544 -0.144339 -0.933394
0.103748895228 0.239515483379 -0.149060174823 0.842645 -0.293296 0.451583
0.125853389502 0.193372771144 -0.182638436556 0.727331 -0.050013 0.684462
0.096992328763 0.184872850776 -0.159375950694 0.628687 -0.318384 0.709495
0.087957158685 0.215072914958 -0.134914591908 0.900770 -0.235811 0.364702
0.171853959560 0.193638920784 -0.207711353898 0.449318 -0.226913 0.864074
0.173785835505 0.275910317898 -0.191323608160 0.224078 -0.073042 0.971830
0.163588851690 0.312764108181 -0.175516068935 0.585165 0.055258 0.809029
0.241707175970 0.365548640490 -0.176335543394 0.271531 -0.913331 0.303476
0.257213532925 0.352541506290 -0.201210826635 0.023857 0.040454 0.998897
0.219504162669 0.205495074391 -0.218929782510 0.112818 -0.252869 0.960900
0.207428514957 0.174750596285 -0.222970515490 0.095734 -0.095734 0.990793
0.217030405998 0.056371930987 -0.235246688128 0.095734 -0.095734 0.990793
0.216213434935 0.037696808577 -0.236188158393 0.097074 0.001067 0.995277
0.242313876748 -0.121523931623 -0.238710850477 0.097074 0.001067 0.995277
0.178456693888 -0.014590329491 -0.230680897832 0.215328 0.001164 0.976541
0.147682279348 0.044608723372 -0.222189575434 0.248447 -0.010802 0.968585
0.177433192730 0.056004174054 -0.229325771332 0.222210 -0.094157 0.970442
0.205365151167 -0.249406173825 -0.157175123692 0.270597 0.935173 0.228536
0.308740288019 -0.240892320871 -0.083121873438 0.039937 0.140350 -0.989296
0.264941215515 -0.079341463745 -0.083149254322 -0.008320 -0.238890 -0.971011
0.461893588305 0.212578341365 -0.122141845524 -0.113516 0.001081 -0.993536
0.395132660866 0.226508587599 -0.115710772574 -0.008867 0.000985 -0.999960
0.204568669200 0.209838956594 -0.122066222131 0.113516 0.001081 -0.993536
0.215327322483 0.129886046052 -0.120828069746 0.113516 0.001081 -0.993536
0.178339317441 -0.060439784080 -0.077529244125 -0.205568 -0.392182 -0.896624
0.185817256570 0.071892336011 -0.117183104157 -0.113381 -0.154832 -0.981413
0.171923354268 0.090556591749 -0.116985537112 -0.257705 -0.038224 -0.965467
0.164470821619 0.150726690888 -0.109503298998 -0.430994 0.001302 -0.902354
0.163636043668 0.247955799103 -0.097873620689 -0.557700 0.140535 -0.818059
0.415010809898 0.343050837517 -0.121107652783 -0.171746 -0.518225 -0.837822
0.474566102028 0.321761667728 -0.119014203548 0.266216 -0.505966 -0.820443
0.434168726206 0.362219452858 -0.177362695336 -0.271531 -0.913331 0.303476
0.398185908794 0.372013211250 -0.152797490358 -0.080674 -0.906554 -0.414308
0.319482505322 0.371688842773 -0.189221978188 0.085403 -0.944690 0.316649
0.300627797842 0.343457520008 -0.117237478495 0.048692 -0.524484 -0.850027
0.206584319472 0.354279279709 -0.149858608842 0.260480 -0.877802 -0.402012
0.323041200638 0.297477066517 -0.201573982835 0.030562 -0.253050 0.966970
0.303398132324 0.205427855253 -0.224937334657 0.027986 -0.251877 0.967354
0.264140546322 -0.115747697651 -0.240472704172 0.029133 0.001005 0.999575
0.298242807388 -0.181588292122 -0.241465359926 0.029133 0.001005 0.999575
0.298604607582 -0.231937989593 -0.221767231822 0.109621 0.574412 0.811193
0.286798387766 -0.261336296797 -0.191530928016 0.166352 0.956859 0.238217
0.431537985802 -0.264743953943 -0.119198858738 -0.320622 0.786402 -0.527990
0.573300898075 -0.029779244214 -0.059887807816 0.328544 -0.144339 -0.933394
0.593129098415 -0.032956048846 -0.091280728579 -0.999999 0.000978 0.000978
0.593129098415 0.106360621750 -0.137412518263 -0.999999 0.000978 0.000978
0.593129098415 0.020849967375 -0.158016324043 -0.999999 0.000978 0.000978
0.579239964485 0.063804589212 -0.185770884156 -0.818396 -0.137633 0.557930
0.582056879997 0.199383601546 -0.134629413486 -0.900770 -0.235811 0.364702
0.579535126686 0.219314277172 -0.071526609361 -0.930472 -0.165510 -0.326847
0.580095112324 0.112359330058 -0.084222130477 -0.509442 0.114011 -0.852919
0.593022286892 0.068345367908 -0.096739672124 -0.575129 -0.032029 -0.817435
0.523199796677 -0.017258554697 -0.088179513812 0.205568 -0.392182 -0.896624
0.529250502586 -0.131078496575 -0.059717208147 0.005825 0.210878 -0.977495
0.456561982632 -0.141425684094 -0.069493949413 0.177368 -0.134599 -0.974897
0.506758391857 0.022282574326 -0.106294162571 0.113381 -0.154832 -0.981413
0.515874207020 0.220041066408 -0.096821069717 0.490445 0.275584 -0.826751
0.572256743908 0.213427260518 -0.064408056438 0.219642 -0.047326 -0.974432
0.567644119263 0.234661728144 -0.067770078778 -0.378466 -0.419639 -0.825025
0.547020852566 0.297543883324 -0.106843478978 -0.774951 -0.548058 -0.314774
0.538444519043 0.307185947895 -0.149278834462 -0.842645 -0.293296 0.451583
0.543596327305 0.261096537113 -0.169476196170 -0.842645 -0.293296 0.451583
0.429324865341 0.324427902699 -0.199609711766 -0.023857 0.040454 0.998897
0.378649115562 0.226995468140 -0.218861788511 -0.027986 -0.251877 0.967354
0.400997340679 0.140065222979 -0.231408953667 -0.027249 -0.094825 0.995121
0.372904300690 -0.075317546725 -0.241309866309 -0.029133 0.001005 0.999575
0.365316480398 -0.205509588122 -0.241530716419 -0.029133 0.001005 0.999575
0.358679085970 -0.278395414352 -0.136972963810 -0.171630 0.956602 0.235492
0.447647601366 -0.251727879047 -0.162753239274 -0.270597 0.935173 0.228536
0.476751863956 -0.247224271297 -0.139672785997 -0.552997 0.808930 0.199566
0.520852506161 -0.214341461658 -0.148576095700 -0.567742 0.803923 0.177136
0.555456161499 -0.170360013843 -0.094671614468 -0.746221 0.571402 -0.341546
0.582538604736 -0.115227922797 -0.122382782400 -0.966009 0.252381 0.055946
0.572338461876 0.002715218579 -0.193788364530 -0.553711 -0.012305 0.832618
0.570521712303 -0.084381781518 -0.196219295263 -0.549316 -0.009541 0.835560
0.514254093170 -0.034626334906 -0.224137753248 -0.248447 -0.010802 0.968585
0.447263151407 0.074470780790 -0.233656257391 -0.095734 -0.095734 0.990793
0.462900280952 -0.150781556964 -0.234901845455 -0.097074 0.001067 0.995277
0.413442552090 -0.026643568650 -0.239682078362 -0.097074 0.001067 0.995277
0.459102034569 -0.208176270127 -0.219939485192 -0.179536 0.544642 0.819226
0.499584197998 -0.131363585591 -0.227992117405 -0.215328 0.001164 0.976541
0.424016684294 0.292665362358 -0.198694646358 -0.112818 -0.252869 0.960900
0.496232926846 0.154401153326 -0.216280803084 -0.449398 -0.213502 0.867443
0.554315507412 0.116380259395 -0.192062601447 -0.563752 -0.197084 0.802086
0.570100665092 0.102616310120 -0.184375464916 -0.563752 -0.197084 0.802086
0.547323942184 0.231201678514 -0.171984389424 -0.727331 -0.050013 0.684462
0.589762449265 -0.061895549297 -0.073437675834 -0.895836 0.104817 -0.431846
0.414701819420 0.273812234402 -0.111389055848 -0.027415 0.099792 -0.994631
0.266675055027 -0.271165639162 -0.113924682140 0.127110 0.695364 -0.707327
0.173951700330 0.444381505251 0.412107914686 0.472424 -0.856363 -0.208467
0.165558308363 0.466274708509 0.302432030439 0.472424 -0.856363 -0.208467
0.129856452346 0.420547276735 0.344469338655 0.733556 -0.660656 -0.159469
0.125438258052 0.402699530125 0.380373150110 0.781465 -0.583391 -0.221286
0.141466304660 0.399920403957 0.448509812355 0.783605 -0.586549 -0.204753
0.143913432956 0.391427427530 0.470576971769 0.852452 -0.440818 -0.281079
0.296064138412 0.362716674805 0.652290880680 0.086246 0.496268 -0.863875
0.329540848732 0.378768414259 0.664785981178 0.100364 0.235029 -0.966793
0.279615789652 0.363187551498 0.606752157211 -0.025227 0.971848 0.234253
0.420729994774 0.356541007757 0.610224604607 0.345438 0.912014 0.221138
0.557713687420 0.361254394054 0.300772041082 0.999999 0.000978 0.000978
0.557713687420 0.302059084177 0.174687370658 0.999999 0.000978 0.000978
0.557713687420 0.266400605440 0.052800424397 0.999999 0.000978 0.000978
0.557713687420 0.354189872742 0.052411131561 0.999999 0.000978 0.000978
0.540165543556 0.266846895218 -0.074586421251 0.138799 0.114660 0.983661
0.455699086189 0.433003902435 -0.030064454302 -0.368314 -0.904043 0.216912
0.513849079609 0.398871004581 -0.043128002435 -0.515023 -0.448782 0.730306
0.348822504282 0.464373767376 0.006081700325 -0.047645 -0.971228 0.233339
0.350947588682 0.489479452372 0.334463626146 -0.037613 -0.999279 -0.005083
0.387536644936 0.488692402840 0.199421003461 -0.037613 -0.999279 -0.005083
0.413695424795 0.485261887312 0.194480270147 -0.367656 -0.929954 -0.003817
0.441669106483 0.473728299141 0.297956466675 -0.367656 -0.929954 -0.003817
0.549498736858 0.389862149954 0.028760701418 -0.712222 -0.671878 0.203270
0.561123967171 0.374375760555 0.014628362842 -0.574477 -0.783095 0.238198
0.573111653328 0.371825814247 0.079717986286 -0.999999 0.000978 0.000978
0.573111653328 0.327138483524 0.063098713756 -0.999999 0.000978 0.000978
0.533206164837 0.282641500235 0.137548312545 0.494720 0.826601 -0.268296
0.542755961418 0.347188502550 0.314811140299 0.462276 0.884772 -0.058985
0.470828801394 0.363690912724 0.400005340576 -0.320053 0.932449 -0.167647
0.497565478086 0.327949941158 0.226048022509 0.119210 0.944302 -0.306731
0.468195378780 0.284468710423 0.048260841519 0.106107 0.965190 -0.239060
0.541147232056 0.247276842594 0.031977504492 0.642757 0.744002 -0.182549
0.555226266384 0.215517789125 -0.018152486533 0.591294 0.742742 -0.314175
0.489743024111 0.256395876408 -0.045560061932 0.080865 0.981241 -0.175006
0.166700914502 0.264921516180 -0.001820836216 -0.093842 0.945024 -0.313246
0.173076793551 0.304857879877 0.141772747040 -0.106107 0.965190 -0.239060
0.140500396490 0.263621032238 0.042886503041 -0.642757 0.744002 -0.182549
0.109209239483 0.387831956148 0.046830795705 0.712222 -0.671878 0.203270
0.094302117825 0.382852107286 0.090245462954 0.856594 -0.493457 0.150819
0.278493016958 0.488363802433 0.276453703642 0.037613 -0.999279 -0.005083
0.293726682663 0.489585608244 0.128345578909 0.037613 -0.999279 -0.005083
0.175178840756 0.380341440439 -0.061461567879 0.129932 -0.518269 0.845290
0.199774354696 0.418235003948 -0.041933480650 0.114123 -0.512833 0.850869
0.285645991564 0.436501115561 -0.055452041328 0.089717 -0.514095 0.853028
0.251028776169 0.438854753971 -0.048144772649 0.314040 -0.490786 0.812716
0.173364534974 0.466926366091 0.286879837513 -0.031392 -0.999494 -0.005063
0.223023653030 0.473536401987 0.241120040417 0.367656 -0.929954 -0.003817
0.258983194828 0.487552702427 0.293168127537 0.367656 -0.929954 -0.003817
0.150411769748 0.442095488310 0.148292973638 0.792316 -0.606058 0.070205
0.125134989619 0.416536033154 0.130844295025 0.694216 -0.719460 0.021037
0.410597592592 0.470273464918 0.465983122587 -0.388550 -0.895865 -0.215535
0.466424852610 0.443404316902 0.474257439375 -0.472424 -0.856363 -0.208467
0.486509799957 0.442142575979 0.433573871851 -0.472424 -0.856363 -0.208467
0.541011393070 0.420501202345 0.321384012699 -0.733556 -0.660656 -0.159469
0.530741095543 0.426067471504 0.128651291132 -0.694216 -0.719460 0.021037
0.512902200222 0.455853611231 0.239360928535 -0.792316 -0.606058 0.070205
0.573111653328 0.363694131374 0.198357447982 -0.999999 0.000978 0.000978
0.573111653328 0.347304672003 0.084478877485 -0.999999 0.000978 0.000978
0.557713687420 0.351463019848 0.391948819160 0.999999 0.000978 0.000978
0.542640089989 0.399610340595 0.380468726158 -0.781465 -0.583391 -0.221286
0.515060067177 0.414818435907 0.441272169352 -0.783605 -0.586549 -0.204753
0.557713687420 0.340473622084 0.402602642775 0.999999 0.000978 0.000978
0.531704843044 0.362342000008 0.463320106268 -0.876155 0.112547 -0.468707
0.381955951452 0.395841836929 0.660924851894 -0.093517 -0.545277 -0.833023
0.348884284496 0.426003694534 0.626362919807 -0.050549 -0.939685 -0.338286
0.364078581333 0.383909046650 0.561564922333 0.075236 -0.081974 0.993791
0.410062193871 0.433411180973 0.520733177662 -0.873568 -0.068052 -0.481921
0.414065331221 0.453323423862 0.526730477810 -0.411042 -0.857493 -0.309436
0.425181061029 0.370861530304 0.641658008099 -0.480711 0.438054 -0.759622
0.352731257677 0.367342978716 0.386652946472 0.001106 0.989771 -0.142660
0.362969338894 0.342633217573 0.214211791754 0.001106 0.989771 -0.142660
0.416641473770 0.369151622057 0.418949604034 0.272313 0.952431 -0.136821
0.419789612293 0.298252880573 0.052891172469 0.265386 0.933765 -0.240111
0.349805533886 0.297831803560 0.036694046110 0.008742 0.945350 -0.325940
0.180501088500 0.314520239830 0.175166577101 -0.140666 0.958372 -0.248467
0.174911379814 0.342917114496 0.269466280937 -0.119210 0.944302 -0.306731
0.198072612286 0.367124915123 0.425209850073 0.320053 0.932449 -0.167647
0.131731256843 0.338409632444 0.429365843534 -0.766036 0.624567 0.152003
0.134084343910 0.352021634579 0.312324285507 -0.104825 0.946077 -0.306513
0.097873553634 0.282420843840 0.167658790946 0.194499 0.868566 -0.455811
0.092693455517 0.327122032642 0.162513911724 0.999999 0.000978 0.000978
0.092693455517 0.309247165918 0.117181226611 0.999999 0.000978 0.000978
0.092693455517 0.338484853506 0.061258874834 0.999999 0.000978 0.000978
0.092693455517 0.273790150881 -0.023965634406 0.999999 0.000978 0.000978
0.099102444947 0.333303630352 -0.038833271712 0.942195 -0.162259 0.293157
0.096336565912 0.273618698120 0.149002313614 0.231704 0.925393 -0.299935
0.094901770353 0.374705880880 0.337021589279 0.906235 -0.395680 -0.148912
0.252379029989 0.366244733334 0.392242252827 -0.272313 0.952431 -0.136821
0.301642030478 0.368507951498 0.394793927670 -0.001106 0.989771 -0.142660
0.285122483969 0.354967892170 0.300312727690 -0.001106 0.989771 -0.142660
0.291990637779 0.320952296257 0.126238361001 -0.001191 0.968509 -0.248977
0.273746937513 0.305698305368 0.067323401570 -0.001191 0.968509 -0.248977
0.334904551506 0.335866898298 0.183645725250 0.001191 0.968509 -0.248977
0.368381410837 0.300189077854 0.045762896538 0.001191 0.968509 -0.248977
0.165944576263 0.402083039284 0.514154493809 0.766453 -0.540551 -0.346921
0.472254663706 0.281010478735 -0.206342130899 0.999999 0.000978 0.000978
0.472254663706 0.022062122822 -0.253429561853 0.999999 0.000978 0.000978
0.193550482392 0.012181673199 -0.240629315376 -0.999999 0.000978 0.000978
0.193550482392 0.279866695404 -0.218197360635 -0.999999 0.000978 0.000978
0.213944554329 0.288627713919 -0.200736492872 -0.220763 0.975327 0.001168
0.415482670069 0.292752563953 -0.228016808629 0.058796 0.980333 -0.188387
0.387622058392 0.148562088609 -0.255451917648 0.000978 0.000978 -0.999999
0.226876109838 0.254144102335 -0.255451917648 0.000978 0.000978 -0.999999
0.349976539612 0.089947581291 -0.255451917648 0.000978 0.000978 -0.999999
0.335022658110 0.156494170427 -0.255451917648 0.000978 0.000978 -0.999999
0.425491154194 0.262619137764 -0.255451917648 0.000978 0.000978 -0.999999
0.464666962624 0.237814694643 -0.255451917648 0.000978 0.000978 -0.999999
0.216436594725 0.038912072778 -0.255451917648 0.000978 0.000978 -0.999999
0.198610275984 -0.013612747192 -0.255451917648 0.000978 0.000978 -0.999999
0.347447752953 -0.094829767942 -0.255451917648 0.000978 0.000978 -0.999999
0.315411925316 0.101244509220 -0.255451917648 0.000978 0.000978 -0.999999
0.371488690376 -0.028557665646 -0.255451917648 0.000978 0.000978 -0.999999
0.318822622299 -0.025473542511 -0.255451917648 0.000978 0.000978 -0.999999
-0.593129098415 0.033766396344 -0.108219206333 0.999999 0.000978 0.000978
-0.574750006199 -0.144349291921 -0.104958444834 0.864905 0.490351 0.107220
-0.584183573723 0.046107694507 -0.089601628482 0.575129 -0.032029 -0.817435
-0.581663131714 0.225612834096 -0.090188391507 0.964744 -0.228594 -0.130441
-0.563906848431 0.235817432404 -0.148005157709 0.842645 -0.293296 0.451583
-0.578066885471 0.225209847093 -0.127820760012 0.900770 -0.235811 0.364702
-0.585812032223 0.204558312893 -0.121983394027 0.900770 -0.235811 0.364702
-0.551057219505 0.167212396860 -0.181834235787 0.563752 -0.197084 0.802086
-0.520538091660 0.232186421752 -0.188025742769 0.224078 -0.073042 0.971830
-0.509300887585 0.279501974583 -0.183317199349 0.319519 -0.513455 0.796412
-0.521076619625 0.320192456245 -0.160692676902 0.576711 -0.774710 0.259284
-0.442325592041 0.312394857407 -0.198514297605 0.042209 0.068184 0.996780
-0.465326458216 0.243182525039 -0.206787377596 0.112818 -0.252869 0.960900
-0.460555970669 0.028591603041 -0.235128432512 0.097074 0.001067 0.995277
-0.419064342976 0.001537763514 -0.239138722420 0.097074 0.001067 0.995277
-0.508740186691 -0.075339712203 -0.225980088115 0.215328 0.001164 0.976541
-0.485505759716 0.050409123302 -0.230520114303 0.222210 -0.094157 0.970442
-0.470950454473 -0.235159888864 -0.199450597167 0.179536 0.544642 0.819226
-0.439694523811 -0.258309662342 -0.114593274891 0.320622 0.786402 -0.527990
-0.347797304392 -0.133470937610 -0.077574692667 0.007487 -0.090919 -0.995830
-0.371509432793 -0.001688050106 -0.102366976440 -0.003551 -0.235565 -0.971852
-0.338210850954 0.046991243958 -0.109201498330 0.005377 -0.102164 -0.994753
-0.239942044020 0.065049201250 -0.112305074930 -0.045821 -0.103935 -0.993528
-0.344688266516 0.216596439481 -0.115312725306 0.008867 0.000985 -0.999960
-0.449040263891 0.129584610462 -0.120662637055 0.113516 0.001081 -0.993536
-0.457171112299 -0.035380482674 -0.089195743203 0.029560 -0.348293 -0.936920
-0.422264248133 -0.035303644836 -0.091863490641 -0.128308 -0.237175 -0.962956
-0.417654484510 -0.165259554982 -0.073225677013 -0.168233 -0.090773 -0.981559
-0.485107988119 -0.188692122698 -0.072390921414 -0.005825 0.210878 -0.977495
-0.516585171223 0.011369702406 -0.101169377565 -0.124291 -0.345555 -0.930131
-0.524916887283 0.128765493631 -0.105338066816 -0.268094 0.128104 -0.954838
-0.504140555859 0.170107573271 -0.108168572187 -0.430994 0.001302 -0.902354
-0.368870794773 0.284578502178 -0.109812498093 0.009741 0.102820 -0.994652
-0.301259845495 0.326861768961 -0.111751221120 -0.026353 -0.161554 -0.986512
-0.147130772471 0.313225865364 -0.099447451532 0.266216 -0.505966 -0.820443
-0.233780294657 0.356263816357 -0.197130978107 -0.271531 -0.913331 0.303476
-0.243378877640 0.361814022064 -0.189022660255 -0.271531 -0.913331 0.303476
-0.272381931543 0.365946799517 -0.138563662767 -0.080674 -0.906554 -0.414308
-0.314729303122 0.376708507538 -0.173057481647 -0.085403 -0.944690 0.316649
-0.343197137117 0.374561995268 -0.147666707635 0.080782 -0.905032 -0.417602
-0.491157948971 0.331871420145 -0.121716335416 0.263601 -0.878168 -0.399167
-0.341033279896 0.307222068310 -0.200457528234 0.015434 0.040128 0.999075
-0.397978454828 0.296347290277 -0.200056031346 0.030562 -0.253050 0.966970
-0.341435402632 0.209976837039 -0.224365904927 0.027986 -0.251877 0.967354
-0.345144838095 0.127343773842 -0.234069213271 0.025016 -0.094625 0.995199
-0.405103713274 -0.003519415855 -0.240372598171 0.029133 0.001005 0.999575
-0.355417191982 -0.275369614363 -0.151585265994 0.166352 0.956859 0.238217
-0.185895726085 -0.231480062008 -0.100533202291 -0.403240 0.759136 -0.510989
-0.154213443398 -0.193180948496 -0.074006147683 -0.032675 0.233569 -0.971791
-0.076089866459 0.010824531317 -0.082484744489 -0.491638 -0.335714 -0.803485
-0.072675995529 -0.044969737530 -0.114829704165 -0.999999 0.000978 0.000978
-0.072675995529 0.072459027171 -0.137966841459 -0.999999 0.000978 0.000978
-0.152491748333 -0.111289203167 -0.064351789653 0.170934 -0.150676 -0.973693
-0.144751936197 0.008588549681 -0.099538482726 0.124291 -0.345555 -0.930131
-0.241592124104 -0.047897879034 -0.091505117714 -0.037755 -0.237488 -0.970656
-0.332731425762 -0.131767570972 -0.077611923218 -0.007487 -0.090919 -0.995830
-0.107813723385 0.244027689099 -0.153710857034 -0.842645 -0.293296 0.451583
-0.332439571619 0.222441285849 -0.221362709999 -0.027986 -0.251877 0.967354
-0.278439044952 0.077757015824 -0.237739130855 -0.025016 -0.094625 0.995199
-0.295399963856 -0.098814152181 -0.241382613778 -0.029133 0.001005 0.999575
-0.270782440901 -0.237084105611 -0.214469596744 -0.106226 0.571877 0.813433
-0.236946195364 -0.256213188171 -0.166558191180 -0.270597 0.935173 0.228536
-0.207315877080 -0.244615957141 -0.179017275572 -0.270597 0.935173 0.228536
-0.191721618176 -0.245468527079 -0.154256433249 -0.552997 0.808930 0.199566
-0.162265226245 -0.225736930966 -0.152388304472 -0.567742 0.803923 0.177136
-0.108614511788 -0.174111917615 -0.104706317186 -0.746221 0.571402 -0.341546
-0.096371836960 -0.043602745980 -0.196383729577 -0.553711 -0.012305 0.832618
-0.126774817705 -0.083537198603 -0.216885238886 -0.549316 -0.009541 0.835560
-0.167667329311 0.048718273640 -0.227291673422 -0.248447 -0.010802 0.968585
-0.198976948857 0.008230735548 -0.234522208571 -0.097074 0.001067 0.995277
-0.228493362665 -0.108383476734 -0.237375065684 -0.097074 0.001067 0.995277
-0.240222856402 -0.232597649097 -0.211246937513 -0.206730 0.561999 0.800887
-0.118534080684 -0.173039048910 -0.178541973233 -0.862003 0.295500 0.411863
-0.115289032459 -0.176481708884 -0.153004303575 -0.864905 0.490351 0.107220
-0.159938722849 -0.062976881862 -0.226611614227 -0.215328 0.001164 0.976541
-0.205330282450 0.281938672066 -0.197192072868 -0.112818 -0.252869 0.960900
-0.189057826996 0.252167016268 -0.201278597116 -0.449318 -0.226913 0.864074
-0.164229393005 0.252645492554 -0.190857246518 -0.224078 -0.073042 0.971830
-0.087248213589 -0.085112929344 -0.055689960718 -0.895836 0.104817 -0.431846
-0.169736087322 0.278268545866 -0.098671950400 0.444199 -0.145191 -0.884085
-0.204123869538 0.242935746908 -0.118145123124 -0.090773 0.168233 -0.981559
-0.258527964354 0.310908257961 -0.110258020461 -0.087815 -0.162398 -0.982810
-0.499854892492 -0.228413000703 -0.152054399252 0.567742 0.803923 0.177136
-0.498281270266 -0.229074344039 -0.153873383999 0.552997 0.808930 0.199566
-0.465243250132 0.391553610563 0.602879941463 0.881939 -0.259042 -0.393803
-0.457100749016 0.458408474922 0.431414037943 0.388550 -0.895865 -0.215535
-0.469861268997 0.441932767630 0.472487032413 0.472424 -0.856363 -0.208467
-0.521308243275 0.424701243639 0.389876306057 0.781465 -0.583391 -0.221286
-0.460680216551 0.360215991735 0.613109886646 0.480711 0.438054 -0.759622
-0.388238549232 0.392059445381 0.551428973675 -0.828022 0.006821 0.560654
-0.374754130840 0.359464943409 0.623328089714 -0.025227 0.971848 0.234253
-0.138242378831 0.345785468817 0.431919127703 0.766036 0.624567 0.152003
-0.124265179038 0.338345676661 0.391743063927 0.766036 0.624567 0.152003
-0.108091443777 0.387059748173 0.348242849112 0.999999 0.000978 0.000978
-0.108091443777 0.382999300957 0.171867653728 0.999999 0.000978 0.000978
-0.108091443777 0.367343395948 0.191302582622 0.999999 0.000978 0.000978
-0.108091443777 0.350539505482 0.107430301607 0.999999 0.000978 0.000978
-0.108091443777 0.297360092402 -0.047135971487 0.999999 0.000978 0.000978
-0.210980474949 0.339507251978 -0.078364230692 -0.159714 0.106070 0.981448
-0.220018103719 0.342178910971 -0.080131106079 -0.159714 0.106070 0.981448
-0.248964190483 0.456140816212 0.000479188282 -0.368314 -0.904043 0.216912
-0.242298364639 0.476638466120 0.097396276891 -0.368314 -0.904043 0.216912
-0.189775824547 0.425961852074 -0.030059896410 -0.298939 -0.927986 0.222433
-0.203468039632 0.280712127686 -0.068944498897 0.037271 0.340577 0.939478
-0.320762515068 0.286216944456 -0.082651138306 -0.097976 0.339560 0.935468
-0.349634796381 0.306493610144 -0.088436730206 0.099287 0.106295 0.989365
-0.261047661304 0.389132589102 -0.081455595791 -0.089717 -0.514095 0.853028
-0.321487665176 0.464340358973 0.005031399429 -0.047645 -0.971228 0.233339
-0.295114785433 0.489218920469 0.224091500044 -0.037613 -0.999279 -0.005083
-0.292462110519 0.488549441099 0.354251831770 -0.037613 -0.999279 -0.005083
-0.274175018072 0.488076478243 0.304952770472 -0.037613 -0.999279 -0.005083
-0.236652687192 0.479048341513 0.215226635337 -0.367656 -0.929954 -0.003817
-0.220301583409 0.472521662712 0.226614087820 -0.367656 -0.929954 -0.003817
-0.172779321671 0.467185139656 0.232045114040 0.031392 -0.999494 -0.005063
