0.652039885521 0.990086078644 -0.552310585976 0.063479 0.997978 -0.003122
0.895220577717 0.974655210972 -0.560953080654 0.063479 0.997978 -0.003122
0.808998346329 0.980309009552 -0.509797692299 0.063479 0.997978 -0.003122
0.532313466072 0.997459053993 -0.588635802269 0.064006 0.997856 -0.013641
0.665449202061 0.989599883556 -0.507833242416 0.066373 0.997701 -0.013696
0.647961258888 0.990911841393 -0.498982638121 0.066373 0.997701 -0.013696
0.868349373341 0.985194563866 -0.414819866419 0.065765 0.919362 -0.387877
0.758910059929 0.986996054649 -0.429140597582 0.065765 0.919362 -0.387877
0.906810641289 1.044248223305 -0.290583193302 0.046924 0.743676 -0.666891
0.868565261364 1.041583538055 -0.296289980412 0.046924 0.743676 -0.666891
0.782072067261 1.057853221893 -0.284322947264 0.046924 0.743676 -0.666891
0.772103130817 1.026039361954 -0.332890838385 0.056761 0.927978 -0.368287
0.724590420723 1.025496721268 -0.341749727726 0.056761 0.927978 -0.368287
0.631250202656 1.017595171928 -0.376415789127 0.056761 0.927978 -0.368287
0.691715240479 1.094782948494 -0.244595393538 0.015213 0.800736 -0.598824
0.612940311432 1.129239559174 -0.212494552135 0.025296 0.443339 -0.895997
0.689620971680 1.151491403580 -0.199368104339 0.025296 0.443339 -0.895997
0.758876323700 1.203877329826 -0.171956032515 0.046563 0.403104 -0.913969
0.661625385284 1.257181406021 -0.153457760811 0.046563 0.403104 -0.913969
0.582324802876 1.377044916153 -0.195344716311 0.978185 0.003481 -0.207705
0.833408594131 1.398889183998 -0.141730338335 0.040209 0.017527 -0.999038
0.710075795650 1.369526147842 -0.147134855390 0.040209 0.017527 -0.999038
0.677280008793 1.412532687187 -0.147728323936 0.040209 0.017527 -0.999038
0.772060334682 1.331341862679 -0.145060539246 0.044148 0.009240 -0.998982
0.718891322613 1.306411385536 -0.147623479366 0.044148 0.009240 -0.998982
0.594305217266 0.923417627811 -0.624218642712 -0.001026 -0.052343 -0.998629
0.787275075912 0.762004137039 -0.626069247723 0.000989 0.012857 -0.999917
0.865468025208 0.910516977310 -0.624024748802 0.000989 0.012857 -0.999917
0.857615292072 0.910167038441 -0.624030530453 0.000989 0.012857 -0.999917
0.669605612755 0.759110212326 -0.626123607159 0.000989 0.012857 -0.999917
0.702799260616 0.859120845795 -0.624739944935 0.000991 0.014865 -0.999889
0.610036432743 0.900701761246 -0.624162256718 0.000991 0.014865 -0.999889
0.565345823765 0.745601654053 -0.626317381859 0.000991 0.014865 -0.999889
0.597442448139 0.907841920853 -0.624063074589 0.000991 0.014865 -0.999889
0.552488803864 0.776370584965 -0.625889837742 0.000991 0.014865 -0.999889
0.437583237886 0.763028919697 -0.648170888424 0.271320 0.013384 -0.962396
0.418585896492 0.885188698769 -0.634319007397 -0.185106 0.760310 -0.622628
0.264887511730 0.905415594578 -0.564047157764 -0.171617 0.779111 -0.602938
0.415382683277 0.689252614975 -0.650293111801 -0.273580 0.010943 -0.961787
0.423090457916 0.863554477692 -0.650608599186 -0.273580 0.010943 -0.961787
0.407435536385 0.682308077812 -0.648113071918 -0.273580 0.010943 -0.961787
0.269152939320 0.681125283241 -0.652004420757 0.029693 0.357609 -0.933399
0.224397763610 0.711950778961 -0.641607463360 0.029693 0.357609 -0.933399
0.377710163593 -0.186402320862 -0.655039489269 0.031203 0.001007 -0.999513
0.409768581390 0.042617380619 -0.653926193714 0.031203 0.001007 -0.999513
0.362487882376 0.009191215038 -0.655443668365 0.031203 0.001007 -0.999513
0.325061231852 0.197253853083 -0.656557083130 0.031203 0.001007 -0.999513
0.412667155266 0.181193828583 -0.653777241707 0.031203 0.001007 -0.999513
0.336356520653 0.209725856781 -0.656192719936 0.031203 0.001007 -0.999513
0.408016622066 0.638182699680 -0.653738260269 0.031203 0.001007 -0.999513
0.312150597572 0.099195182323 -0.657007873058 0.031203 0.001007 -0.999513
0.395951837301 0.071938931942 -0.654353618622 0.031203 0.001007 -0.999513
0.334827780724 0.584787309170 -0.656087934971 0.031203 0.001007 -0.999513
0.417629450560 -0.607830345631 -0.653942286968 0.031203 0.001007 -0.999513
0.371814042330 -0.327685177326 -0.655284821987 0.031203 0.001007 -0.999513
0.312310665846 0.172900527716 -0.656972587109 0.031203 0.001007 -0.999513
0.428849846125 0.576800286770 -0.651230335236 0.427862 0.001300 -0.903843
0.442945927382 0.334391981363 -0.644556045532 0.427862 0.001300 -0.903843
0.452624589205 0.525386750698 -0.639954805374 0.427862 0.001300 -0.903843
0.448054879904 0.578099310398 -0.642119824886 0.427862 0.001300 -0.903843
0.474135428667 0.325798809528 -0.629906594753 0.416342 0.001297 -0.909207
0.464188396931 -0.121105507016 -0.634782671928 0.416342 0.001297 -0.909207
0.479505509138 0.265362024307 -0.627488374710 0.416342 0.001297 -0.909207
0.460664898157 -0.263229697943 -0.636498451233 0.416342 0.001297 -0.909207
0.529128909111 0.639449238777 -0.627399742603 0.000978 0.000978 -0.999999
0.574954450130 0.135644316673 -0.627431631088 0.000978 0.000978 -0.999999
0.769909679890 0.556149721146 -0.627404868603 0.000978 0.000978 -0.999999
0.504077911377 -0.058138966560 -0.627443909645 0.000978 0.000978 -0.999999
0.514954686165 -0.195421993732 -0.627452611923 0.000978 0.000978 -0.999999
0.514230966568 0.041085898876 -0.627437651157 0.000978 0.000978 -0.999999
0.631043493748 0.265002220869 -0.627423405647 0.000978 0.000978 -0.999999
0.609353482723 0.525977909565 -0.627406895161 0.000978 0.000978 -0.999999
0.521568596363 0.087864875793 -0.627434670925 0.000978 0.000978 -0.999999
0.486032426357 -0.284330010414 -0.627458274364 0.000978 0.000978 -0.999999
0.555493354797 -0.266824841499 -0.627457141876 0.000978 0.000978 -0.999999
0.738909482956 0.507194876671 -0.627407968044 0.000978 0.000978 -0.999999
0.606097519398 0.308076798916 -0.627420663834 0.000978 0.000978 -0.999999
0.535325765610 0.491535872221 -0.627409100533 0.000978 0.000978 -0.999999
0.666516184807 0.371882528067 -0.627416610718 0.000978 0.000978 -0.999999
0.519990384579 -0.514689683914 -0.627472877502 0.000978 0.000978 -0.999999
0.712655365467 0.374024659395 -0.627416431904 0.000978 0.000978 -0.999999
0.512110948563 0.377787649632 -0.627416312695 0.000978 0.000978 -0.999999
0.576487302780 0.403775930405 -0.627414643764 0.000978 0.000978 -0.999999
0.549513638020 -0.030653536320 -0.627442181110 0.000978 0.000978 -0.999999
0.609242498875 0.104005753994 -0.627433598042 0.000978 0.000978 -0.999999
0.680890917778 0.378138840199 -0.627416193485 0.000978 0.000978 -0.999999
0.768591880798 0.253431767225 -0.627581298351 -0.002938 0.000979 -0.999995
0.711620390415 0.252485603094 -0.627446591854 -0.002938 0.000979 -0.999995
0.700812399387 0.125348865986 -0.627496600151 -0.002938 0.000979 -0.999995
0.730865776539 0.259247750044 -0.627488255501 -0.002938 0.000979 -0.999995
0.609052360058 -0.289264410734 -0.627525508404 -0.002938 0.000979 -0.999995
0.781209170818 0.514282226562 -0.627456068993 -0.002938 0.000979 -0.999995
0.697750926018 0.174393981695 -0.627460181713 -0.002938 0.000979 -0.999995
0.722015321255 1.845076680183 -0.050304219127 -0.099492 0.108856 0.989066
0.686993479729 1.512105822563 0.170712321997 0.073138 0.993551 0.086640
0.228389844298 -0.940360665321 -0.542123198509 0.626232 0.058486 -0.777440
0.219436705112 -1.403840065002 -0.584623694420 0.626232 0.058486 -0.777440
0.202094256878 -1.077151417732 -0.576676249504 0.690325 0.050024 -0.721768
0.191028952599 -1.382723093033 -0.608538746834 0.690325 0.050024 -0.721768
0.192658171058 -0.800236403942 -0.595460176468 0.898131 -0.134791 -0.418560
0.233227029443 -0.718435347080 -0.586450457573 -0.113155 -0.946508 -0.302190
0.322634488344 -0.711849689484 -0.640438973904 -0.113155 -0.946508 -0.302190
0.255140990019 -0.119436480105 -0.658346056938 0.025017 -0.001001 -0.999686
0.256706953049 0.040464580059 -0.658399701118 0.025017 -0.001001 -0.999686
0.233075752854 -0.209018006921 -0.658848285675 0.025017 -0.001001 -0.999686
0.292442739010 -0.035477839410 -0.657457828522 0.025017 -0.001001 -0.999686
0.338028997183 -0.437384724617 -0.656078994274 0.025017 -0.001001 -0.999686
0.336758375168 -0.289079964161 -0.656197130680 0.025017 -0.001001 -0.999686
0.265032827854 0.107317775488 -0.658229410648 0.025017 -0.001001 -0.999686
0.285612106323 -0.056873094290 -0.657616972923 0.025017 -0.001001 -0.999686
0.336806088686 -0.326700836420 -0.656174063683 0.025017 -0.001001 -0.999686
0.283240020275 0.104430072010 -0.657770335674 0.025017 -0.001001 -0.999686
0.287040263414 -0.604393243790 -0.657262742519 0.025017 -0.001001 -0.999686
0.249964609742 0.480960816145 -0.658825218678 0.025017 -0.001001 -0.999686
0.224597439170 0.581052720547 -0.659520685673 0.025017 -0.001001 -0.999686
0.202392950654 -0.647743403912 -0.659363985062 0.025017 -0.001001 -0.999686
0.283352285624 -0.650649547577 -0.657328486443 0.025017 -0.001001 -0.999686
0.372540891171 -0.442117303610 -0.655209243298 0.025017 -0.001001 -0.999686
0.309878677130 -0.255318909883 -0.656891942024 0.025017 -0.001001 -0.999686
0.459408044815 -0.796444654465 -0.617376148701 -0.334399 -0.037155 -0.941699
0.363535791636 -0.748165428638 -0.585133612156 -0.334399 -0.037155 -0.941699
0.637508153915 -0.855077624321 -0.633459150791 -0.015312 0.031645 -0.999382
0.598650932312 -0.861074447632 -0.633073985577 -0.015312 0.031645 -0.999382
0.574557363987 -0.839105129242 -0.632048189640 -0.015312 0.031645 -0.999382
0.682768821716 -0.749933779240 -0.629344284534 -0.003189 0.090344 -0.995906
0.794072389603 -0.842876017094 -0.634816229343 -0.008990 0.012985 -0.999875
0.522214353085 -1.038359165192 -0.578095078468 0.990724 -0.003313 -0.135852
0.536440908909 -1.499329090118 -0.465986788273 0.990724 -0.003313 -0.135852
0.536546409130 -1.564936399460 -0.463930785656 0.990724 -0.003313 -0.135852
0.526448309422 -1.355009913445 -0.541197061539 0.990724 -0.003313 -0.135852
0.524925351143 -1.510111331940 -0.549172401428 0.990724 -0.003313 -0.135852
0.535786569118 -1.447088956833 -0.471753954887 0.990724 -0.003313 -0.135852
0.525915324688 -1.448483347893 -0.543216705322 0.990724 -0.003313 -0.135852
0.504109621048 -1.223327517509 -0.613694250584 -0.315874 -0.047317 -0.947621
0.493920385838 -1.334278821945 -0.604873657227 -0.315874 -0.047317 -0.947621
0.498297750950 -0.984658777714 -0.623422622681 -0.315874 -0.047317 -0.947621
0.456733226776 -1.418493747711 -0.588358104229 -0.315874 -0.047317 -0.947621
0.439179092646 -1.096083283424 -0.598264634609 -0.315874 -0.047317 -0.947621
0.383502840996 -1.209031105042 -0.574180006981 -0.315874 -0.047317 -0.947621
0.468075960875 -1.219268798828 -0.601878225803 -0.315874 -0.047317 -0.947621
0.377159059048 -1.036526441574 -0.580496907234 -0.315874 -0.047317 -0.947621
0.432629704475 -0.923354268074 -0.604523956776 -0.315874 -0.047317 -0.947621
0.483876496553 -1.237543463707 -0.606253206730 -0.315874 -0.047317 -0.947621
0.348588228226 -0.889805376530 -0.577655076981 -0.314746 -0.001234 -0.949175
0.352488815784 -0.888189136982 -0.578954100609 -0.314746 -0.001234 -0.949175
0.545429348946 -1.381020903587 -0.403219431639 0.990724 -0.003313 -0.135852
0.553132057190 -1.487346410751 -0.345340967178 0.990724 -0.003313 -0.135852
0.551954686642 -1.438144445419 -0.354836761951 0.990724 -0.003313 -0.135852
0.554188311100 -1.512865185738 -0.337189018726 0.990724 -0.003313 -0.135852
0.537186801434 -1.057803750038 -0.469278037548 0.990724 -0.003313 -0.135852
0.541068255901 -0.933172404766 -0.443621367216 0.990724 -0.003313 -0.135852
0.532884061337 -0.980244338512 -0.501966476440 0.990724 -0.003313 -0.135852
0.528169095516 -1.077453494072 -0.534199535847 0.990724 -0.003313 -0.135852
0.524556636810 -1.045040965080 -0.560999631882 0.990724 -0.003313 -0.135852
0.530121088028 -0.910915434361 -0.523341536522 0.990724 -0.003313 -0.135852
0.660492658615 -0.889225780964 -0.475295484066 0.090917 -0.995812 -0.009627
0.565309524536 -0.897903263569 -0.474998772144 0.090917 -0.995812 -0.009627
0.776703000069 -0.877999424934 -0.529703915119 0.089926 -0.995688 -0.022752
0.720926046371 -0.882148385048 -0.571658909321 0.089926 -0.995688 -0.022752
0.595614075661 -0.894239664078 -0.547488570213 0.095565 -0.995376 -0.009664
0.547222495079 -0.898470699787 -0.587851226330 0.095565 -0.995376 -0.009664
0.876064836979 -0.893063664436 -0.370619148016 0.074582 -0.943392 -0.323187
0.796359241009 -0.904044806957 -0.356930524111 0.074702 -0.942299 -0.326332
0.677775561810 -0.913890480995 -0.355446308851 0.074702 -0.942299 -0.326332
0.555415034294 -1.149287343025 -0.335462957621 0.990724 -0.003313 -0.135852
0.560063958168 -1.012456059456 -0.304488539696 0.990724 -0.003313 -0.135852
0.556551694870 -1.341779947281 -0.323441058397 0.990724 -0.003313 -0.135852
0.554704248905 -1.186141490936 -0.339884907007 0.990724 -0.003313 -0.135852
0.626538515091 -0.904464602470 -0.394515961409 0.072095 -0.942480 -0.326394
0.843885540962 -0.872712194920 -0.486666023731 0.087403 -0.995962 -0.020502
0.565412282944 -1.465308070183 -0.256838291883 0.990724 -0.003313 -0.135852
0.564473807812 -1.258141875267 -0.267714023590 0.990724 -0.003313 -0.135852
0.572404026985 -1.299721837044 -0.209462702274 0.990724 -0.003313 -0.135852
0.566858172417 -0.989806115627 -0.255729436874 0.990724 -0.003313 -0.135852
0.755726814270 -0.938751399517 -0.287656277418 0.061693 -0.747488 -0.661405
0.752259254456 -0.964788019657 -0.258615314960 0.061693 -0.747488 -0.661405
0.764073848724 -0.921657323837 -0.313058942556 0.074582 -0.943392 -0.323187
0.747620880604 -0.729870975018 -0.627142071724 0.000981 0.002944 -0.999995
0.744619488716 -0.695468604565 -0.627149045467 0.003014 -0.027126 0.999627
0.753041863441 -0.503342211246 -0.628016293049 -0.002938 0.000979 -0.999995
0.707601845264 -0.563970804214 -0.627942144871 -0.002938 0.000979 -0.999995
0.762655019760 -0.343848794699 -0.627935886383 -0.002938 0.000979 -0.999995
0.672331571579 -0.472070813179 -0.627793669701 -0.002938 0.000979 -0.999995
0.710209608078 -0.546188533306 -0.627937078476 -0.002938 0.000979 -0.999995
0.713648676872 -0.567994296551 -0.627959907055 -0.002938 0.000979 -0.999995
0.632612526417 -0.633405447006 -0.627799868584 -0.002938 0.000979 -0.999995
0.670777738094 -0.335049122572 -0.627700150013 -0.002938 0.000979 -0.999995
0.791477501392 -0.070177637041 -0.627828955650 -0.002938 0.000979 -0.999995
0.645780980587 -0.600689888000 -0.627811372280 -0.002938 0.000979 -0.999995
0.557520091534 -0.511223435402 -0.627535283566 -0.002938 0.000979 -0.999995
0.758856832981 0.069923534989 -0.627667486668 -0.002938 0.000979 -0.999995
0.731986284256 -0.119818091393 -0.627716600895 -0.002938 0.000979 -0.999995
0.661407589912 -0.211873218417 -0.627603828907 -0.002938 0.000979 -0.999995
0.879545927048 -0.958443224430 -0.253615200520 0.064673 -0.748771 -0.659666
0.877582013607 -0.953962862492 -0.258904218674 0.064673 -0.748771 -0.659666
0.620851159096 -1.097912430763 -0.164846181870 0.055643 -0.438359 -0.897076
0.895783483982 -1.015691280365 -0.188252791762 0.055643 -0.438359 -0.897076
0.640448808670 -1.101690888405 -0.161806792021 0.055643 -0.438359 -0.897076
0.894089221954 -1.074186086655 -0.160419851542 0.049981 -0.430916 -0.901007
0.785249590874 -1.087862610817 -0.159974917769 0.049981 -0.430916 -0.901007
0.634949147701 -1.313848495483 -0.134693637490 0.044059 0.005123 -0.999016
0.684307515621 -1.265598177910 -0.132261231542 0.044059 0.005123 -0.999016
0.691952943802 -1.270478129387 -0.131946101785 0.044059 0.005123 -0.999016
0.590642571449 -1.209798336029 -0.136912867427 0.048149 -0.003073 -0.998835
0.682152748108 -1.169224739075 -0.132603883743 0.048149 -0.003073 -0.998835
0.459501653910 -1.486344933510 -0.590231239796 -0.062452 0.064644 -0.995952
0.411206394434 -1.476753950119 -0.586558699608 -0.062452 0.064644 -0.995952
0.352181941271 -1.405070543289 -0.578227162361 -0.062452 0.064644 -0.995952
0.415766984224 -1.437626361847 -0.584339678288 -0.062452 0.064644 -0.995952
0.383141815662 -1.416955947876 -0.580949127674 -0.062452 0.064644 -0.995952
0.293657958508 -1.444511890411 -0.577049612999 -0.062452 0.064644 -0.995952
0.325319856405 -1.397439002991 -0.576037228107 -0.062452 0.064644 -0.995952
0.407065540552 -1.345215201378 -0.577865779400 -0.062452 0.064644 -0.995952
0.248758703470 -1.394245505333 -0.570985078812 -0.062452 0.064644 -0.995952
0.235632166266 -1.133582353592 -0.553447186947 -0.062452 0.064644 -0.995952
0.577489495277 -1.215612292290 -0.174288421869 0.990724 -0.003313 -0.135852
0.235839888453 1.652637600899 0.493810743093 0.173601 0.572127 -0.801582
0.102915212512 1.773224115372 0.183286264539 0.046462 0.958129 0.282541
0.179951995611 1.766263604164 0.192093402147 0.049949 0.949025 0.311219
0.601590096951 1.529515504837 0.303771615028 0.501081 0.840181 0.207396
0.388146340847 0.781101286411 0.591752111912 0.052076 0.037197 0.997950
0.013541581109 0.465046465397 0.619833827019 0.045148 0.030449 0.998516
0.178242683411 0.315478205681 0.612051963806 0.045883 -0.050151 0.997687
0.274322509766 -0.164881482720 0.559897959232 0.045564 -0.167069 0.984892
0.042338132858 -0.333568155766 0.534155964851 0.040275 -0.354680 0.934120
0.456643462181 -0.285393089056 0.523941218853 0.078485 -0.352517 0.932508
0.542995214462 -0.279229134321 0.496679902077 0.299093 -0.307933 0.903172
0.708368897438 -0.808792531490 0.180889964104 0.515255 -0.378721 0.768819
0.031877975911 -1.087767362595 0.149304375052 0.050590 -0.463515 0.884644
0.162871211767 -1.025867223740 0.174232512712 0.050590 -0.463515 0.884644
0.167392164469 -1.123148798943 0.124486312270 0.039198 -0.452807 0.890746
0.284540802240 -1.131079673767 0.108899526298 0.109313 -0.469904 0.875923
0.425440341234 -1.063236832619 0.127740576863 0.109313 -0.469904 0.875923
0.506474196911 -1.041492938995 0.119176238775 0.279624 -0.455740 0.845051
0.592663466930 -0.925817847252 0.152871698141 0.279624 -0.455740 0.845051
0.320347785950 -1.011778116226 0.166839867830 0.093631 -0.451387 0.887402
0.319692820311 -1.048232436180 0.148400723934 0.093631 -0.451387 0.887402
0.382734268904 1.702429771423 0.168879702687 0.389100 0.876610 0.283119
0.404125869274 0.267754435539 0.600844383240 0.028120 -0.040618 0.998779
0.217710554600 0.288932591677 0.609055399895 0.039324 -0.049952 0.997977
0.418622940779 0.804785490036 0.589338302612 0.038929 0.038929 0.998483
0.222758665681 0.483369290829 0.609866142273 0.040868 0.032484 0.998636
0.193300485611 -0.160221680999 0.564278781414 0.038170 -0.158462 0.986627
0.101488381624 -0.158953785896 0.568132519722 0.040650 -0.161437 0.986045
0.544573426247 1.572712779045 0.262783646584 0.465342 0.853380 0.234945
0.286650657654 1.638414263725 0.481851518154 0.314120 0.878626 0.359645
0.729112267494 1.078074932098 0.206580311060 -0.903824 -0.066598 -0.422691
0.703472554684 1.170765876770 0.247090250254 -0.903824 -0.066598 -0.422691
0.670591294765 1.133948683739 0.322744309902 -0.892290 -0.041847 -0.449520
0.671374678612 1.031753778458 0.330474257469 -0.892290 -0.041847 -0.449520
0.320307552814 1.218591451645 0.564564228058 -0.065975 -0.086103 -0.994099
0.211872711778 1.118565440178 0.580418467522 -0.065975 -0.086103 -0.994099
0.205637320876 1.205197930336 0.573254406452 -0.065975 -0.086103 -0.994099
0.082335323095 1.023948907852 0.594812631607 -0.045086 -0.086874 -0.995199
0.126659542322 1.103098154068 0.585891067982 -0.045086 -0.086874 -0.995199
0.062038030475 0.977374315262 0.599801063538 -0.045086 -0.086874 -0.995199
0.073588959873 1.213316917419 0.578654229641 -0.045086 -0.086874 -0.995199
0.127045407891 1.139419555664 0.582698523998 -0.045086 -0.086874 -0.995199
0.134880974889 1.177276611328 0.579035282135 -0.045086 -0.086874 -0.995199
0.050796404481 0.804187059402 0.606845676899 -0.045240 -0.032615 -0.998444
0.024490298703 0.649880707264 0.613206863403 -0.045240 -0.032615 -0.998444
0.057479776442 0.769638717175 0.607704758644 -0.045240 -0.032615 -0.998444
0.038002990186 0.961385130882 0.602144658566 -0.045240 -0.032615 -0.998444
0.080763973296 0.809273838997 0.605328023434 -0.045240 -0.032615 -0.998444
0.070934802294 0.584667921066 0.613290846348 -0.045240 -0.032615 -0.998444
0.178403407335 0.790598034859 0.601538360119 -0.045240 -0.032615 -0.998444
0.127229556441 0.786891520023 0.603989183903 -0.045240 -0.032615 -0.998444
0.179097607732 0.719215154648 0.603886485100 -0.045240 -0.032615 -0.998444
0.312641620636 0.828827738762 0.593281686306 -0.053975 -0.032808 -0.998003
0.203259319067 0.904172420502 0.596585631371 -0.053975 -0.032808 -0.998003
0.226591780782 0.796023845673 0.598950386047 -0.053975 -0.032808 -0.998003
0.342655062675 0.893581390381 0.589527249336 -0.053975 -0.032808 -0.998003
0.332521080971 1.030001759529 0.581410229206 -0.052439 -0.094837 -0.994111
0.344539552927 1.022475600243 0.581492006779 -0.052439 -0.094837 -0.994111
0.312986731529 1.001504063606 0.585162580013 -0.052439 -0.094837 -0.994111
0.369906842709 0.729493498802 0.594519674778 -0.041033 -0.036825 -0.998479
0.282688617706 0.704681098461 0.599066019058 -0.041033 -0.036825 -0.998479
0.249630406499 0.523623943329 0.607264995575 -0.041033 -0.036825 -0.998479
0.288991391659 0.568484008312 0.603943288326 -0.041033 -0.036825 -0.998479
0.013985136524 0.487294882536 0.619121968746 -0.045145 -0.032547 -0.998450
0.230266153812 0.271370708942 0.607718467712 -0.039083 0.045421 -0.998203
0.244798690081 0.247876614332 0.606151103973 -0.039004 0.043221 -0.998304
0.227891176939 0.122239470482 0.601306915283 -0.039004 0.043221 -0.998304
0.348621994257 0.095353916287 0.596121370792 -0.032419 0.038694 -0.998725
0.349077135324 0.158218935132 0.598543703556 -0.032419 0.038694 -0.998725
0.403861761093 0.021639376879 0.585876524448 -0.033715 0.170900 -0.984711
0.308755904436 -0.077015250921 0.573009371758 -0.045739 0.172399 -0.983965
0.210653260350 0.035823270679 0.595180451870 -0.033396 0.157768 -0.986911
0.234045743942 -0.037770770490 0.582567393780 -0.033396 0.157768 -0.986911
0.187903940678 -0.063865877688 0.579992234707 -0.040479 0.158447 -0.986537
0.156514853239 -0.034511342645 0.585985839367 -0.040479 0.158447 -0.986537
0.148578673601 0.011967077851 0.593780875206 -0.043067 0.161792 -0.985885
0.012145005167 -0.107439696789 0.580192208290 -0.043067 0.161792 -0.985885
0.032879516482 0.075755909085 0.607829630375 -0.045605 0.043484 -0.998013
0.194180548191 0.063463442028 0.600056290627 -0.045605 0.043484 -0.998013
0.130664587021 0.259992003441 0.611503601074 -0.045605 0.043484 -0.998013
0.158892288804 0.237777203321 0.609259068966 -0.045605 0.043484 -0.998013
0.358660578728 -0.344986319542 0.506360352039 -0.086631 0.413904 -0.906189
0.222547411919 -0.362946659327 0.511213481426 -0.086631 0.413904 -0.906189
0.259519249201 -0.455048710108 0.465574741364 -0.086631 0.413904 -0.906189
0.253518491983 -0.378091692924 0.501320242882 -0.086631 0.413904 -0.906189
0.127944812179 -0.499757051468 0.455363124609 -0.055145 0.415604 -0.907872
0.103440806270 -0.558769822121 0.429916143417 -0.055145 0.415604 -0.907872
0.118380799890 -0.521987378597 0.445797830820 -0.055145 0.415604 -0.907872
0.057340629399 -0.391781389713 0.507670640945 -0.043920 0.408585 -0.911663
0.155063942075 -0.350234389305 0.521569967270 -0.043920 0.408585 -0.911663
0.132230877876 -0.423381388187 0.489994138479 -0.043920 0.408585 -0.911663
0.024206327274 -0.350869238377 0.527517199516 -0.043920 0.408585 -0.911663
-0.000518364599 -0.908333003521 0.248442485929 -0.065129 0.480842 -0.874385
0.061367217451 -0.767004966736 0.321683108807 -0.065129 0.480842 -0.874385
0.073868125677 -0.614235937595 0.404862523079 -0.065129 0.480842 -0.874385
0.030045516789 -0.734717071056 0.341766834259 -0.065129 0.480842 -0.874385
0.118056207895 -0.818061709404 0.289745748043 -0.053558 0.476528 -0.877526
0.193929433823 -0.697893917561 0.350593596697 -0.053558 0.476528 -0.877526
0.055102482438 -0.967577159405 0.212138637900 -0.053558 0.476528 -0.877526
0.168525025249 -0.930039763451 0.225728780031 -0.053558 0.476528 -0.877526
0.185696661472 -0.701591372490 0.349077522755 -0.053558 0.476528 -0.877526
0.234888076782 -0.827103853226 0.275783360004 -0.100615 0.474733 -0.874360
0.309970498085 -0.714721679688 0.328334629536 -0.100615 0.474733 -0.874360
0.325081944466 -0.615752220154 0.380482971668 -0.100615 0.474733 -0.874360
0.311529308558 -0.782594919205 0.291199564934 -0.100615 0.474733 -0.874360
0.203363180161 -0.683161914349 0.357784271240 -0.100615 0.474733 -0.874360
0.207121342421 -0.851188063622 0.265864759684 -0.100615 0.474733 -0.874360
0.396491885185 -0.510604560375 0.426607966423 -0.089480 0.417115 -0.904438
0.433912336826 -0.456133604050 0.447947293520 -0.089480 0.417115 -0.904438
0.439054042101 -0.459467381239 0.445904016495 -0.089480 0.417115 -0.904438
0.474829047918 -0.346719920635 0.489888876677 -0.318885 0.395910 -0.861143
0.647168576717 -0.702999472618 0.271159291267 -0.259769 0.474963 -0.840792
0.395379662514 -0.890167891979 0.223724111915 -0.094530 0.472650 -0.876166
0.424470663071 -0.704146683216 0.321253329515 -0.094530 0.472650 -0.876166
0.394898355007 -0.874965012074 0.232007980347 -0.094530 0.472650 -0.876166
0.382772654295 -0.713562965393 0.320721685886 -0.094530 0.472650 -0.876166
0.324083477259 -0.848248481750 0.254227936268 -0.094530 0.472650 -0.876166
0.456295460463 -0.791163146496 0.270655870438 -0.094530 0.472650 -0.876166
0.463204175234 -0.590128600597 0.378387242556 -0.159576 0.469944 -0.868152
0.460461676121 -0.823056161404 0.252783000469 -0.159576 0.469944 -0.868152
0.460348665714 -0.702393114567 0.318132311106 -0.159576 0.469944 -0.868152
0.512311637402 -0.404704630375 0.453856825829 -0.128832 0.367101 -0.921216
0.518108665943 -0.927654206753 0.180367857218 -0.243008 0.481431 -0.842123
0.561830461025 -0.821581244469 0.228220701218 -0.243008 0.481431 -0.842123
0.623868227005 -0.768906295300 0.240309059620 -0.243008 0.481431 -0.842123
0.650525867939 -0.877222597599 0.170800551772 -0.243008 0.481431 -0.842123
0.521254837513 -0.925518453121 0.180675357580 -0.243008 0.481431 -0.842123
0.733061373234 0.621055960655 0.211830154061 -0.891483 0.006604 -0.453006
0.696978509426 0.757019579411 0.284909933805 -0.891483 0.006604 -0.453006
0.687748730183 0.781621396542 0.303447961807 -0.891483 0.006604 -0.453006
0.689591705799 0.762310981750 0.299526393414 -0.891483 0.006604 -0.453006
0.729679465294 0.790599465370 0.221074089408 -0.891483 0.006604 -0.453006
0.718298614025 0.820926070213 0.243932351470 -0.891483 0.006604 -0.453006
0.681822717190 0.808126211166 0.315513819456 -0.891483 0.006604 -0.453006
0.701037228107 0.504199564457 0.275904744864 -0.897290 0.001310 -0.441440
0.687245905399 0.530668139458 0.303947567940 -0.897290 0.001310 -0.441440
0.665855824947 0.835284590721 0.347885251045 -0.897290 0.001310 -0.441440
0.658121287823 0.680033564568 0.363325774670 -0.897290 0.001310 -0.441440
0.662629842758 0.681658327579 0.354175657034 -0.897290 0.001310 -0.441440
0.673273921013 0.454917699099 0.332184731960 -0.897290 0.001310 -0.441440
0.624536335468 0.229237690568 0.444389581680 -0.893268 -0.028124 -0.448643
0.664660096169 0.088090032339 0.373329252005 -0.893268 -0.028124 -0.448643
0.599396467209 0.268602013588 0.490797430277 -0.878131 -0.006663 -0.478375
0.620872855186 0.176660805941 0.452777326107 -0.878131 -0.006663 -0.478375
0.666876435280 -0.080450020730 0.363002598286 -0.876347 0.028444 -0.480840
0.651439905167 -0.057158086449 0.392544597387 -0.876347 0.028444 -0.480840
0.629833579063 -0.034494981170 0.434059292078 -0.886083 0.003962 -0.463510
0.614220380783 0.659314215183 0.453387379646 -0.867647 -0.020304 -0.496765
0.601591050625 0.681046843529 0.473180353642 -0.856657 -0.028692 -0.515087
0.604940831661 0.603851020336 0.471866101027 -0.856657 -0.028692 -0.515087
0.583668291569 0.478569269180 0.514059245586 -0.856657 -0.028692 -0.515087
0.607211351395 0.914817392826 0.450997829437 -0.856657 -0.028692 -0.515087
0.627482891083 -0.180940881371 0.438366919756 -0.900500 -0.033352 -0.433574
0.676703572273 -0.166288360953 0.340741872787 -0.886225 0.025474 -0.462553
0.701572477818 -0.223838180304 0.281021744013 -0.932685 0.003797 -0.360672
0.703625798225 -0.121727243066 0.277639269829 -0.930501 0.019252 -0.365783
0.681112229824 -0.004213823471 0.340153127909 -0.930544 0.016686 -0.365800
0.713575184345 -0.048005349934 0.255731701851 -0.930544 0.016686 -0.365800
0.742860794067 -0.033059492707 0.182286188006 -0.929276 0.019280 -0.368883
0.748643279076 0.025255873799 0.167384877801 -0.932485 -0.037611 -0.359246
0.717742681503 0.113686375320 0.238656833768 -0.932485 -0.037611 -0.359246
0.689992785454 0.141217276454 0.308046728373 -0.932485 -0.037611 -0.359246
0.729650378227 0.126393407583 0.209996119142 -0.905278 0.022467 -0.424225
0.740340769291 0.086184687912 0.184993177652 -0.905278 0.022467 -0.424225
0.744324386120 0.186939358711 0.182049170136 -0.905278 0.022467 -0.424225
0.722799420357 -0.523408830166 0.217251315713 -0.941279 0.013898 -0.337344
0.689495027065 -0.399807304144 0.308514803648 -0.922078 0.030082 -0.385834
0.679794669151 -0.332457810640 0.329684674740 -0.916090 -0.035589 -0.399389
0.649891078472 -0.273792952299 0.393972963095 -0.902351 0.014490 -0.430757
0.718795835972 -0.348170131445 0.235784560442 -0.936983 -0.006305 -0.349319
0.757395446301 -0.261827081442 0.134102314711 -0.932909 0.019196 -0.359599
0.755892753601 -0.245926544070 0.138841748238 -0.932909 0.019196 -0.359599
0.760548412800 -0.433317244053 0.117358006537 -0.938692 0.019053 -0.344229
0.731408655643 -0.349136054516 0.201566427946 -0.938692 0.019053 -0.344229
0.604345142841 0.537205219269 0.473678320646 -0.899331 0.001305 -0.437266
0.656735539436 0.464462667704 0.365853667259 -0.899331 0.001305 -0.437266
0.633273422718 0.659600615501 0.414356678724 -0.899331 0.001305 -0.437266
0.648344874382 0.535488069057 0.383201301098 -0.899331 0.001305 -0.437266
0.631049692631 0.718435108662 0.419007271528 -0.899331 0.001305 -0.437266
0.533401906490 1.551674604416 0.368604958057 -0.699950 -0.604427 -0.380443
0.162068679929 1.674257993698 0.457053333521 -0.073822 -0.922099 -0.379846
0.178452789783 1.702452659607 0.385297030210 -0.073714 -0.923434 -0.376611
0.088238470256 1.699725866318 0.409470766783 -0.073714 -0.923434 -0.376611
0.101716801524 1.727139830589 0.333654731512 -0.074094 -0.947624 -0.310675
0.068540595472 1.755571603775 0.247750416398 -0.051758 -0.958160 -0.281515
0.000742256118 1.742781162262 0.303748220205 -0.051758 -0.958160 -0.281515
0.306153565645 1.696190714836 0.288122981787 -0.402822 -0.871007 -0.281215
0.263826310635 1.724267840385 0.261866182089 -0.402822 -0.871007 -0.281215
0.404235482216 1.678222298622 0.202916115522 -0.407673 -0.877023 -0.254231
0.460504025221 1.646856665611 0.220582827926 -0.370826 -0.903071 -0.216679
0.450881749392 1.630661606789 0.305032253265 -0.370826 -0.903071 -0.216679
0.237762138247 1.665711879730 0.456902325153 -0.358907 -0.864150 -0.352746
0.286425113678 1.665538072586 0.407879263163 -0.358907 -0.864150 -0.352746
0.350701153278 1.636430263519 0.416861444712 -0.322454 -0.908999 -0.264091
0.632093310356 1.181044578552 0.390124171972 -0.839279 -0.037455 -0.542410
0.588639616966 1.034551620483 0.472169101238 -0.856437 -0.060076 -0.512744
0.751235187054 1.030958890915 0.168703272939 0.023955 -0.042702 0.998801
0.674523651600 0.939796864986 0.339460879564 0.892036 0.003953 0.451947
0.633135974407 0.948769032955 0.413766801357 0.855822 0.004031 0.517255
0.691230237484 1.195475101471 0.274971485138 0.905813 0.139899 0.399914
0.106580518186 0.442042917013 0.612909317017 0.022118 0.919860 0.391623
0.122709393501 0.427479505539 0.615743994713 0.046011 -0.001022 0.998940
0.191930651665 0.408763289452 0.612490892410 0.046011 -0.001022 0.998940
0.041943993419 -0.349219530821 0.465805828571 0.001195 -0.966452 -0.256844
0.501540064812 -1.094292521477 0.091347254813 0.264142 -0.139371 0.954361
0.201656788588 -1.202712297440 0.098594069481 0.042311 -0.140654 0.989154
0.030790872872 -1.181236505508 0.106950365007 0.030601 -0.141672 0.989441
0.131319075823 -1.212268352509 0.099443607032 0.030611 -0.139450 0.989756
0.034265972674 2.062248706818 -0.308046102524 0.012392 0.154331 0.987942
0.111786708236 2.038628578186 -0.264668196440 0.069772 0.985086 0.157283
0.174861371517 2.026786804199 -0.205049127340 0.053799 0.990139 0.129348
0.278588652611 2.059988975525 -0.327412068844 0.033141 0.147421 -0.988518
0.306806921959 2.073562145233 -0.328214854002 0.009114 0.029368 0.999527
0.407248407602 2.044208049774 -0.285964578390 0.207524 0.964529 0.163148
0.350615531206 2.059762239456 -0.306152611971 0.207524 0.964529 0.163148
0.558864712715 1.991675257683 -0.266247093678 0.354587 0.925790 0.131073
0.565069615841 1.990373134613 -0.273855566978 0.354587 0.925790 0.131073
0.563656151295 1.983068585396 -0.224900588393 0.387906 0.899304 0.201944
0.702144682407 1.927818298340 -0.244163513184 0.387906 0.899304 0.201944
0.551281213760 1.956809639931 -0.174950346351 -0.059112 -0.137928 0.988677
0.258380562067 2.079409837723 -0.313721597195 0.019059 0.140140 0.989948
0.306653171778 2.013905525208 -0.189722016454 0.090389 0.994279 0.056912
0.688079535961 1.936478257179 -0.327464967966 -0.026774 -0.071754 -0.997063
0.491560429335 2.026111364365 -0.326250404119 0.356996 0.924882 0.130945
0.755113124847 1.053377151489 0.164875134826 0.783627 0.049597 0.619249
0.753805160522 0.279926866293 0.170379877090 0.678323 0.725821 0.114291
0.636697351933 0.325081110001 0.415829539299 0.308519 -0.864161 0.397545
0.589429914951 0.041902020574 0.514160394669 0.751942 0.199180 -0.628419
0.683773219585 0.302668839693 0.325686067343 0.907304 -0.003905 0.420458
0.717630565166 0.354034036398 0.259761989117 0.899966 0.087093 0.427173
0.736504912376 0.297535330057 0.219840466976 0.905804 -0.019777 0.423236
0.585788309574 0.210643604398 0.524503231049 0.878131 0.006663 0.478375
0.643427789211 0.353896230459 0.415269345045 0.896756 0.087319 0.433825
0.646168887615 0.403717070818 0.395409256220 0.897744 -0.014544 0.440278
0.683003425598 0.390169501305 0.320152789354 0.896697 -0.014527 0.442406
0.582119762897 0.747718691826 0.509939610958 0.896577 0.022580 0.442311
0.506609082222 0.732745766640 0.567911028862 0.429371 0.030574 0.902610
0.508137166500 0.673966467381 0.568975448608 0.280350 0.023465 0.959611
0.517003595829 0.164746388793 0.566410362720 0.299507 -0.028823 0.953659
0.463593304157 0.415979802608 0.594997346401 0.288352 0.001217 0.957524
0.335992574692 0.386678695679 0.606540679932 0.039643 0.001016 0.999213
0.332186877728 0.396792411804 0.606684565544 0.041673 -0.001016 0.999131
0.490461647511 0.442185342312 0.584919512272 0.231051 0.412911 0.880976
0.497392147779 1.206757307053 0.540265381336 0.427068 0.089836 0.899746
0.514753460884 1.130795717239 0.539505302906 0.438135 0.090409 0.894351
0.496933698654 1.329274654388 0.529257357121 0.437776 0.072734 0.896137
0.493715047836 1.311694145203 0.526949167252 -0.900500 0.033352 0.433574
0.885989308357 0.639614880085 -0.272869259119 0.298813 0.026256 -0.953951
0.886990487576 0.519371271133 -0.244332060218 0.999889 -0.000993 0.014894
0.886942207813 0.612364590168 -0.238083988428 0.999889 0.000991 0.014865
0.887049138546 0.425988048315 -0.241274192929 0.999999 0.000979 0.000979
0.837585866451 0.881860435009 0.004283763003 0.947893 0.090463 0.305476
0.772190690041 0.628128945827 0.141107246280 0.763222 -0.026608 0.645588
0.779895246029 0.312268942595 0.118493400514 0.922424 -0.003849 0.386161
0.777256548405 0.136693209410 0.116105772555 0.921190 -0.022088 0.388485
0.761528432369 -0.570683121681 0.128579109907 0.884290 0.283753 0.370831
0.777870059013 -0.025395669043 0.107216060162 0.923305 -0.008989 0.383961
0.732471525669 -0.638038337231 0.218914926052 0.935528 -0.006330 0.353197
0.785730957985 -0.689522504807 0.158533394337 0.761829 -0.427607 0.486588
0.776056408882 -0.611172020435 0.105793006718 0.317587 0.031632 -0.947701
0.496724635363 0.287299394608 0.577177166939 -0.935185 -0.048259 0.350857
0.773456692696 -0.782448768616 0.097011394799 0.740862 -0.006924 -0.671622
0.758428454399 -0.754616498947 0.132324770093 -0.609364 -0.790022 0.067388
0.775115013123 0.298462361097 0.129472479224 0.918071 -0.016881 0.396056
0.391906619072 -1.918512582779 -0.135411933064 -0.025070 -0.094831 0.995178
0.347670376301 -1.883550047874 -0.103058248758 -0.002956 -0.004926 0.999984
0.370999813080 -1.914118528366 -0.142983570695 0.047052 -0.026140 -0.998550
0.249426931143 -1.968585848808 -0.147970020771 0.085784 -0.479548 0.873312
0.881170511246 -0.016308918595 -0.234964743257 0.331307 -0.026657 0.943146
0.877134144306 0.186100319028 -0.288067579269 0.001005 0.029133 -0.999575
0.885578632355 0.016193792224 -0.291109353304 0.331307 0.026657 -0.943146
0.887123286724 -0.130620568991 -0.286899894476 0.999999 -0.000978 0.000978
0.887086689472 -0.191884189844 -0.267926633358 0.999999 -0.000978 0.000978
0.887237012386 0.088947661221 -0.252903640270 0.999999 -0.000978 0.000978
0.887089133263 -0.185501873493 -0.254867702723 0.999999 -0.000978 -0.000978
0.886895656586 -0.544679880142 -0.304095268250 0.999999 -0.000978 -0.000978
0.886613965034 -0.454454720020 -0.249462813139 0.997696 -0.003128 0.067764
0.052541855723 -0.332181066275 0.462283462286 0.000978 0.999999 0.000978
0.652099728584 1.738264560699 -0.010928606614 0.005024 0.023109 0.999720
0.616693019867 1.755879282951 0.021853020415 0.855849 0.483741 0.183077
0.521273493767 1.853362917900 -0.013393496163 0.000978 -0.000978 0.999999
0.543760061264 1.832034707069 0.025065870956 0.650307 -0.319477 -0.689228
0.556972920895 1.842847108841 0.034307777882 0.159668 0.688852 0.707099
0.629432082176 1.876261949539 -0.049613505602 0.400803 0.902876 -0.155472
0.782388269901 1.553552746773 0.049719560891 0.612503 0.464831 0.639353
0.748948276043 1.580362558365 0.055086441338 0.829904 0.221613 0.512003
0.776389479637 1.769870281219 -0.020982531831 -0.055770 -0.066706 -0.996213
0.755934655666 1.772445201874 -0.017117764801 0.156878 0.012415 0.987540
0.682623803616 1.741264939308 0.036136645824 -0.208172 -0.318631 -0.924737
0.689844608307 1.674122214317 0.044982779771 0.054089 -0.032878 -0.997995
0.650628328323 1.688799381256 0.013443176635 0.863954 0.371146 0.340345
0.714278697968 1.697797536850 0.037132628262 -0.494375 0.551353 0.672014
0.597944974899 1.713814854622 0.093848653138 0.239330 -0.332161 -0.912354
0.614338815212 1.680007576942 0.111276872456 -0.057890 0.312608 0.948116
0.670462250710 1.622496843338 0.107724808156 -0.321720 -0.128960 -0.938011
0.717144072056 1.692664027214 0.059545710683 0.849679 0.183674 0.494277
0.688656687737 1.668232440948 0.053354423493 -0.813853 0.573889 0.091071
0.675660490990 1.548387765884 0.104268401861 -0.552681 0.366824 0.748321
0.641884267330 1.682535171509 0.057011060417 0.865532 0.373578 0.333607
0.663579940796 1.724788188934 0.044975377619 0.195120 0.100667 0.975599
0.619165062904 1.766623854637 0.044128403068 0.258082 0.412026 0.873858
0.856337308884 0.951805412769 0.032801270485 0.021825 -0.044690 0.998762
0.865831911564 0.868076801300 0.024507636204 0.965696 0.001197 0.259673
0.232393875718 -2.030269145966 -0.397218078375 0.193909 -0.981019 -0.001147
0.336346834898 -2.009796857834 -0.455533474684 0.193909 -0.981019 -0.001147
0.338962078094 -2.009289026260 -0.431214213371 0.193909 -0.981019 -0.001147
0.258296608925 -2.041588783264 -0.464100331068 0.025913 -0.136325 0.990325
0.048034995794 -2.100497007370 -0.469129025936 0.010003 -0.138924 0.990252
0.155221700668 -1.868990421295 -0.606849014759 -0.001106 -0.142660 -0.989771
0.157731056213 -1.900328040123 -0.602327883244 -0.001106 -0.142660 -0.989771
0.123568579555 -1.879522323608 -0.605307817459 -0.001106 -0.142660 -0.989771
0.490492731333 -2.027938127518 -0.469186633825 0.046827 -0.131345 0.990230
0.230073109269 -2.079450368881 -0.468520998955 0.025913 -0.136325 0.990325
0.263087838888 -1.981391549110 -0.582865893841 0.000978 -0.000978 -0.999999
0.288141995668 -1.973384499550 -0.582865893841 0.000978 -0.000978 -0.999999
0.278350949287 -1.925875902176 -0.582865893841 0.000978 -0.000978 -0.999999
0.365487337112 -1.990339040756 -0.582865893841 0.000978 -0.000978 -0.999999
0.202744394541 -1.882252812386 -0.599443852901 0.661422 -0.098260 -0.743550
0.605204522610 -1.593202233315 -0.508755922318 0.103057 0.994003 -0.036569
0.594567060471 -1.591261386871 -0.486572146416 0.103057 0.994003 -0.036569
0.615464508533 -1.588871479034 -0.419148564339 0.082072 0.924320 -0.372688
0.807647466660 -1.595264077187 -0.392223477364 0.082072 0.924320 -0.372688
0.739529788494 -1.498029947281 -0.239763289690 0.067921 0.724010 -0.686437
0.794216513634 -1.542536258698 -0.281393259764 0.067921 0.724010 -0.686437
0.562934994698 -1.573685765266 -0.393527388573 0.085293 0.921980 -0.377727
0.752176105976 -1.559541940689 -0.316146403551 0.085293 0.921980 -0.377727
0.692636549473 -1.421432971954 -0.182486951351 0.052870 0.435164 -0.898797
0.780071139336 -1.419945240021 -0.176637232304 0.052870 0.435164 -0.898797
0.746633172035 -1.444115638733 -0.190227761865 0.052870 0.435164 -0.898797
0.723529815674 -1.369951725006 -0.155925482512 0.052742 0.434106 -0.899316
0.805452108383 -1.353259921074 -0.143069013953 0.052742 0.434106 -0.899316
0.587447822094 -1.593514204025 -0.564757287502 0.112014 0.992283 -0.053178
0.599039316177 -1.595098137856 -0.569741249084 0.112014 0.992283 -0.053178
0.615691721439 -1.707333564758 -0.593861699104 0.011295 -0.040048 -0.999134
0.546754062176 -1.655082821846 -0.597005903721 0.013429 -0.044420 -0.998923
0.523358762264 -1.603268146515 -0.599626243114 0.013429 -0.044420 -0.998923
0.399724721909 -1.676725983620 -0.591987490654 -0.061787 -0.011520 -0.998023
0.402142345905 -1.618736743927 -0.592787563801 -0.061787 -0.011520 -0.998023
0.486132025719 -1.614563465118 -0.598117589951 -0.061787 -0.011520 -0.998023
0.568319976330 -1.829009532928 -0.591263651848 0.001010 -0.035367 -0.999374
0.538459658623 -1.900238633156 -0.588715970516 0.001010 -0.035367 -0.999374
0.494278997183 -1.759268879890 -0.593726515770 0.000979 0.002938 -0.999995
0.355909526348 -1.791406989098 -0.587209999561 -0.053141 -0.061818 -0.996672
0.482283055782 -1.880691766739 -0.588283181190 -0.053141 -0.061818 -0.996672
0.404671251774 -1.851917028427 -0.585991501808 -0.053141 -0.061818 -0.996672
0.245264306664 -1.603667378426 -0.583192884922 -0.052343 -0.001026 -0.998629
0.263199418783 -1.710038185120 -0.584152340889 -0.052343 -0.001026 -0.998629
0.428722202778 -1.890355467796 -0.585027098656 -0.029904 -0.025780 -0.999220
0.490369468927 -1.939415335655 -0.585532605648 -0.029904 -0.025780 -0.999220
0.148583576083 -1.950828075409 -0.125988662243 0.834759 -0.165166 0.525259
0.328027576208 -1.956855535507 -0.171981185675 -0.059255 -0.092796 0.993920
0.361796557903 -1.894328951836 -0.121149100363 0.192724 -0.686099 0.701517
0.209971696138 -1.965695738792 -0.174073264003 0.137300 -0.819370 0.556581
0.716910362244 -1.467848420143 -0.210212334991 0.067786 0.722575 -0.687961
0.584834396839 -1.472649574280 -0.228262066841 0.067786 0.722575 -0.687961
0.040810607374 -2.048063993454 -0.419170826674 0.063348 -0.997991 -0.001038
0.103246316314 -2.044053554535 -0.441991150379 0.063348 -0.997991 -0.001038
0.363123595715 -2.052918434143 -0.364965736866 0.055946 -0.252381 -0.966009
0.769707083702 -1.759732007980 -0.352725148201 0.684055 0.590851 -0.427743
0.767826497555 -1.755011081696 -0.259539872408 0.804448 -0.271286 0.528458
0.750766396523 -1.828822493553 -0.277211099863 0.953004 -0.302835 -0.008652
0.701613724232 -1.894718170166 -0.344786196947 0.662886 -0.748688 0.006919
0.715214252472 -1.881921172142 -0.290252029896 0.656780 -0.753978 0.012497
0.372276991606 -2.054448127747 -0.363636583090 0.195122 -0.970509 0.141559
0.533313751221 -1.999678850174 -0.327537089586 0.403051 -0.905810 0.130605
0.806944727898 -0.580312490463 0.135380148888 -0.403596 0.913119 0.057657
0.845283567905 -0.566304981709 0.180947065353 -0.403596 0.913119 0.057657
0.886780261993 -0.635240197182 -0.258608907461 0.997384 -0.003140 0.072214
0.886825621128 -0.672884345055 -0.295884698629 0.999999 -0.000978 -0.000978
0.032446835190 1.673821687698 0.506796002388 0.077531 0.855657 0.511703
0.503519177437 -1.836742162704 -0.113448865712 0.001098 -0.132811 -0.991141
0.653665423393 1.733073115349 0.006751226261 -0.577350 0.577350 -0.577350
0.478731483221 -1.889900207520 -0.149027571082 -0.105696 -0.041166 0.993546
0.716452479362 -1.737488627434 -0.114591084421 0.982009 -0.145167 0.120769
0.769623219967 -1.648928642273 -0.110566250980 0.908047 -0.317305 0.273438
0.707512915134 -1.689596652985 -0.031739711761 -0.977728 -0.155689 0.140743
0.567155063152 -1.795294880867 -0.079959049821 0.767419 -0.443434 0.463070
0.568542420864 -1.806036114693 -0.092642113566 0.783221 -0.452420 0.426475
0.556902110577 -1.862571120262 -0.136778831482 0.786669 -0.476524 0.392527
0.689984500408 -1.735779762268 -0.073805488646 -0.689358 -0.452339 -0.565841
0.653974473476 -1.730463266373 -0.107993029058 -0.375467 -0.713223 0.591893
0.468704462051 -1.904474616051 -0.149214312434 -0.101069 -0.041094 0.994030
0.682467997074 1.853510379791 -0.029013823718 0.290141 0.658827 0.694093
0.567547559738 1.913439035416 -0.055518038571 0.392556 0.917750 -0.060290
0.796644032001 1.765843033791 -0.016137193888 0.500768 0.615422 0.608677
0.813709020615 1.694803357124 -0.007900232449 0.617433 0.175321 0.766837
0.775447666645 1.646007061005 0.051593717188 0.669471 0.308118 0.675923
0.766936659813 1.599456429482 0.080954700708 0.582603 0.306549 0.752729
0.765940487385 1.537338018417 0.099133990705 0.586681 0.187433 0.787829
0.804902851582 1.538083791733 0.050240490586 0.804320 0.097449 0.586150
0.839902400970 1.620948672295 -0.016052933410 0.788396 0.151672 0.596177
0.651418805122 1.795939564705 0.044039200991 0.207252 0.448799 0.869268
0.713979721069 -1.777110576630 -0.109107859433 0.617221 -0.556344 0.556344
0.716199278831 -1.778887867928 -0.113348104060 0.617221 -0.556344 0.556344
0.716237187386 -1.733240723610 -0.069089472294 0.819064 -0.396014 0.415099
0.574868738651 -1.899387717247 -0.142271533608 0.383829 -0.624340 0.680349
0.522086858749 -1.856935024261 -0.084081336856 0.186173 -0.660070 0.727769
0.668084442616 -1.833008527756 -0.134502738714 0.483841 -0.688093 0.540764
0.858544826508 1.116619706154 -0.522022306919 0.802269 0.583603 0.125585
0.854062855244 1.128131628036 -0.436566770077 0.999912 0.012908 -0.002979
0.848513543606 1.341577768326 -0.321638613939 0.993503 -0.003250 -0.113760
0.806630611420 1.372209310532 -0.661541402340 -0.001069 -0.099398 0.995047
0.640195012093 1.161722779274 -0.586246192455 -0.985629 0.141826 0.091770
0.637548029423 1.325034022331 -0.704303264618 -0.985927 0.019467 0.166039
0.724451839924 1.403485417366 -0.652902543545 -0.001235 -0.312519 0.949911
0.778641641140 1.411116003990 -0.650104880333 -0.001356 -0.551880 0.833922
0.850671768188 1.398503541946 -0.695427596569 -0.752933 0.202534 -0.626156
0.854704558849 1.334104537964 -0.687908828259 0.999995 -0.002938 0.000979
0.787794172764 1.254849076271 -0.639725029469 0.001354 0.553762 0.832674
0.704354405403 1.230330348015 -0.623596906662 0.001364 0.587928 0.808912
0.713224351406 1.224579811096 -0.618893742561 0.001380 0.655665 0.755050
0.681225419044 1.211974859238 -0.608239889145 0.001375 0.622848 0.782341
0.854304552078 1.183783769608 -0.617863237858 0.999995 -0.002938 0.000979
0.704467058182 1.165483951569 -0.539722263813 0.001289 0.916186 0.400751
0.683038473129 1.170800805092 -0.551727354527 0.001289 0.916186 0.400751
0.715052962303 1.156841754913 -0.503481090069 0.003481 0.978185 0.207705
0.850169301033 1.227005839348 -0.438276499510 0.988037 -0.146761 0.047380
0.848462402821 1.215045928955 -0.439903050661 0.988037 -0.146761 0.047380
0.850366055965 1.314864516258 -0.384919136763 0.196057 0.980283 -0.024654
0.832637310028 1.333415865898 -0.338562101126 0.107514 -0.992527 0.057718
0.694283604622 1.432288169861 -0.636394977570 -0.001340 -0.516071 0.856545
0.848112761974 1.555193305016 -0.426148593426 -0.752297 0.644613 0.136101
0.714345872402 1.179202198982 -0.391376227140 0.001260 0.936173 -0.351537
0.746915400028 1.308470964432 -0.298072069883 0.001016 0.041673 -0.999131
0.830423414707 1.286470770836 -0.395095050335 0.228807 -0.958871 0.167968
0.859960854053 1.378276705742 -0.436926156282 0.999995 -0.002938 -0.000979
