0.119770348072 -2.149490356445 0.201381132007 0.046086 -0.554433 0.830951
0.227995842695 -2.140300989151 0.201252222061 0.071161 -0.484175 0.872073
0.317052990198 -2.105072021484 0.213446617126 0.065509 -0.383694 0.921134
0.247206106782 -2.073307991028 0.229665517807 0.051190 -0.265940 0.962629
0.350303918123 -1.980885267258 0.244211673737 0.041428 -0.188202 0.981256
0.285451918840 -2.017973184586 0.239878162742 0.043873 -0.190908 0.980627
0.288386851549 -1.939929962158 0.254214465618 0.043298 -0.172020 0.984141
0.368183910847 -1.738483786583 0.283345192671 0.040338 -0.150981 0.987713
0.351171344519 -1.762704968452 0.280299156904 0.040338 -0.150981 0.987713
0.362555116415 -1.709566235542 0.288028270006 0.042722 -0.153567 0.987214
0.323498666286 -1.651858091354 0.298517763615 0.039950 -0.138112 0.989611
0.296971052885 -1.658718824387 0.298632323742 0.039950 -0.138112 0.989611
0.302950382233 -1.534320712090 0.316022038460 0.042407 -0.140973 0.989105
0.293987512589 -2.173932552338 0.169559597969 0.079811 -0.642840 0.761831
0.407752901316 -2.189062833786 0.130065619946 0.338526 -0.812144 0.475208
0.432571798563 -2.180676460266 0.115876741707 0.594730 -0.771751 0.225159
0.623990893364 -1.059874653816 0.360146820545 0.112695 -0.146625 0.982752
0.555885434151 -1.078356027603 0.363817930222 0.105515 -0.230098 0.967430
0.518113970757 -1.119972467422 0.361268222332 0.092474 -0.154924 0.983589
0.356016814709 -1.171292424202 0.364672273397 0.057433 -0.158233 0.985730
0.260063439608 -1.141462683678 0.373565375805 0.035901 -0.165607 0.985538
0.137804344296 -1.230781912804 0.362341076136 0.007927 -0.164210 0.986394
-0.053940504789 -1.171088576317 0.373359948397 -0.007954 -0.171576 0.985139
-0.103196129203 -1.138558745384 0.378230482340 -0.012485 -0.164570 0.986286
-0.203064456582 -1.202713727951 0.365614503622 -0.026452 -0.166766 0.985642
-0.345429539680 -1.159881591797 0.367322713137 -0.050072 -0.157202 0.986296
-0.486081182957 -1.097223281860 0.367861449718 -0.084753 -0.151600 0.984802
-0.663972556591 -1.049153804779 0.357027322054 -0.112695 -0.146625 0.982752
-0.625967144966 -1.155578136444 0.340268522501 -0.389861 -0.269441 0.880574
-0.622334182262 -1.187081933022 0.334654718637 -0.387120 -0.198634 0.900379
-0.126868009567 -1.234921813011 0.360191404819 -0.021058 -0.999754 0.007019
0.698410332203 -1.207632422447 0.319540292025 0.094132 -0.141794 0.985410
0.572289407253 -1.146232485771 0.352596700191 0.085566 -0.127762 0.988107
0.588269293308 -1.184117078781 0.346288472414 0.078192 -0.129542 0.988486
0.616536974907 -1.190212249756 0.336296230555 0.388133 -0.199154 0.899828
0.673177361488 -1.158311486244 0.328750848770 0.076633 -0.142656 0.986801
-0.720945358276 -1.184673666954 0.320578545332 -0.094132 -0.141794 0.985410
0.844735980034 -0.024080988020 0.252102524042 -0.001028 0.998513 0.054502
0.848340749741 -0.075066693127 0.224797517061 0.139147 -0.989868 0.028282
0.841994225979 0.914934158325 0.281662195921 0.942782 -0.001249 0.333408
0.850140273571 0.756376206875 0.255713075399 0.959055 -0.001216 0.283219
0.862472116947 0.743576228619 0.185994267464 0.995927 -0.001061 0.090153
0.845403134823 0.795491933823 0.189273983240 0.146102 0.005576 0.989254
0.846113741398 0.830639064312 0.188979566097 0.145780 0.005564 0.989301
0.832066476345 0.861642897129 0.190860763192 0.145780 0.005564 0.989301
0.845345914364 0.910986065865 0.256254136562 0.134850 -0.990760 -0.014488
0.823150694370 0.821788668633 0.221281141043 0.987489 -0.001118 0.157685
-0.852705776691 -0.075696587563 0.179438367486 -0.218786 -0.855529 0.469258
-0.816369414330 -0.090202555060 0.230079352856 -0.976433 0.001167 0.215818
-0.851362228394 0.835991084576 0.187618196011 -0.146102 0.005576 0.989254
-0.811793565750 0.818873345852 0.255214035511 -0.967197 0.001193 0.254023
-0.859020292759 0.749634683132 0.183626636863 -0.995910 0.001063 0.090344
-0.821396648884 0.845450818539 0.207911729813 -0.987835 0.001119 0.155503
-0.857649385929 0.747852563858 0.198879018426 -0.995927 0.001061 0.090153
0.925443708897 -0.767016649246 0.366458892822 0.043396 -0.043396 -0.998115
0.943729102612 -0.734458625317 0.500039815903 0.272685 -0.715997 0.642644
1.014075040817 -0.663298368454 0.503591716290 0.746747 0.168816 0.643328
1.015307545662 -0.703756093979 0.485746800900 0.826893 -0.518146 0.218569
-0.924656748772 -0.692989945412 0.519468784332 0.000999 0.022971 0.999736
-1.020969629288 -0.662375867367 0.461618155241 -0.973657 0.226348 0.027545
-1.003298997879 -0.681738078594 0.510704398155 -0.468355 -0.215353 0.856894
-0.894264459610 -0.706208109856 0.519553840160 -0.028972 -0.074038 0.996834
-0.955992579460 -0.759099841118 0.438096970320 -0.371059 -0.903637 0.213904
-0.946020662785 -0.766536891460 0.410767614841 -0.358471 -0.921981 -0.146457
-0.826905488968 -0.740857899189 0.440423250198 0.882116 -0.088072 0.462726
1.007694125175 -0.666341483593 0.489044338465 -0.320694 0.940613 -0.111371
1.011512160301 -0.671925663948 0.435704827309 -0.316269 0.940731 -0.122470
0.987757563591 -0.685399472713 0.398417532444 -0.317185 0.937941 -0.140215
0.956082940102 -0.693363070488 0.416605710983 -0.317874 0.937249 -0.143248
0.897288978100 -0.715719282627 0.392688751221 -0.294665 0.945888 -0.135896
-0.916533112526 -0.693234205246 0.495332777500 0.305544 0.943553 -0.127871
-0.867407739162 -0.713944792747 0.453760832548 0.290170 0.950007 -0.115273
-0.921685814857 -0.708947181702 0.367363244295 0.308765 0.942474 -0.128090
-0.951783299446 -0.693458199501 0.409627676010 0.321143 0.936097 -0.143489
0.678849756718 -0.080744028091 0.735078632832 0.934369 -0.006339 0.356252
0.681159377098 -0.166871801019 0.727170348167 0.934027 -0.008895 0.357091
0.694370746613 -0.358610481024 0.688583612442 0.934369 -0.006339 0.356252
0.664474666119 -0.314670532942 0.768330514431 0.936173 -0.001260 0.351537
0.681480169296 -0.369689047337 0.722796499729 0.936167 -0.003780 0.351535
0.686799228191 -0.469366669655 0.707704186440 0.936995 -0.003783 0.349324
0.705995380878 -0.557713389397 0.656680345535 0.940324 0.006277 0.340224
0.750110566616 -0.651605427265 0.524858534336 0.961369 0.006062 0.275196
0.765579700470 -0.715813100338 0.471709787846 0.962200 0.003631 0.272321
0.780263006687 -0.650223076344 0.418267875910 0.969064 0.005960 0.246736
0.803410232067 -0.662238180637 0.327078461647 0.970628 -0.001185 0.240583
0.779505848885 -0.612086832523 0.420956015587 0.969226 0.001189 0.246171
0.746175110340 -0.443562179804 0.533935844898 0.958853 0.003655 0.283879
0.723479986191 -0.459877371788 0.603444337845 0.947186 -0.001238 0.320681
0.719141960144 -0.404516637325 0.616172969341 0.947186 0.001238 0.320681
0.710682094097 -0.340849637985 0.641576111317 0.946668 -0.003732 0.322190
0.766557633877 -0.390686929226 0.466226011515 0.957321 -0.001220 0.289025
0.769700288773 -0.501951813698 0.455482274294 0.957321 -0.001220 0.289025
0.780542433262 -0.477819770575 0.416386783123 0.968509 0.001191 0.248977
0.802101910114 -0.435041546822 0.333433866501 0.967781 -0.001193 0.251790
0.780895233154 -0.348535388708 0.415269106627 0.967781 -0.001193 0.251790
0.766215384007 -0.299174666405 0.468049436808 0.957321 -0.001220 0.289025
0.713746368885 -0.208392322063 0.634986937046 0.947139 -0.008735 0.320705
0.719762742519 -0.099217288196 0.619896411896 0.947395 -0.008715 0.319948
0.680514395237 0.004421991762 0.732576668262 0.933178 -0.008887 0.359305
0.711114346981 0.021848291159 0.648433625698 0.947139 -0.008735 0.320705
0.762855470181 -0.155333578587 0.481357067823 0.957757 -0.008562 0.287450
0.752797484398 -0.178247213364 0.514449357986 0.957988 -0.003661 0.286786
0.783697962761 -0.263324737549 0.405143260956 0.967624 -0.003588 0.252372
0.792619764805 -0.348249167204 0.370301842690 0.967781 -0.001193 0.251790
0.781571745872 -0.080510027707 0.415811777115 0.967624 -0.003588 0.252372
0.781992912292 -0.098483107984 0.413883358240 0.967624 -0.003588 0.252372
0.764285564423 0.007604645565 0.479799926281 0.958842 -0.006092 0.283876
0.757705450058 -0.047282218933 0.501051306725 0.958842 -0.006092 0.283876
0.792075991631 -0.005542229861 0.375808775425 0.968509 -0.001191 0.248977
0.687377750874 0.914083421230 0.719133853912 0.932691 0.001266 0.360674
0.658443629742 0.793138980865 0.793434500694 0.931504 -0.001267 0.363730
0.686324357986 0.609585702419 0.722395002842 0.931504 0.001267 0.363730
0.660697460175 0.569645762444 0.787273764610 0.930303 -0.001269 0.366791
0.677463352680 0.476029992104 0.744863927364 0.930303 0.001269 0.366791
0.688067078590 0.463662058115 0.718066096306 0.930303 0.001269 0.366791
0.653031706810 0.374884337187 0.806080460548 0.929088 -0.001271 0.369856
0.657050371170 0.400566041470 0.796088874340 0.929088 -0.001271 0.369856
0.666735708714 0.226026505232 0.771185517311 0.929088 -0.001271 0.369856
0.685554504395 0.279178678989 0.724221229553 0.928213 -0.001270 0.372047
0.707612931728 0.267118215561 0.665634036064 0.944109 -0.001244 0.329630
0.726151883602 0.238770455122 0.612290799618 0.944882 -0.001245 0.327410
0.745519578457 0.249512016773 0.553848206997 0.958193 -0.001218 0.286119
0.765602648258 0.203940480947 0.486294776201 0.958392 -0.001215 0.285453
0.783148109913 0.247094869614 0.423008650541 0.969932 -0.001187 0.243373
0.802005589008 0.207858055830 0.347483277321 0.969932 -0.001187 0.243373
0.786864578724 0.403880894184 0.408766865730 0.970072 -0.001184 0.242814
0.766973614693 0.415799319744 0.482274502516 0.957524 -0.001217 0.288352
0.757299780846 0.543003201485 0.514579951763 0.957321 0.001220 0.289025
0.742845892906 0.696959614754 0.561529338360 0.957321 0.001220 0.289025
0.704606354237 0.737222373486 0.672799170017 0.943838 0.001247 0.330406
0.718616485596 0.658915519714 0.633068621159 0.943838 0.001247 0.330406
0.730642676353 0.794767081738 0.598156809807 0.944109 0.001244 0.329630
0.719987690449 0.798376858234 0.628626286983 0.944109 0.001244 0.329630
0.730586290359 0.882045209408 0.597741544247 0.944882 0.001245 0.327410
0.745090305805 0.789893686771 0.553632318974 0.956430 0.003664 0.291937
0.772745370865 0.736245274544 0.462806284428 0.956644 0.001219 0.291258
0.770617663860 0.730434596539 0.469830840826 0.956644 0.001219 0.291258
0.784268796444 0.598828732967 0.419042080641 0.969369 0.001186 0.245605
0.789569377899 0.441314637661 0.398027569056 0.969369 -0.001186 0.245605
0.802882492542 0.441963493824 0.345249146223 0.969369 -0.001186 0.245605
0.799112617970 0.636857450008 0.360066711903 0.969369 0.001186 0.245605
0.780106246471 0.784922719002 0.434623152018 0.969369 0.001186 0.245605
0.794033050537 0.848252892494 0.378687709570 0.969220 0.003568 0.246170
0.769972324371 0.959719598293 0.469694882631 0.957315 0.003659 0.289024
0.763620138168 0.851509392262 0.492056518793 0.957315 0.003659 0.289024
0.790709316730 0.989298462868 0.389290004969 0.969785 0.003570 0.243934
0.710724353790 0.628433823586 0.655785083771 0.943838 0.001247 0.330406
0.704379558563 0.524032413960 0.674378037453 0.944109 0.001244 0.329630
0.731388270855 0.343055814505 0.597344160080 0.944109 0.001244 0.329630
0.742921173573 0.453787386417 0.562351822853 0.958193 0.001218 0.286119
-0.663173437119 -0.041441138834 0.772519350052 -0.934701 -0.003794 0.355414
-0.671670854092 -0.061564546078 0.750010430813 -0.934701 -0.003794 0.355414
-0.692829370499 0.031325854361 0.696377396584 -0.933523 -0.006333 0.358463
-0.712260842323 -0.038608081639 0.638584315777 -0.947413 -0.006225 0.319954
-0.711123168468 0.038163393736 0.643288910389 -0.946656 -0.006220 0.322186
-0.744368970394 -0.084183037281 0.539544582367 -0.957976 -0.006102 0.286783
-0.740877985954 0.005648873746 0.552766919136 -0.957976 -0.006102 0.286783
-0.737306773663 0.035588286817 0.565152704716 -0.959049 -0.003647 0.283217
-0.792978346348 -0.172901004553 0.365330994129 -0.967781 -0.001193 0.251790
-0.791001379490 -0.003730412573 0.373163759708 -0.968656 0.001189 0.248404
-0.783891320229 -0.325188964605 0.400289148092 -0.967781 0.001193 0.251790
-0.790031790733 -0.366582214832 0.376914978027 -0.967781 0.001193 0.251790
-0.780278325081 -0.433444172144 0.414681196213 -0.967781 0.001193 0.251790
-0.797002196312 -0.572925984859 0.351292043924 -0.968509 0.001191 0.248977
-0.791233122349 -0.670035004616 0.375170469284 -0.969616 0.008348 0.244491
-0.752928197384 -0.646243989468 0.514531075954 -0.961168 0.008506 0.275834
-0.744006752968 -0.501777768135 0.540537357330 -0.958645 0.006106 0.284540
-0.774940550327 -0.524465680122 0.436664909124 -0.957321 0.001220 0.289025
-0.741441607475 -0.291918337345 0.546563684940 -0.957321 0.001220 0.289025
-0.768375277519 -0.380754232407 0.457652568817 -0.957321 0.001220 0.289025
-0.765313684940 -0.172792747617 0.468346327543 -0.957524 -0.001217 0.288352
-0.720334351063 -0.161075323820 0.612664520741 -0.946656 -0.006220 0.322186
-0.710850536823 -0.275187462568 0.638836085796 -0.946931 -0.001241 0.321435
-0.718716740608 -0.419067800045 0.615421891212 -0.946925 0.003723 0.321433
-0.725555837154 -0.592881560326 0.598559379578 -0.949651 0.006191 0.313249
-0.731124162674 -0.629498064518 0.583175420761 -0.950699 0.021294 0.309384
-0.682932138443 -0.495077878237 0.716926634312 -0.938252 0.013928 0.345672
-0.667138993740 -0.468872576952 0.759017586708 -0.938584 0.011369 0.344863
-0.687774598598 -0.463382065296 0.703571379185 -0.937307 -0.001258 0.348502
-0.666674494743 -0.312301903963 0.759900569916 -0.936173 0.001260 0.351537
-0.653199017048 -0.206232339144 0.796137392521 -0.934369 -0.006339 0.356252
-0.685950636864 -0.163432002068 0.711146295071 -0.934369 -0.006339 0.356252
-0.661347925663 0.919817328453 0.775672018528 -0.932685 0.003797 0.360672
-0.695753753185 0.913009405136 0.686003983021 -0.943832 0.003740 0.330404
-0.716353952885 0.846584439278 0.627707183361 -0.944608 0.003743 0.328180
-0.736081659794 0.945065617561 0.568224549294 -0.957099 0.006112 0.289697
-0.739543616772 0.781488895416 0.559632241726 -0.957099 0.006112 0.289697
-0.751860380173 0.890733063221 0.517170310020 -0.957099 0.006112 0.289697
-0.777282834053 0.874331057072 0.428645581007 -0.969632 0.005963 0.244495
-0.774158477783 0.959765434265 0.438703864813 -0.969632 0.005963 0.244495
-0.800831258297 0.730395317078 0.338626891375 -0.969220 0.003568 0.246170
-0.774347007275 0.681336224079 0.444085031748 -0.969785 0.003570 0.243934
-0.777270734310 0.510671555996 0.434838891029 -0.969932 0.001187 0.243373
-0.794887542725 0.415476888418 0.365688085556 -0.969932 0.001187 0.243373
-0.782397150993 0.422607064247 0.415265649557 -0.969932 0.001187 0.243373
-0.782992959023 0.337950497866 0.413698047400 -0.969932 0.001187 0.243373
-0.774269163609 0.234782770276 0.448858678341 -0.969932 0.001187 0.243373
-0.786224782467 0.200969547033 0.401360034943 -0.970072 0.001184 0.242814
-0.761200904846 0.167671442032 0.493469953537 -0.958392 0.001215 0.285453
-0.765608549118 0.315031290054 0.478296399117 -0.958193 0.001218 0.286119
-0.746918380260 0.249461203814 0.541160523891 -0.958193 0.001218 0.286119
-0.744037806988 0.478749543428 0.548596739769 -0.958188 0.003653 0.286117
-0.769975304604 0.380746692419 0.463201224804 -0.957321 0.001220 0.289025
-0.739155113697 0.725348711014 0.561642944813 -0.957110 0.003667 0.289700
-0.741054713726 0.582579255104 0.557419359684 -0.957110 0.003667 0.289700
-0.770197331905 0.701315462589 0.459623962641 -0.957110 0.003667 0.289700
-0.768052220345 0.583744406700 0.468013852835 -0.957110 0.003667 0.289700
-0.727914035320 0.627822577953 0.597013473511 -0.943832 0.003740 0.330404
-0.726782381535 0.733143270016 0.599035203457 -0.943832 0.003740 0.330404
-0.693383812904 0.732617139816 0.694554805756 -0.943832 0.003740 0.330404
-0.701658070087 0.565577507019 0.672863423824 -0.943832 0.003740 0.330404
-0.724520981312 0.485476881266 0.608208894730 -0.943832 0.003740 0.330404
-0.722822189331 0.513633668423 0.612832903862 -0.943832 0.003740 0.330404
-0.706634402275 0.470880180597 0.659528911114 -0.944608 0.003743 0.328180
-0.711110293865 0.349632501602 0.647949993610 -0.944608 0.003743 0.328180
-0.701344430447 0.258392512798 0.676679790020 -0.944109 0.001244 0.329630
-0.737038314342 0.237047120929 0.574086785316 -0.944882 0.001245 0.327410
-0.670880973339 0.244173556566 0.754887759686 -0.928213 0.001270 0.372047
-0.676139414310 0.275421559811 0.741614162922 -0.929088 0.001271 0.369856
-0.663569450378 0.347231566906 0.772932291031 -0.929088 0.001271 0.369856
-0.688402652740 0.363713413477 0.710612356663 -0.930297 0.003807 0.366788
-0.684259414673 0.505589783192 0.719909071922 -0.930297 0.003807 0.366788
-0.650395572186 0.587844491005 0.805141746998 -0.930303 0.001269 0.366791
-0.673652410507 0.601435482502 0.746259689331 -0.930303 0.001269 0.366791
-0.692318320274 0.571760356426 0.698972165585 -0.931498 0.003802 0.363728
-0.683229863644 0.629990994930 0.721636533737 -0.931498 0.003802 0.363728
-0.666125118732 0.830382227898 0.763957262039 -0.931504 0.001267 0.363730
0.833517491817 -0.813159883022 0.277029901743 0.951352 -0.006186 0.308045
0.807202458382 -0.973832964897 0.305657804012 0.000978 -0.000978 0.999999
0.806135535240 -0.800033032894 0.305784672499 -0.002938 -0.000979 0.999995
0.799756169319 -0.634029328823 0.305880576372 -0.002950 -0.002950 0.999991
0.836596906185 -0.282171398401 0.272950619459 0.945148 -0.001242 0.326641
0.836548268795 -0.392089873552 0.272666424513 0.949911 -0.001235 0.312519
0.843687713146 -0.497616499662 0.247361794114 0.970628 -0.001185 0.240583
0.843056023121 -0.590605437756 0.249223977327 0.974582 -0.003518 0.224001
0.843531131744 -0.871723771095 0.239854171872 0.974454 -0.005877 0.224512
0.851083755493 -0.808621764183 0.208410993218 0.975570 -0.008218 0.219533
0.848094761372 -0.813782453537 0.221535861492 0.975570 -0.008218 0.219533
0.863405704498 -0.128435969353 -0.034854762256 0.999995 -0.000979 -0.002938
0.863447487354 -0.021451413631 -0.056290872395 0.999995 -0.000979 -0.002938
0.863464653492 -0.140600100160 -0.004859346431 0.999995 -0.000979 0.002938
0.851319730282 0.061076041311 0.064107477665 -0.001009 0.999445 0.033281
0.798489511013 -0.063578888774 0.307812303305 0.000979 -0.002938 0.999995
0.817213892937 -0.219079107046 0.307227492332 0.000981 -0.002944 0.999995
0.838803827763 -0.187601342797 0.266656458378 0.940631 -0.001253 0.339429
0.832904279232 0.051161572337 0.284601122141 0.940631 -0.001253 0.339429
0.855705142021 -0.575885653496 0.186652272940 0.993508 -0.001083 0.113760
0.858484268188 -0.709839463234 0.158019497991 0.993437 -0.005441 0.114251
0.855555713177 -0.885724425316 0.174378931522 0.993188 -0.005439 0.116398
0.860176086426 -0.891959309578 0.133788689971 0.999559 -0.005043 0.029250
0.862162947655 -0.788272380829 0.082772612572 0.999437 -0.003038 0.033416
0.861162304878 -0.951025843620 0.095928922296 0.999437 -0.003038 0.033416
0.862771689892 -0.774749875069 0.029556646943 0.999995 -0.002944 -0.000981
0.863184928894 -0.627948880196 0.056968554854 0.999999 -0.000978 -0.000978
0.863192677498 -0.557387173176 0.020781399682 0.999999 -0.000978 -0.000978
0.863241136074 -0.421036422253 0.060111936182 0.999999 -0.000978 0.000978
0.863349735737 -0.238765493035 0.016389591619 0.999999 -0.000978 0.000978
0.863290727139 -0.199590414762 0.068802438676 0.999999 -0.000979 0.000979
0.860626697540 -0.043036844581 0.147413343191 0.999482 -0.007089 0.031392
0.860741555691 -0.286741316319 0.133127138019 0.999036 0.001020 0.043880
0.860654771328 -0.410411238670 0.139427095652 0.999036 0.001020 0.043880
0.863189876080 -0.435500979424 0.071244716644 0.999575 -0.001005 0.029133
0.863144695759 -0.454280465841 0.072338044643 0.999575 -0.001005 0.029133
0.863090217113 -0.312400996685 -0.076425462961 0.999995 -0.000981 -0.002944
0.863402783871 -0.083206363022 -0.051207304001 0.999995 -0.000981 -0.002944
0.863357067108 -0.132066547871 -0.047801714391 0.999995 -0.000981 -0.002944
0.863231003284 -0.110830456018 -0.102851763368 0.999987 -0.000981 0.004907
0.863077104092 -0.253105401993 -0.105351485312 0.999987 -0.000981 0.004907
0.863072633743 -0.364381670952 -0.070069886744 0.999987 -0.000983 -0.004916
0.862896382809 -0.615252137184 -0.051940463483 0.999987 -0.000983 -0.004916
0.862661957741 -0.687663614750 -0.071485564113 0.999984 -0.002956 -0.004926
0.862788259983 -0.768797755241 0.007043830585 0.999991 -0.002944 0.002944
0.862308084965 -0.937433719635 -0.048889223486 0.999995 -0.000981 -0.002944
0.862925112247 -0.383923918009 -0.103527829051 0.999995 -0.000981 0.002944
0.798170924187 -0.557997345924 0.306118696928 0.000981 -0.002944 0.999995
-0.838654816151 -0.929852366447 0.260445773602 -0.951597 -0.003703 0.307325
-0.841015398502 -0.951031088829 0.251309126616 -0.974464 -0.003526 0.224515
-0.846861243248 -0.469658702612 0.232044100761 -0.974588 -0.001173 0.224003
-0.854369759560 -0.305874615908 0.193657591939 -0.992979 0.001085 0.118289
-0.855787992477 -0.461229085922 0.182674020529 -0.993536 0.001081 0.113516
-0.856785356998 -0.596941411495 0.174717873335 -0.993536 0.001081 0.113516
-0.861739695072 -0.344969511032 0.092561699450 -0.999028 0.003068 0.043970
-0.860832154751 -0.271620810032 0.106344796717 -0.999028 0.003068 0.043970
-0.861714065075 -0.512683749199 0.104065507650 -0.999573 0.001007 0.029192
-0.861568152905 -0.617586493492 0.115642867982 -0.999573 0.001007 0.029192
-0.862409174442 -0.348921418190 0.043578665704 -0.999995 0.002938 0.000979
-0.862181305885 -0.249522745609 0.041805256158 -0.999995 0.002938 0.000979
-0.862865686417 -0.578125178814 0.002027911134 -0.999999 0.000979 -0.000979
-0.862363100052 -0.367649912834 -0.037457160652 -0.999995 0.000981 -0.002944
-0.862162590027 -0.313982933760 -0.065864957869 -0.999995 0.000981 -0.002944
-0.862296342850 -0.474397540092 -0.086802408099 -0.999987 0.000983 -0.004916
-0.862757384777 -0.643407046795 -0.048697706312 -0.999987 0.000983 -0.004916
-0.862571716309 -0.406258553267 -0.111022017896 -0.996331 0.001057 0.085581
-0.863015711308 -0.379232674837 -0.115733698010 -0.985302 0.001131 0.170816
-0.864207029343 -0.713882863522 -0.119119398296 -0.984851 0.001133 0.173397
-0.862640023232 -0.767778038979 -0.104289494455 -0.999987 0.000981 0.004907
-0.862722337246 -0.869898855686 -0.091193340719 -0.999995 0.000981 -0.002944
-0.862546265125 -0.704520642757 -0.095505990088 -0.999995 0.000981 -0.002944
-0.862929344177 -0.692850470543 -0.023037590086 -0.999987 0.000983 -0.004916
-0.862925052643 -0.987380385399 0.060403790325 -0.999995 0.000979 0.002938
-0.861332297325 -0.941201090813 0.110472857952 -0.999443 -0.001011 0.033348
-0.863037586212 -0.677675306797 0.047715231776 -0.999999 -0.000978 -0.000978
-0.861839592457 -0.709918320179 0.104826703668 -0.999573 -0.001007 0.029192
-0.856416404247 -0.863813698292 0.171710476279 -0.993227 -0.003256 0.116148
-0.836331903934 -0.990424573421 0.128986328840 -0.000978 -0.999999 0.000978
-0.845063924789 -0.946889936924 0.233393132687 -0.975699 -0.005857 0.219035
-0.854602336884 -0.856700181961 0.187717571855 -0.993475 -0.003257 0.114005
-0.823364496231 -0.984604835510 0.240705937147 -0.001055 -0.996523 0.083307
-0.817394256592 -0.976315081120 0.296666145325 -0.003401 -0.985231 0.171197
-0.819148838520 -0.818747758865 0.305778026581 -0.000978 -0.000978 0.999999
-0.801012277603 -0.876302838326 0.305728942156 0.002938 -0.000979 0.999995
-0.820253908634 -0.062001660466 0.307799160480 -0.000981 -0.002944 0.999995
-0.797686159611 0.037312448025 0.308172851801 -0.000979 -0.002938 0.999995
-0.836588323116 0.062769830227 0.182752475142 0.005004 0.999807 -0.019015
-0.853183567524 0.067942805588 -0.058097220957 -0.001020 0.998945 0.045917
-0.861568927765 0.015982937068 -0.101485982537 -0.999987 0.000981 0.004907
-0.861831963062 -0.172330096364 -0.090704694390 -0.999995 0.000981 -0.002944
-0.861856400967 -0.016949770972 -0.011544566602 -0.999995 0.000981 -0.002944
-0.861839056015 -0.051733080298 0.036246359348 -0.999995 0.000979 0.002938
-0.860929191113 -0.183527499437 0.098646126688 -0.999036 0.001020 0.043880
-0.859304606915 -0.102060355246 0.137745767832 -0.999217 -0.001014 0.039563
-0.858876705170 -0.025591980666 0.152286276221 -0.996069 -0.005327 0.088421
-0.861645817757 0.063710734248 0.036652665585 -0.999995 0.000981 0.002944
-0.844685554504 0.021237816662 0.240072861314 -0.966452 -0.001195 0.256844
-0.830463051796 -0.079667717218 0.286231607199 -0.944882 0.001245 0.327410
-0.826346814632 -0.322852164507 0.299849689007 -0.944882 0.001245 0.327410
-0.829722940922 -0.597592234612 0.291333884001 -0.949911 0.001235 0.312519
-0.840379536152 -0.280282795429 0.257749706507 -0.970628 0.001185 0.240583
-0.843792200089 -0.283729404211 0.243989959359 -0.970628 0.001185 0.240583
-0.835552215576 -0.656668484211 0.273609846830 -0.949663 -0.003714 0.313252
0.864979684353 -0.764139354229 -0.123151734471 0.968656 -0.001189 0.248404
0.875636041164 -0.394870340824 -0.164611771703 0.968656 0.001189 0.248404
0.872987091541 -0.318264782429 -0.154215320945 0.970072 -0.001184 0.242814
0.868170797825 -0.033773556352 -0.134600102901 0.970765 -0.001182 0.240031
0.876621663570 -0.922117233276 -0.169069752097 0.993261 -0.001083 0.115898
0.852673709393 -0.937986075878 -0.354222655296 0.976318 -0.003508 -0.216310
0.859918415546 -0.823514640331 -0.323312938213 0.975822 -0.003506 -0.218537
0.872330307961 -0.964141607285 -0.245266780257 0.991423 -0.003294 -0.130653
0.873657464981 -0.700530469418 -0.239607736468 0.992057 -0.001094 -0.125785
0.868901908398 -0.474809169769 -0.282060235739 0.992018 -0.003288 -0.126057
0.868059337139 -0.589740157127 -0.285692662001 0.992018 -0.003288 -0.126057
0.871881604195 -0.345326781273 -0.261298596859 0.992653 -0.003269 -0.120949
0.873432576656 -0.345106601715 -0.248546257615 0.992653 -0.003269 -0.120949
0.873465180397 -0.179033264518 -0.251611590385 0.992653 -0.003269 -0.120949
0.873403251171 -0.119365498424 -0.253549367189 0.992943 -0.003263 -0.118544
0.860524535179 0.080269068480 -0.303807973862 -0.001040 0.997710 0.067624
0.862866818905 0.049457564950 -0.323526203632 0.974464 -0.003526 -0.224515
0.855465233326 -0.044616237283 -0.354323625565 0.975092 -0.003520 -0.221772
0.855850219727 -0.225298240781 -0.350101470947 0.975092 -0.003520 -0.221772
0.859313964844 -0.384684681892 -0.332257688046 0.975092 -0.003520 -0.221772
0.857255458832 -0.484848320484 -0.339931845665 0.975822 -0.003506 -0.218537
0.858668506145 -0.695735096931 -0.330712020397 0.975822 -0.003506 -0.218537
0.842343449593 -0.723541080952 -0.392023384571 0.954626 -0.003676 -0.297785
0.835777819157 -0.332979142666 -0.417156666517 0.954626 -0.003676 -0.297785
0.837565898895 -0.209602922201 -0.412780433893 0.953706 -0.003682 -0.300718
0.842582225800 -0.268225818872 -0.396125048399 0.953706 -0.003682 -0.300718
0.834942102432 0.007035337389 -0.423373311758 0.953706 -0.003682 -0.300718
0.845082879066 0.060246266425 -0.391817837954 0.953483 -0.003691 -0.301424
0.877695024014 -0.103217743337 -0.194270744920 0.999999 -0.000979 -0.000979
0.877079606056 -0.566702544689 -0.192357823253 0.999999 -0.000979 -0.000979
0.877242445946 -0.457302272320 -0.175267502666 0.999999 -0.000979 -0.000979
0.876609027386 -0.955640554428 -0.197500899434 0.999999 -0.000979 -0.000979
-0.873435854912 -0.755050420761 -0.155423790216 -0.966882 0.003594 0.255199
-0.877042591572 -0.785295963287 -0.196585029364 -0.999999 0.000979 -0.000979
-0.877085685730 -0.830001771450 -0.213462606072 -0.999999 0.000979 -0.000979
-0.872828364372 -0.954229593277 -0.225747004151 -0.849278 0.004051 0.527930
-0.871708512306 -0.686616122723 -0.254945874214 -0.992057 0.001094 -0.125785
-0.866971671581 -0.769248962402 -0.291705369949 -0.991465 -0.001096 -0.130369
-0.864595413208 -0.873703241348 -0.303609520197 -0.975939 -0.001166 -0.218041
-0.860750973225 -0.666704416275 -0.321489393711 -0.975939 -0.001166 -0.218041
-0.836172223091 -0.639812707901 -0.412276685238 -0.954848 -0.001223 -0.297091
-0.833319962025 -0.205104917288 -0.422377765179 -0.954848 -0.001223 -0.297091
-0.837347567081 -0.311346203089 -0.409185767174 -0.954848 -0.001223 -0.297091
-0.850111961365 -0.243860661983 -0.368798375130 -0.953933 -0.001225 -0.300017
-0.840584754944 -0.341250300407 -0.398750662804 -0.953933 -0.001225 -0.300017
-0.857707142830 -0.530332803726 -0.335404932499 -0.975828 -0.001169 -0.218539
-0.851694345474 -0.302615910769 -0.362865865231 -0.975828 -0.001169 -0.218539
-0.856042504311 -0.204175263643 -0.344142168760 -0.974705 -0.001170 -0.223492
-0.868691623211 -0.525058329105 -0.279033303261 -0.991782 -0.001093 -0.127937
-0.871910810471 -0.402857750654 -0.253869980574 -0.992690 0.001087 -0.120688
-0.873449862003 -0.549641311169 -0.241496145725 -0.992690 0.001087 -0.120688
-0.876621067524 -0.467656403780 -0.209481835365 -0.999999 0.000979 -0.000979
-0.876591563225 -0.416653573513 -0.176639914513 -0.999999 0.000979 -0.000979
-0.868728697300 -0.492727577686 -0.139569178224 -0.968503 0.003574 0.248976
-0.868082761765 -0.876909196377 -0.133718520403 -0.968509 0.001191 0.248977
-0.864615976810 -0.379546880722 -0.124093838036 -0.969932 0.001187 0.243373
-0.867730200291 -0.195964619517 -0.138089776039 -0.969926 0.003562 0.243372
-0.876125931740 -0.042799483985 -0.185829967260 -0.999999 0.000979 -0.000979
-0.876309752464 -0.188245445490 -0.181525021791 -0.999999 0.000979 -0.000979
-0.873228907585 -0.000202804396 -0.219403743744 -0.264338 -0.006035 -0.964411
-0.867520689964 0.052911330014 -0.290463089943 -0.992979 0.001085 -0.118289
-0.866479516029 0.021025650203 -0.298995614052 -0.992690 -0.001087 -0.120688
-0.861171662807 0.059705186635 -0.322705566883 -0.974588 -0.001173 -0.224003
-0.864561736584 -0.181097969413 -0.306906968355 -0.974705 -0.001170 -0.223492
-0.850268781185 -0.155763715506 -0.368599176407 -0.953712 -0.001227 -0.300720
-0.832644939423 0.025520617142 -0.425038695335 -0.953933 -0.001225 -0.300017
-0.873310387135 0.054714545608 -0.162998110056 -0.970765 0.001182 0.240031
-0.836160719395 -0.893776118755 -0.411819070578 -0.955540 -0.001223 -0.294859
-0.836427032948 -0.910643100739 -0.410927385092 -0.955540 -0.001223 -0.294859
0.826255917549 0.259905964136 0.305690377951 0.939223 -0.006287 0.343250
0.836769104004 0.475105047226 0.280453473330 0.938121 -0.003778 0.346286
0.828729629517 0.615968585014 0.304195165634 0.938121 -0.003778 0.346286
0.809947431087 0.648540735245 0.314404368401 0.000989 -0.010880 0.999940
0.841166019440 0.397401899099 0.266905069351 0.964591 -0.003613 0.263727
0.843017697334 0.130884170532 0.255364209414 0.965365 -0.003607 0.260877
0.853202104568 0.153426110744 0.217587828636 0.966714 -0.006004 0.255789
0.827188491821 0.066699892282 0.275435537100 -0.001009 -0.999445 0.033281
0.823285222054 0.444502353668 0.312086850405 -0.000989 -0.010880 0.999940
0.797470033169 0.437337160110 0.312013834715 0.000989 -0.010880 0.999940
0.864414334297 0.757088959217 -0.033694721758 0.999995 -0.000979 -0.002938
0.864288985729 0.904529154301 0.096715576947 0.999507 -0.003026 0.031266
0.864150226116 0.941281318665 0.104019217193 0.999507 -0.003026 0.031266
0.859696984291 0.979039371014 0.189098581672 0.992323 -0.003282 0.123630
0.863068580627 1.006302952766 0.143715843558 0.999685 0.001003 0.025067
0.854056835175 0.974862039089 0.230047583580 0.962997 -0.006041 0.269446
0.855723917484 0.577410697937 0.211312443018 0.992052 -0.003281 0.125784
0.856217384338 0.769537150860 0.211468189955 0.992323 -0.003282 0.123630
0.851055800915 0.729825198650 0.236519604921 0.963805 -0.003619 0.266584
0.855989217758 0.475591182709 0.206944555044 0.992052 -0.003281 0.125784
0.859695017338 0.438297003508 0.176612958312 0.992052 -0.003281 0.125784
0.863510847092 0.269889801741 0.094231829047 0.999513 -0.001007 0.031203
0.861971497536 0.361495852470 0.148223981261 0.999513 -0.001007 0.031203
0.864031374454 0.784232318401 0.098322682083 0.999511 -0.001009 0.031266
0.862074375153 0.879802525043 0.165475696325 0.999507 -0.003026 0.031266
0.864169001579 0.614891111851 0.081407621503 0.999995 -0.000979 0.002938
0.864239573479 0.577393352985 0.036095231771 0.999995 -0.000979 0.002938
0.864039421082 0.451922327280 0.078465618193 0.999995 -0.000979 0.002938
0.863979339600 0.283432483673 0.028112478554 0.999999 -0.000979 0.000979
0.863963305950 0.316509395838 0.060624558479 0.999999 -0.000979 0.000979
0.862311780453 0.130167409778 0.121224075556 0.999507 -0.003026 0.031266
0.863604247570 0.101612754166 0.051872689277 0.999995 -0.000981 0.002944
0.863955259323 0.253018975258 -0.014596089721 0.999995 -0.000981 -0.002944
0.864029765129 0.538348019123 -0.089403949678 0.999995 -0.000981 -0.002944
0.863818883896 0.369468390942 -0.093169361353 0.999995 -0.000981 -0.002944
0.864152073860 0.500262439251 -0.032904639840 0.999995 -0.000979 -0.002938
0.864201426506 0.592761814594 -0.046774677932 0.999995 -0.000979 -0.002938
0.863960325718 0.475531578064 -0.099857106805 0.999995 -0.000979 0.002938
0.863643765450 0.129920974374 -0.046632535756 0.999995 -0.000981 -0.002944
0.864234268665 0.690171360970 -0.092356003821 0.999917 -0.000991 0.012883
0.864475488663 0.764723896980 0.012104593217 0.999995 -0.000979 0.002938
-0.841331899166 0.192427754402 0.254360556602 -0.965534 -0.001199 0.260274
-0.858992934227 0.245365321636 0.158632621169 -0.992356 -0.003275 0.123362
-0.859270632267 0.110733017325 0.151641160250 -0.999513 -0.001007 0.031203
-0.861439824104 0.237670660019 0.082201257348 -0.999513 -0.001007 0.031203
-0.861545860767 0.182658284903 0.042696479708 -0.999999 0.000979 0.000979
-0.861586809158 0.127734407783 0.039608385414 -0.999995 0.000979 0.002938
-0.861514866352 0.192671671510 -0.038204558194 -0.999995 0.000981 -0.002944
-0.861434876919 0.162572294474 -0.073205947876 -0.999995 0.000981 -0.002944
-0.861463785172 0.085942253470 -0.098669022322 -0.999987 0.000981 0.004907
-0.862150788307 0.145925045013 -0.115914203227 -0.987889 0.001116 0.155160
-0.839194655418 0.067576460540 0.226019963622 0.001001 -0.999735 0.023017
-0.812535822392 0.307853788137 0.310511708260 0.000989 -0.010880 0.999940
-0.792769193649 0.493672460318 0.312644541264 -0.000989 -0.010880 0.999940
-0.836734533310 1.041414976120 0.148721441627 0.000983 0.999976 -0.006883
-0.861433565617 0.521111547947 -0.113514341414 -0.997548 0.001045 0.069985
-0.861152589321 0.348223716021 -0.090638235211 -0.999995 0.000981 -0.002944
-0.861115336418 0.458003759384 -0.057279437780 -0.999995 0.000981 -0.002944
-0.861311852932 0.382883816957 0.047543264925 -0.999999 0.000979 0.000979
-0.861040174961 0.502781391144 0.077665388584 -0.999995 0.000979 0.002938
-0.860775589943 0.421491771936 0.097287505865 -0.999513 0.001007 0.031203
-0.858767807484 0.549413979053 0.156771123409 -0.999511 0.001009 0.031266
-0.858913540840 0.525162160397 0.153128296137 -0.999511 0.001009 0.031266
-0.857851386070 0.295337617397 0.168020546436 -0.992091 -0.001091 0.125512
-0.854665100574 0.461595565081 0.193749010563 -0.992091 -0.001091 0.125512
-0.838062167168 0.455577433109 0.268518716097 -0.964763 -0.001201 0.263117
-0.827764570713 0.285975188017 0.295171231031 -0.938422 -0.003769 0.345470
-0.828121006489 0.149799957871 0.293297231197 -0.938727 -0.001253 0.344659
-0.827939331532 0.416072309017 0.295793473721 -0.937301 -0.003774 0.348500
-0.821920931339 0.754189550877 0.314604312181 -0.937301 -0.003774 0.348500
-0.855913817883 1.035478353500 0.185746759176 -0.992091 -0.001091 0.125512
-0.852490067482 0.952077090740 0.212310433388 -0.992091 -0.001091 0.125512
-0.858009696007 1.025796651840 0.167554989457 -0.999513 -0.001007 0.031203
-0.859997332096 0.967184066772 0.100920230150 -0.999672 0.005023 0.025117
-0.859460532665 1.028493642807 0.117967985570 -0.999568 -0.003026 0.029251
-0.861376166344 0.754610717297 -0.095885314047 -0.998489 -0.019865 0.051231
-0.860861837864 0.695831239223 -0.013364754617 -0.999995 0.000979 -0.002938
-0.860504209995 0.887812733650 0.046774081886 -0.999995 0.000979 0.002938
-0.860733032227 0.741827309132 -0.039775498211 -0.999995 0.000979 -0.002938
-0.860670387745 0.784291803837 0.035050477833 -0.999995 0.000981 0.002944
-0.860860586166 0.704987406731 0.011053814553 -0.999995 0.000981 0.002944
-0.860945940018 0.586128115654 0.057602383196 -0.999995 0.000979 0.002938
-0.860987961292 0.586385130882 -0.029222359881 -0.999995 0.000981 -0.002944
-0.859060585499 0.753216505051 0.138222992420 -0.999511 0.001009 0.031266
-0.858622968197 0.753023326397 0.152193814516 -0.999511 0.001009 0.031266
-0.858706772327 0.700068116188 0.151867061853 -0.999511 0.001009 0.031266
-0.843136668205 0.692383766174 0.251741260290 -0.963981 -0.001203 0.265967
-0.838403522968 0.681768774986 0.268927931786 -0.964763 -0.001201 0.263117
-0.860376834869 0.948058485985 0.068673521280 -0.999984 0.002956 -0.004926
0.870703160763 0.376665115356 -0.144604831934 0.971447 0.001180 0.237255
0.868031978607 0.497512370348 -0.133259087801 0.972654 -0.001179 0.232258
0.870901882648 0.569122910500 -0.145117044449 0.972654 -0.001179 0.232258
0.870527446270 0.601683914661 -0.143326416612 0.976071 -0.008222 0.217296
0.869486510754 0.825233876705 -0.065000064671 0.974315 -0.160490 0.157963
0.878236293793 0.477439343929 -0.176061585546 0.993231 -0.001085 0.116148
0.878501713276 0.542833328247 -0.178000718355 0.993536 -0.001081 0.113516
0.869251191616 0.082662664354 -0.274877816439 -0.001028 -0.998513 -0.054502
0.847604274750 0.255048274994 -0.385828852654 0.953706 -0.003682 -0.300718
0.862696051598 0.211411818862 -0.326300680637 0.974582 -0.003518 -0.224001
0.873301863670 0.139243915677 -0.259100049734 0.992979 -0.001085 -0.118289
0.872604012489 0.197731181979 -0.265974849463 0.992979 -0.001085 -0.118289
0.873744666576 0.237830206752 -0.230542823672 0.999685 -0.001003 -0.025067
0.874120116234 0.406188338995 -0.225370258093 0.999685 -0.001003 -0.025067
0.873483657837 0.410923451185 -0.262165993452 0.992979 -0.001085 -0.118289
0.872218668461 0.332038462162 -0.271504163742 0.992979 -0.001085 -0.118289
0.858585953712 0.445068806410 -0.346873968840 0.974582 -0.003518 -0.224001
0.849786818027 0.476181566715 -0.381180882454 0.953706 -0.003682 -0.300718
0.844780921936 0.280461251736 -0.395020902157 0.953706 -0.003682 -0.300718
0.846908271313 0.543007493019 -0.390969336033 0.953706 -0.003682 -0.300718
0.857518136501 0.583557009697 -0.353128820658 0.974582 -0.003518 -0.224001
0.871611833572 0.663578629494 -0.282557755709 0.992948 -0.001088 -0.118545
0.855115592480 0.689498126507 -0.364789634943 0.974582 -0.003518 -0.224001
0.840053141117 0.642253279686 -0.413667351007 0.953706 -0.003682 -0.300718
0.846347332001 0.599739313126 -0.393319904804 0.953706 -0.003682 -0.300718
0.878316819668 0.391061663628 -0.213023349643 0.999999 -0.000979 -0.000979
0.878506302834 0.520282506943 -0.190822333097 0.999999 -0.000979 -0.000979
0.874468684196 0.598250031471 -0.224264830351 0.999680 -0.003014 -0.025118
0.854915261269 0.514778196812 -0.363623678684 0.974582 -0.003518 -0.224001
-0.875920414925 0.104722648859 -0.175934761763 -0.999917 0.000991 0.012883
-0.875934243202 0.090849414468 -0.215584695339 -0.999999 0.000979 -0.000979
-0.871242642403 0.377288579941 -0.229736670852 -0.999685 0.001003 -0.025067
-0.865652203560 0.710740029812 -0.303263515234 -0.992979 0.001085 -0.118289
-0.871100962162 0.535102307796 -0.228601157665 -0.999685 0.001003 -0.025067
-0.875616669655 0.343796312809 -0.210814535618 -0.999999 0.000979 -0.000979
-0.875306487083 0.668708145618 -0.206913799047 -0.999999 0.000978 -0.000978
-0.869466602802 0.363773405552 -0.150562718511 -0.971983 0.003543 0.235024
-0.870703279972 0.532624959946 -0.157374680042 -0.972654 0.001179 0.232258
-0.872310698032 0.580550611019 -0.164506807923 -0.972654 0.001179 0.232258
-0.875230312347 0.728568255901 -0.209610134363 -0.999999 0.000978 0.000978
-0.845767855644 0.803734004498 -0.184272468090 0.003944 0.895208 -0.445632
-0.869056820869 0.739905238152 -0.147342458367 -0.978975 -0.010477 0.203711
-0.874088346958 0.750041782856 -0.170998319983 -0.979580 -0.027112 0.199217
-0.872902095318 0.819684028625 -0.120777912438 -0.976887 -0.158448 0.143476
-0.862847685814 1.021110296249 0.003829362104 0.001152 0.199215 -0.979955
-0.835294961929 0.616272866726 -0.417900890112 -0.953712 -0.001227 -0.300720
-0.849567413330 0.436920166016 -0.372359424829 -0.953712 -0.001227 -0.300720
-0.843195974827 0.265071332455 -0.392148375511 -0.953712 -0.001227 -0.300720
-0.850155532360 0.170873522758 -0.369937062263 -0.953712 -0.001227 -0.300720
-0.836416602135 0.135457694530 -0.413338780403 -0.953712 -0.001227 -0.300720
-0.858260512352 0.155751317739 -0.335518449545 -0.974705 -0.001170 -0.223492
-0.857895672321 0.328968882561 -0.337200075388 -0.974705 -0.001170 -0.223492
-0.865322887897 0.467536181211 -0.305065929890 -0.974705 -0.001170 -0.223492
-0.856146991253 0.604199707508 -0.344976574183 -0.974705 -0.001170 -0.223492
-0.868316173553 0.566061556339 -0.281399041414 -0.992979 0.001085 -0.118289
-0.867899358273 0.288486450911 -0.286135852337 -0.992979 0.001085 -0.118289
-0.872407793999 0.168404251337 -0.248594179749 -0.992979 0.001085 -0.118289
-0.870123267174 0.093275897205 -0.268274366856 -0.992979 0.001085 -0.118289
-0.846890509129 0.680209755898 -0.381343930960 -0.953712 -0.001227 -0.300720
0.346947222948 -2.329355239868 -0.165367141366 0.036864 -0.319062 0.947017
0.518572211266 -2.255765676498 -0.158776417375 0.009205 -0.037842 0.999241
0.606494128704 -2.199410438538 -0.157961159945 0.000983 0.006883 0.999976
-0.254224598408 -2.234044790268 -0.150961488485 -0.099821 -0.994991 0.005367
-0.871783852577 -1.894017457962 -0.200249835849 0.001273 0.925729 -0.378186
-0.732631206512 -2.260864734650 -0.308603495359 -0.578087 -0.805773 -0.128628
-0.676831126213 -2.242954492569 -0.439518332481 -0.183707 -0.915688 -0.357446
-0.436422407627 -2.302489042282 -0.448122560978 -0.172973 -0.819740 -0.545992
-0.510317981243 -2.254088401794 -0.434508740902 -0.048102 -0.245446 0.968216
-0.683637499809 -2.236651420593 -0.341815024614 0.396761 -0.196200 -0.896709
-0.626857161522 -2.227074861526 -0.338877975941 -0.000983 -0.006883 -0.999976
-0.563381195068 -2.317773103714 -0.284988224506 -0.224698 -0.970344 -0.089126
-0.610925614834 -2.305976867676 -0.292020022869 -0.231417 -0.969451 -0.081309
-0.818604707718 -2.160922527313 -0.274755477905 -0.915673 -0.386924 -0.108779
-0.806224465370 -2.172729253769 -0.332623690367 -0.916721 -0.373686 -0.141357
-0.856486082077 -1.996726632118 -0.334475666285 -0.972362 -0.106922 -0.207555
-0.871060371399 -1.969903945923 -0.265970826149 -0.983858 -0.107177 -0.143304
-0.871811926365 -1.965601444244 -0.263651818037 -0.991356 -0.062744 -0.115221
-0.748356759548 -2.186548709869 -0.160348698497 -0.103702 -0.132310 0.985769
-0.876574277878 -1.929104447365 -0.226424261928 -0.997883 -0.041534 -0.050054
-0.650474965572 -2.181395053864 -0.158061414957 0.000983 0.006883 0.999976
-0.455882966518 -2.279682636261 -0.284334599972 -0.771485 -0.636234 0.004140
-0.268635123968 -2.327005863190 -0.443854212761 0.347397 -0.904405 0.247722
-0.384053766727 -2.322506189346 -0.437432974577 -0.125206 -0.805735 -0.578892
-0.347788959742 -2.346380233765 -0.399529606104 -0.129616 -0.947398 -0.292638
-0.300240010023 -2.270709514618 -0.415199965239 0.945015 -0.034434 0.325208
-0.306883186102 -2.266042470932 -0.280583053827 0.999708 -0.023109 -0.007033
-0.308294266462 -2.331717014313 -0.234035387635 0.999735 -0.023017 0.001001
-0.307882606983 -2.338135480881 -0.209751278162 0.986081 -0.026403 -0.164156
-0.479148924351 -2.258942604065 -0.158552363515 -0.005043 -0.029250 0.999559
-0.529494702816 -2.226589918137 -0.157822847366 -0.007145 -0.037766 0.999261
-0.234368175268 -2.245625495911 -0.157672405243 0.000983 0.006883 0.999976
-0.355359166861 -2.281917333603 -0.158585280180 -0.005093 -0.037689 0.999277
-0.275862812996 -2.303617238998 -0.159496203065 -0.009949 -0.129333 0.991551
-0.174757272005 -2.291542291641 -0.158232390881 -0.003044 -0.037537 0.999291
-0.151412636042 -2.275060415268 -0.157683819532 0.001007 -0.029192 0.999573
-0.150962769985 -2.259294271469 -0.157589569688 0.000983 0.006883 0.999976
0.380244791508 -2.240548372269 -0.157708182931 0.000983 0.006883 0.999976
0.350101530552 -2.289494037628 -0.158835738897 0.005073 -0.035510 0.999356
-0.061546429992 -2.311248540878 -0.158843547106 -0.003300 -0.133100 0.991097
-0.143482908607 -2.331770658493 -0.161958456039 -0.005514 -0.131223 0.991338
0.139102861285 -2.330421686172 -0.161744788289 0.005502 -0.130936 0.991376
0.141920030117 -2.341157197952 -0.163606449962 0.013704 -0.310212 0.950569
0.152722388506 -2.356775522232 -0.171665668488 0.040710 -0.923203 0.382151
0.304224103689 -2.338774204254 -0.229405194521 -0.999780 -0.020974 0.000999
0.302175372839 -2.242773771286 -0.225121527910 -0.999776 -0.020974 -0.002996
0.303443819284 -2.294732809067 -0.287351548672 -0.999795 -0.019015 -0.007006
0.300501793623 -2.279680252075 -0.406505435705 -0.944141 -0.018908 0.329000
0.297129422426 -2.251462459564 -0.411770284176 -0.910501 -0.033133 0.412177
0.230278730392 -2.253514528275 -0.436657726765 0.003128 -0.065688 0.997835
0.173133075237 -2.317842483521 -0.440713763237 0.003128 -0.065688 0.997835
0.128598064184 -2.235267639160 -0.435112595558 0.003128 -0.065688 0.997835
0.012966822833 -2.327800989151 -0.440980672836 0.001041 -0.065552 0.997849
0.072477802634 -2.238873958588 -0.435188651085 0.001041 -0.065552 0.997849
-0.197446212173 -2.281453847885 -0.438446283340 -0.005213 -0.065688 0.997827
0.347586750984 -2.315690040588 -0.449494153261 0.098181 -0.652101 -0.751748
0.363627701998 -2.325270652771 -0.438416123390 0.122304 -0.806028 -0.579103
0.513908565044 -2.244633674622 -0.434485942125 0.036650 -0.195075 0.980103
0.418837130070 -2.314625978470 -0.370026946068 0.731926 -0.672780 -0.107941
0.424357801676 -2.309398412704 -0.360874027014 0.752490 -0.658602 0.001381
0.475943505764 -2.252016544342 -0.323120504618 0.770131 -0.637872 0.004133
0.428735226393 -2.310452461243 -0.286413729191 0.768550 -0.637369 -0.055609
0.329228967428 -2.366621255875 -0.267823100090 0.123121 -0.988487 -0.087944
0.352152317762 -2.365217924118 -0.249502494931 0.119691 -0.992205 -0.034677
0.391155123711 -2.353968143463 -0.297230154276 0.552531 -0.829510 -0.081381
0.667382299900 -2.246281862259 -0.162692323327 0.046827 -0.131345 0.990230
0.441769212484 -2.325753927231 -0.169158667326 0.170489 -0.932836 0.317414
0.688257634640 -2.250137329102 -0.165738746524 0.113639 -0.314179 0.942538
0.824986159801 -2.031831264496 -0.166889980435 0.477701 -0.112652 0.871270
0.843050956726 -2.078911781311 -0.256626844406 0.879031 -0.329447 0.344629
0.552767217159 -2.251622200012 -0.338676184416 -0.000981 -0.004907 -0.999987
0.662341773510 -2.232443809509 -0.338855028152 -0.000983 -0.006883 -0.999976
0.563980340958 -2.252412557602 -0.436857938766 0.039971 -0.228924 0.972623
0.792721569538 -2.189828395844 -0.347243309021 0.837677 -0.529599 -0.133500
0.732636153698 -2.262569904327 -0.281900703907 0.598202 -0.797122 -0.082163
0.753134608269 -2.237813234329 -0.351915478706 0.720277 -0.681343 -0.130279
0.839474201202 -2.079971551895 -0.301992595196 0.965282 -0.241002 -0.100736
0.848205745220 -2.057412624359 -0.272061675787 0.966288 -0.238071 -0.098029
0.868168234825 -1.979235768318 -0.223171547055 0.975321 -0.220538 -0.010614
0.850655257702 -2.021463394165 -0.323351144791 0.963591 -0.217753 -0.155165
0.865312218666 -1.891470551491 -0.174151510000 0.902207 -0.025172 0.430569
0.851725816727 -1.978097796440 -0.360121369362 0.977886 -0.150348 -0.145378
0.869406521320 -1.970624804497 -0.252634227276 0.995106 -0.074162 -0.065307
-0.515692174435 -2.256490468979 -0.158788487315 -0.009205 -0.037842 0.999241
-0.684142649174 -2.232566833496 -0.161748960614 -0.046722 -0.131049 0.990274
-0.478173524141 -2.295114517212 -0.162257462740 -0.027894 -0.123849 0.991909
-0.583918571472 -2.309991598129 -0.314344257116 -0.226133 -0.967134 -0.116260
-0.212040245533 -2.342404603958 -0.324047029018 0.000983 -0.004916 -0.999987
-0.151122108102 -2.336480855942 -0.324101716280 -0.000983 -0.006883 -0.999976
-0.198891595006 -2.283196210861 -0.324443995953 -0.000983 -0.006883 -0.999976
-0.089639835060 -2.354976177216 -0.323998004198 -0.000983 -0.006883 -0.999976
-0.101074658334 -2.377902507782 -0.299169778824 -0.044555 -0.996507 -0.070636
-0.226927131414 -2.375903606415 -0.215613842010 -0.069758 -0.997009 -0.033269
