-0.686628639698 -1.172473788261 -0.375847369432 -0.003757 0.940625 0.339427
-0.616784214973 -1.242957115173 -0.243493765593 -0.004052 0.844099 0.536172
-0.651161789894 -1.445127725601 -0.597682833672 0.999995 0.002938 0.000979
-0.651594340801 -1.320773839951 -0.590864539146 0.999995 0.002938 -0.000979
-0.661397814751 -1.553000092506 -0.570976793766 -0.999995 -0.002938 -0.000979
-0.651272416115 -1.554900050163 -0.522986173630 -0.001341 0.510941 0.859615
-0.661634147167 -1.485032320023 -0.537149906158 -0.999995 -0.002938 0.000979
-0.662234306335 -1.312498688698 -0.567065298557 -0.999995 -0.002938 0.000979
-0.661206007004 -1.608145833015 -0.477391898632 -0.999995 -0.002938 0.000979
-0.650511324406 -1.632153749466 -0.427146434784 0.999995 0.002938 0.000979
-0.647975981236 -1.315784811974 -0.505281627178 0.001368 -0.592312 0.805708
-0.652135729790 -1.622493982315 -0.365730822086 -0.001341 0.510941 0.859615
-0.661275804043 -1.588076591492 -0.360579282045 -0.999995 -0.002938 -0.000979
-0.650679349899 -1.372386932373 -0.252073645592 0.001287 -0.402911 -0.915238
-0.644595563412 -1.299090504646 -0.435507744551 -0.999995 -0.002938 0.000979
-0.644082307816 -1.446657419205 -0.499997645617 -0.999995 -0.002938 0.000979
-0.647021234035 -1.465524435043 -0.465209186077 0.001376 -0.625868 -0.779928
-0.657570064068 -1.502716302872 -0.391024976969 0.003351 -0.988559 0.150797
-0.644606828690 -1.295853018761 -0.431618332863 -0.999995 -0.002938 0.000979
-0.644498407841 -1.327015399933 -0.335472434759 -0.999995 -0.002938 0.000979
-0.671977281570 -1.402757763863 -0.311654061079 -0.001115 0.150466 0.988615
-0.644259750843 -1.395631074905 -0.311414599419 -0.999995 -0.002938 0.000979
-0.644064962864 -1.451642513275 -0.308519482613 -0.999995 -0.002938 0.000979
-0.643942713737 -1.486783266068 -0.309113264084 -0.999995 -0.002938 0.000979
-0.652559816837 -1.300143122673 -0.547573387623 -0.003996 0.872386 0.488802
-0.657622933388 -1.271535038948 -0.426024675369 0.003351 -0.988559 0.150797
-0.652009963989 -1.201271653175 -0.362541854382 0.999995 0.002938 0.000979
-0.650831639767 -1.540051102638 -0.280600368977 0.999995 0.002938 -0.000979
-0.650692045689 -1.580182790756 -0.281786471605 0.999995 0.002938 -0.000979
-0.661391079426 -1.554938554764 -0.310267150402 -0.999995 -0.002938 0.000979
-0.650837361813 -1.538403153419 -0.287543773651 0.999995 0.002938 -0.000979
-0.651448428631 -1.362718224525 -0.244722619653 0.999995 0.002938 0.000979
-0.650788187981 -1.552541136742 -0.218659535050 0.999995 0.002938 -0.000979
-0.651812732220 -1.257981419563 -0.245563909411 0.999995 0.002938 0.000979
-0.657217919827 -1.287447094917 -0.227490812540 0.002973 -0.999936 0.010901
-0.661900401115 -1.408498764038 -0.193093001842 -0.999995 -0.002938 0.000979
-0.651813447475 -1.257776141167 -0.256908416748 0.999995 0.002938 -0.000979
-0.644161045551 -1.423998832703 -0.280123770237 -0.999995 -0.002938 0.000979
-0.644015192986 -1.465950012207 -0.274835914373 -0.999995 -0.002938 0.000979
-0.661684393883 -1.492594242096 -0.436044752598 0.003802 -0.931498 -0.363728
-0.661890804768 -1.411258935928 -0.461030215025 -0.999995 -0.002938 0.000979
-0.661726534367 -1.458489060402 -0.371574819088 -0.999995 -0.002938 0.000979
-0.662227213383 -1.314551353455 -0.396656960249 -0.999995 -0.002938 -0.000979
-0.661685526371 -1.470274329185 -0.410985797644 -0.999995 -0.002938 0.000979
-0.662094891071 -1.352585911751 -0.413069933653 -0.999995 -0.002938 0.000979
-0.661568582058 -1.503893733025 -0.474706828594 -0.999995 -0.002938 0.000979
-0.646009504795 -1.327092647552 -0.491096496582 -0.001368 0.592312 -0.805708
-0.729830741882 -1.385342717171 -0.422183007002 -0.999995 -0.002938 -0.000979
-0.686739325523 -1.341161608696 -0.432189255953 -0.909800 0.380151 -0.166583
-0.673248589039 -1.339039921761 -0.311396896839 -0.910028 0.257720 0.324698
-0.677596390247 -1.393057465553 -0.293033242226 -0.909612 0.060641 0.411010
-0.662105917931 -1.349421739578 -0.305985897779 -0.999995 -0.002938 0.000979
-0.659739971161 -1.550777435303 -0.379586130381 0.003326 -0.990032 -0.140800
-0.661806583405 -1.435471057892 -0.335057646036 -0.999995 -0.002938 -0.000979
-0.690968871117 -1.378989338875 -0.470865756273 -0.001264 0.362873 -0.931838
-0.717426180840 -1.497324943542 -0.365372359753 0.003875 -0.915765 0.401697
-0.712075114250 -1.367045879364 -0.327207684517 -0.001376 0.625868 0.779928
-0.650231659412 -1.208851218224 -0.544152081013 -0.001382 0.744734 -0.667359
-0.651742696762 -1.209385752678 -0.544734776020 -0.001382 0.742124 -0.670261
-0.655108392239 -1.185603737831 -0.511161506176 -0.003975 0.883845 -0.467762
-0.615603864193 -1.195620417595 -0.518956720829 0.999995 0.002938 0.000979
-0.614537954330 -1.196142196655 -0.502994060516 -0.003598 0.965528 -0.260273
-0.696731448174 -1.174692869186 -0.480648756027 -0.999995 -0.002938 0.000979
-0.615443229675 -1.241816520691 -0.471211820841 0.999995 0.002938 0.000979
-0.615677714348 -1.174403905869 -0.417401969433 0.999995 0.002938 0.000979
-0.615469515324 -1.234259724617 -0.416012197733 0.999995 0.002938 -0.000979
-0.696103215218 -1.254052281380 -0.443026363850 0.002985 -0.999852 -0.016913
-0.615398645401 -1.254626870155 -0.336628705263 0.999995 0.002938 -0.000979
-0.620043635368 -1.226247191429 -0.347348183393 -0.001384 0.707106 0.707106
-0.681198358536 -1.180375695229 -0.460840195417 0.130177 0.016689 -0.991350
-0.705293297768 -1.209962248802 -0.492926627398 -0.999995 -0.002938 0.000979
-0.615510463715 -1.222484350204 -0.259494483471 0.999995 0.002938 -0.000979
-0.615452766418 -1.239070534706 -0.271945029497 0.999995 0.002938 -0.000979
-0.646802246571 -1.247423768044 -0.255764126778 0.003714 -0.949663 0.313252
-0.700407147408 -1.227589488029 -0.258583426476 -0.999995 -0.002938 -0.000979
-0.611094594002 -1.237613916397 -0.308493047953 0.003425 -0.982957 0.183805
-0.704388082027 -1.192768812180 -0.427559912205 -0.999995 -0.002938 0.000979
-0.659377098083 -1.174581885338 -0.336736172438 0.002985 -0.999852 -0.016913
0.065242365003 2.198620796204 0.350789278746 -0.133245 -0.651254 0.747070
0.280557870865 2.160769939423 0.355613529682 -0.139471 -0.634370 0.760344
0.156059890985 2.201174259186 0.342506855726 0.175210 0.629232 -0.757211
-0.016837358475 -1.199624657631 0.247958391905 0.001189 -0.246171 0.969226
-0.075774483383 -1.206183433533 0.236073032022 0.123358 -0.962196 -0.242821
0.120131872594 -1.184073328972 0.248728647828 0.123358 -0.962196 -0.242821
0.389106661081 -1.119202733040 0.262924551964 0.069155 -0.255245 0.964400
0.411869287491 -1.103456735611 0.261774122715 0.053434 -0.254741 0.965532
0.462774902582 -1.090577363968 0.252147465944 -0.095390 0.242926 -0.965343
-0.600364029408 -1.127669692039 0.225226223469 -0.082031 -0.367123 0.926548
-0.441480100155 -1.146105051041 0.229789525270 -0.070767 -0.925318 -0.372531
-0.201524645090 -1.166893720627 0.262431591749 -0.024487 -0.362151 0.931798
-0.066138304770 -1.144574165344 0.268626332283 -0.052335 -0.414651 0.908474
0.037138044834 -1.140976548195 0.270618379116 0.046989 -0.420212 0.906208
-0.027710739523 -1.143188357353 0.259958028793 0.014436 0.421260 -0.906825
0.863057076931 -1.042571783066 0.046649020165 0.951164 -0.092892 0.294377
0.415244221687 2.277935743332 0.139094457030 0.153902 0.987055 0.045129
0.558739542961 2.253611564636 0.137328281999 0.187117 0.980873 0.053632
0.750709176064 2.163315057755 0.143445923924 0.789562 0.606349 0.094515
0.675120413303 2.218932867050 0.134202048182 0.468854 0.883251 0.006641
0.649609684944 2.229597568512 0.120217196643 0.322197 0.946532 0.016298
-0.798595905304 2.092598199844 0.173471912742 -0.956138 0.283633 0.073154
-0.779537618160 2.130430698395 0.189668893814 -0.769239 0.547621 0.329215
-0.737651526928 2.184251546860 0.170203819871 -0.638063 0.760024 0.123448
0.664510488510 2.145777702332 0.276698589325 0.388424 0.629744 0.672718
-0.496598124504 2.246509313583 0.213815823197 -0.151197 0.885580 0.439190
-0.789104938507 2.028392791748 0.234678089619 -0.941953 0.063839 0.329619
0.460055083036 -2.231325387955 -0.080676764250 0.250878 -0.902281 0.350642
0.626655280590 -2.163978338242 -0.071220673621 0.394964 -0.826411 0.401309
0.538148880005 -2.152675390244 0.012796623632 0.293709 -0.723840 0.624332
0.609325289726 -2.082975625992 0.049769818783 0.250361 -0.603070 0.757381
-0.575000226498 -2.179831504822 -0.056598864496 -0.359048 -0.838823 0.409220
-0.720034956932 -2.109060764313 -0.084902353585 -0.696945 -0.671659 0.251280
-0.763435781002 -1.991038799286 0.011156427674 -0.869771 -0.365335 0.331705
-0.730295240879 -2.023149967194 0.034483782947 -0.687438 -0.520178 0.506797
-0.549684584141 -2.125689268112 0.035364508629 -0.231894 -0.589851 0.773499
0.791008412838 -1.972692728043 -0.026069231331 0.907111 -0.326794 0.265246
0.793178200722 -1.984811306000 -0.048345822841 0.907628 -0.325928 0.264542
0.677871942520 -2.084661722183 0.016374157742 0.421758 -0.722778 0.547459
-0.637676417828 -2.055629968643 0.057913042605 -0.255533 -0.503323 0.825450
-0.445030927658 -2.196360349655 -0.003883796046 -0.243039 -0.815806 0.524778
-0.430210351944 -2.233444213867 -0.066512629390 -0.213475 -0.887761 0.407810
0.686407268047 1.991011142731 0.290727525949 -0.552283 0.026168 0.833246
0.509946703911 2.144002676010 0.271803110838 -0.245552 -0.583380 0.774191
-0.186920344830 2.210710525513 0.259703546762 0.082786 -0.634695 0.768315
-0.509801387787 2.164860248566 0.284940272570 0.198454 -0.601516 0.773818
-0.667718470097 2.102048635483 0.298977911472 0.396555 -0.393395 0.829448
-0.684233605862 2.078476428986 0.296790212393 0.605064 -0.188412 0.773562
-0.704587697983 1.855705976486 0.281044244766 0.553449 -0.075406 0.829462
-0.715725719929 1.595161557198 0.270899713039 0.528570 -0.045782 0.847654
-0.728125929832 1.502947688103 0.273426264524 0.523246 -0.048577 0.850796
-0.731867074966 1.366410374641 0.268967300653 0.515649 -0.042856 0.855728
-0.753979444504 1.319602131844 0.279965579510 0.516569 -0.037193 0.855438
-0.722054839134 1.174413323402 0.237320840359 0.999731 -0.019129 0.013088
-0.716692030430 1.359245657921 0.073448799551 0.999731 -0.019129 0.013088
-0.714047551155 1.459045410156 0.039946690202 0.999426 -0.033483 0.005073
-0.718323647976 1.361024618149 0.230251759291 0.999426 -0.033483 0.005073
-0.712875247002 1.519430637360 0.218069881201 0.999277 -0.037689 0.005093
-0.713884770870 1.492730021477 0.220662862062 0.999277 -0.037689 0.005093
-0.709157943726 1.607541441917 0.061015307903 0.999505 -0.031329 0.003032
-0.708842039108 1.615851283073 0.043071717024 0.999505 -0.031329 0.003032
-0.709227085114 1.613801956177 0.164035171270 0.999505 -0.031329 0.003032
-0.710878729820 1.559545755386 0.125411167741 0.999505 -0.031329 0.003032
-0.705957949162 1.692101120949 0.099551275373 0.999120 -0.041843 0.003062
-0.708139061928 1.641149163246 0.110627427697 0.999120 -0.041843 0.003062
-0.706474065781 1.669453024864 -0.030687361956 0.999120 -0.041843 0.003062
-0.706062853336 1.684762239456 0.038773044944 0.999120 -0.041843 0.003062
-0.703772544861 1.742921471596 -0.011880740523 0.999374 -0.035367 0.001010
-0.703705549240 1.745523571968 0.066090747714 0.999374 -0.035367 0.001010
-0.701030075550 1.820205807686 -0.044594645500 0.999374 -0.035367 0.001010
-0.701978445053 1.794072985649 0.032316431403 0.999374 -0.035367 0.001010
-0.696964383125 1.860384106636 0.073678627610 0.994321 -0.106419 0.001075
-0.690473675728 1.923292398453 0.275277435780 0.994321 -0.106419 0.001075
-0.692701280117 1.901868224144 0.225594043732 0.994321 -0.106419 0.001075
-0.690708935261 1.918909907341 0.020682305098 0.994321 -0.106419 0.001075
-0.688765108585 1.938130497932 0.125837594271 0.994321 -0.106419 0.001075
-0.688995540142 1.935054421425 0.019506543875 0.994321 -0.106419 0.001075
-0.684829294682 1.973167300224 0.055830180645 0.988615 -0.150466 0.001115
-0.683995127678 1.977390050888 -0.107188038528 0.991428 -0.130653 -0.001098
-0.673393845558 2.029475450516 0.178870648146 0.931504 -0.363730 0.001267
-0.671084582806 2.032881498337 -0.120102599263 0.922424 -0.386161 0.003849
-0.650387763977 2.070297002792 0.242929846048 0.757770 -0.652485 0.006927
-0.643317222595 2.077105522156 0.084526397288 0.764008 -0.645193 0.004145
-0.593736410141 2.108112096786 0.260148763657 0.458263 -0.888792 0.006603
-0.598354160786 2.102339029312 -0.151823043823 0.458263 -0.888792 0.006603
-0.580880522728 2.111783266068 0.061743281782 0.311007 -0.950368 0.008674
-0.525568723679 2.130944013596 0.184101030231 0.311007 -0.950368 0.008674
-0.519765019417 2.129873752594 -0.176996588707 0.311007 -0.950368 0.008674
-0.448157578707 2.151372909546 0.145975425839 0.247877 -0.968755 0.008382
-0.474970251322 2.143975973129 0.083188585937 0.247877 -0.968755 0.008382
-0.493963211775 2.138152122498 -0.032186035067 0.247877 -0.968755 0.008382
-0.427899897099 2.155017137527 -0.042648851871 0.247877 -0.968755 0.008382
-0.437303721905 2.154063701630 0.134550765157 0.247877 -0.968755 0.008382
-0.372067362070 2.166259765625 0.075600288808 0.177169 -0.984148 0.008001
-0.387116521597 2.164067745209 0.139579191804 0.177169 -0.984148 0.008001
-0.353784948587 2.168217897415 -0.087760761380 0.177169 -0.984148 0.008001
-0.394830614328 2.159941673279 -0.192218244076 0.177169 -0.984148 0.008001
-0.326694786549 2.174088001251 0.040806192905 0.136446 -0.990617 0.007765
-0.266960799694 2.183762311935 0.213405519724 0.136446 -0.990617 0.007765
-0.265825450420 2.181937932968 -0.027250275016 0.136446 -0.990617 0.007765
-0.260314166546 2.183178663254 0.030979309231 0.136446 -0.990617 0.007765
-0.224339172244 2.189417123795 0.184987798333 0.136446 -0.990617 0.007765
-0.185869485140 2.192151784897 0.103801362216 0.086305 -0.996241 0.007458
-0.183147639036 2.193388223648 0.225019440055 0.086305 -0.996241 0.007458
-0.202073484659 2.188629388809 -0.151638254523 0.086305 -0.996241 0.007458
-0.120565570891 2.197019815445 0.000099822879 0.086305 -0.996241 0.007458
-0.110395796597 2.196604251862 -0.110587216914 0.012960 -0.999876 0.008972
-0.100620821118 2.198848009109 0.146584078670 0.012960 -0.999876 0.008972
-0.043079011142 2.199333429337 0.114666499197 0.012960 -0.999876 0.008972
-0.033664681017 2.196934938431 -0.191633045673 0.012960 -0.999876 0.008972
-0.010985675268 2.197850704193 -0.116173610091 0.012960 -0.999876 0.008972
-0.028782859445 2.198483705521 -0.011139973998 0.012960 -0.999876 0.008972
0.086698651314 2.200160741806 0.233273699880 -0.006937 -0.999936 0.008919
0.031350303441 2.198882341385 0.037275359035 -0.006937 -0.999936 0.008919
0.038487821817 2.198024511337 -0.061724238098 -0.006937 -0.999936 0.008919
0.023635054007 2.197602033615 -0.123977191746 -0.006937 -0.999936 0.008919
0.058687839657 2.197877407074 -0.064763724804 -0.006937 -0.999936 0.008919
0.100256077945 2.196725130081 -0.138588681817 -0.079448 -0.996811 0.007415
0.180250555277 2.192744493484 0.161352008581 -0.079448 -0.996811 0.007415
0.124539628625 2.195494651794 -0.050238996744 -0.079448 -0.996811 0.007415
0.159151926637 2.192964315414 -0.018637686968 -0.079448 -0.996811 0.007415
0.192688226700 2.191749095917 0.162246391177 -0.079448 -0.996811 0.007415
0.194418370724 2.190695524216 0.051149770617 -0.079448 -0.996811 0.007415
0.247187867761 2.185142040253 0.155789837241 -0.129052 -0.991608 0.007721
0.259272426367 2.183146476746 0.105785652995 -0.129052 -0.991608 0.007721
0.297869533300 2.178936481476 0.209061324596 -0.129052 -0.991608 0.007721
0.283938139677 2.179250955582 0.025278061628 -0.129052 -0.991608 0.007721
0.265084981918 2.180024147034 -0.181184858084 -0.129052 -0.991608 0.007721
0.361103713512 2.168225526810 0.181105941534 -0.171576 -0.985139 0.007954
0.342206865549 2.169796705246 -0.026483833790 -0.171576 -0.985139 0.007954
0.351126998663 2.167787790298 -0.082567490637 -0.171576 -0.985139 0.007954
0.375682353973 2.164087772369 -0.014425858855 -0.171576 -0.985139 0.007954
0.426837414503 2.155062675476 0.155394896865 -0.241687 -0.970319 0.008334
0.443723648787 2.150299072266 0.087769865990 -0.241687 -0.970319 0.008334
0.475012242794 2.140953302383 -0.100623294711 -0.241687 -0.970319 0.008334
0.430332362652 2.151773214340 -0.138781160116 -0.241687 -0.970319 0.008334
0.526727139950 2.127781391144 0.145761668682 -0.305078 -0.952288 0.008646
0.505222916603 2.132666110992 -0.098443359137 -0.305078 -0.952288 0.008646
0.566445648670 2.115552902222 0.206729680300 -0.305078 -0.952288 0.008646
0.551382482052 2.119852542877 0.142458796501 -0.305078 -0.952288 0.008646
0.589829444885 2.103309154510 0.095891386271 -0.451941 -0.892024 0.006588
0.615421533585 2.088106393814 -0.178857177496 -0.451941 -0.892024 0.006588
0.635684728622 2.069795608521 0.164980396628 -0.753854 -0.657029 0.004150
0.627379000187 2.077240705490 -0.081075750291 -0.758946 -0.651117 0.006912
0.645458281040 2.057142257690 0.112265452743 -0.928733 -0.370729 0.003822
0.655147850513 2.031667709351 -0.123339518905 -0.919277 -0.393609 0.001282
0.662816166878 2.006511449814 0.103277757764 -0.987489 -0.157685 -0.001118
0.666778624058 1.977910637856 -0.190210714936 -0.990429 -0.138020 0.001104
0.675175666809 1.908306598663 0.228517562151 -0.993777 -0.111381 0.001081
0.667999148369 1.970468163490 0.067089766264 -0.993777 -0.111381 0.001081
0.673733413219 1.919593214989 0.044912267476 -0.993777 -0.111381 0.001081
0.677873253822 1.881510972977 -0.140766873956 -0.993777 -0.111381 0.001081
0.673680663109 1.919532537460 -0.021156817675 -0.993777 -0.111381 0.001081
0.683178246021 1.836683988571 0.119464024901 -0.993777 -0.111381 0.001081
0.686769604683 1.776321291924 0.270991921425 -0.998840 -0.048149 0.001024
0.690910279751 1.691184282303 0.201648369431 -0.998840 -0.048149 0.001024
0.684820413589 1.813822507858 -0.033616006374 -0.998840 -0.048149 0.001024
0.686730802059 1.775483489037 0.057674936950 -0.998840 -0.048149 0.001024
0.689492881298 1.714467883110 0.017512843013 -0.999120 -0.041843 0.003062
0.689596652985 1.698610544205 -0.180863201618 -0.999120 -0.041843 0.003062
0.689334452152 1.712707638741 -0.063910126686 -0.999120 -0.041843 0.003062
0.690654516220 1.674509525299 -0.167849019170 -0.999120 -0.041843 0.003062
0.690863609314 1.673332095146 -0.112211354077 -0.999120 -0.041843 0.003062
0.695377349854 1.585946440697 0.137738347054 -0.999028 -0.043970 0.003068
0.696375966072 1.558447957039 0.066089332104 -0.999028 -0.043970 0.003068
0.696872293949 1.560130119324 0.256783634424 -0.999028 -0.043970 0.003068
0.695639133453 1.572450280190 0.026243064553 -0.999028 -0.043970 0.003068
0.695323586464 1.571433901787 -0.062980540097 -0.999279 -0.037613 0.005083
0.696980834007 1.528077125549 -0.049797616899 -0.999279 -0.037613 0.005083
0.700323879719 1.474380850792 0.218237951398 -0.999195 -0.039804 0.005103
0.701967656612 1.435517311096 0.233398273587 -0.999195 -0.039804 0.005103
0.703838706017 1.346989512444 0.068766623735 -0.999505 -0.029427 0.011162
0.700187981129 1.445684194565 -0.003085048869 -0.999505 -0.029427 0.011162
0.703634500504 1.326416850090 -0.011032971554 -0.999505 -0.029427 0.011162
0.700560569763 1.439531803131 0.015635183081 -0.999505 -0.029427 0.011162
0.707590043545 1.251021862030 0.158413290977 -0.999505 -0.029427 0.011162
0.710354089737 1.150319576263 0.192504614592 -0.999671 -0.025168 0.005034
0.709678471088 1.180970907211 0.208022922277 -0.999671 -0.025168 0.005034
0.731082618237 1.201547503471 0.267942100763 -0.511187 -0.042714 0.858408
0.730194270611 1.427778720856 0.279122292995 -0.523246 -0.048577 0.850796
0.717387914658 1.616286993027 0.282294541597 -0.527667 -0.051514 0.847888
0.694139420986 1.897227287292 0.288549721241 -0.541471 -0.078165 0.837078
-0.721548676491 1.150327086449 0.095939166844 0.999708 -0.023109 0.007033
-0.721511542797 1.156130909920 0.109441958368 0.999708 -0.023109 0.007033
-0.721901416779 1.102939009666 -0.007186539471 0.999708 -0.023109 0.007033
-0.722605586052 1.083284616470 0.029922347516 0.999708 -0.023109 0.007033
-0.719742834568 1.239957690239 0.127946481109 0.999708 -0.023109 0.007033
0.059026479721 1.396852970123 -0.189249604940 0.000997 -0.018940 0.999820
0.032345324755 1.575854420662 -0.185722038150 0.000997 -0.018940 0.999820
0.207353740931 1.279864192009 -0.191701605916 0.000997 -0.018940 0.999820
0.030032336712 1.214111089706 -0.192787945271 0.000997 -0.018940 0.999820
0.101588606834 1.383242130280 -0.189563199878 0.000997 -0.018940 0.999820
0.256050229073 1.423688650131 -0.188945755363 0.000997 -0.018940 0.999820
0.135584965348 1.537363052368 -0.186589717865 0.000997 -0.018940 0.999820
0.202280968428 1.590756893158 -0.185621052980 0.000997 -0.018940 0.999820
0.050687402487 1.287872791290 -0.191369742155 0.000997 -0.018940 0.999820
0.462536811829 1.515101552010 -0.187390655279 0.000997 -0.018940 0.999820
0.029387369752 1.437767744064 -0.188416942954 0.000997 -0.018940 0.999820
0.418874770403 1.467827796936 -0.188265517354 0.000997 -0.018940 0.999820
0.337553232908 1.590502500534 -0.185777425766 0.000997 -0.018940 0.999820
0.114395305514 1.478726148605 -0.187711775303 0.000997 -0.018940 0.999820
0.006989650428 1.493840694427 -0.187296211720 0.000997 -0.018940 0.999820
0.027242273092 1.212309956551 -0.192820012569 0.000997 -0.018940 0.999820
0.338041931391 1.565457224846 -0.186267361045 0.000997 -0.018940 0.999820
0.289339780807 1.345454216003 -0.190511718392 0.000997 -0.018940 0.999820
0.148745834827 1.690638303757 -0.183889538050 0.000993 -0.014894 0.999889
0.101826757193 1.751499176025 -0.182880491018 0.000993 -0.014894 0.999889
0.508076071739 1.627782583237 -0.185276195407 0.000993 -0.014894 0.999889
0.395439207554 1.690039396286 -0.184172347188 0.000993 -0.014894 0.999889
0.099713951349 1.910971045494 -0.180370390415 0.000993 -0.014894 0.999889
0.101933136582 2.038079738617 -0.178374007344 0.000993 -0.014894 0.999889
0.103529207408 2.046412229538 -0.178244724870 0.000993 -0.014894 0.999889
0.018688648939 1.918516159058 -0.180161938071 0.000993 -0.014894 0.999889
0.314467191696 1.832560896873 -0.181841403246 0.000993 -0.014894 0.999889
0.203963696957 1.929769515991 -0.180190294981 0.000993 -0.014894 0.999889
0.068011552095 1.720231294632 -0.183334708214 0.000993 -0.014894 0.999889
0.364314258099 1.767461538315 -0.182920351624 0.000993 -0.014894 0.999889
0.465398281813 1.678346514702 -0.184433758259 0.000993 -0.014894 0.999889
0.055458728224 2.135486602783 -0.176790729165 0.000993 -0.014894 0.999889
0.038743510842 1.997038960457 -0.178949356079 0.000993 -0.014894 0.999889
0.004834890366 2.085671186447 -0.177517995238 0.000993 -0.014894 0.999889
0.368880271912 1.698745250702 -0.184006020427 0.000993 -0.014894 0.999889
0.262453168631 1.618700623512 -0.185146808624 0.000993 -0.014894 0.999889
0.463351547718 1.741126179695 -0.183427363634 -0.000993 -0.016879 0.999857
0.227141812444 2.186380863190 -0.175909787416 -0.000993 -0.016879 0.999857
0.203144162893 2.245747804642 -0.174904495478 -0.000993 -0.016879 0.999857
0.187673270702 2.059384822845 -0.178096204996 -0.000993 -0.016879 0.999857
0.034087657928 2.224035263062 -0.175342470407 -0.000993 -0.016879 0.999857
0.479489773512 1.761418223381 -0.183074116707 -0.000993 -0.016879 0.999857
0.355023145676 1.967966318130 -0.179592698812 -0.000993 -0.016879 0.999857
0.319462299347 1.931711792946 -0.180226475000 -0.000993 -0.016879 0.999857
0.410163372755 1.840144038200 -0.181755825877 -0.000993 -0.016879 0.999857
0.292319029570 1.974790811539 -0.179500833154 -0.000993 -0.016879 0.999857
0.444930225611 2.022889852524 -0.178308784962 -0.009043 -0.021100 0.999736
0.532503962517 1.707522034645 -0.183952540159 -0.009043 -0.021100 0.999736
0.426912963390 2.072994232178 -0.177451103926 -0.009043 -0.021100 0.999736
0.580977737904 2.070601463318 -0.176581680775 -0.004994 -0.016980 0.999843
0.583818614483 2.022358894348 -0.177418902516 -0.004994 -0.016980 0.999843
0.457807838917 2.206893682480 -0.174837455153 -0.004994 -0.016980 0.999843
0.427361845970 2.231308698654 -0.174570202827 -0.004994 -0.016980 0.999843
0.615191638470 2.175610780716 -0.174669131637 0.000995 -0.018902 0.999821
0.694442093372 2.165633916855 -0.175149530172 0.013140 -0.021227 0.999688
0.666378617287 2.037258625031 -0.177615940571 0.013140 -0.021227 0.999688
0.671851813793 1.980891823769 -0.178934112191 0.006992 -0.014983 0.999863
0.782194375992 1.907629847527 -0.180835932493 0.006992 -0.014983 0.999863
0.791001856327 1.974584221840 -0.179824829102 0.006992 -0.014983 0.999863
0.790224552155 1.800401091576 -0.182101786137 0.006951 -0.008937 0.999936
0.645829856396 1.689983367920 -0.184006124735 0.000997 -0.020933 0.999780
0.682758927345 1.718881726265 -0.183410719037 0.000997 -0.020933 0.999780
0.602172136307 1.763252019882 -0.182430803776 0.000997 -0.020933 0.999780
0.575936377048 1.665068030357 -0.184501260519 0.000997 -0.020933 0.999780
0.795761644840 1.740595102310 -0.183000639081 -0.000995 -0.016913 0.999856
0.814878404140 1.555397510529 -0.109677359462 -0.001376 0.766300 0.642481
0.798827290535 1.579759478569 -0.138790428638 -0.001376 0.766300 0.642481
0.819251477718 1.606443166733 -0.170586913824 -0.001376 0.766300 0.642481
0.566748321056 1.503235697746 -0.048341169953 -0.001379 0.765161 0.643838
0.601062774658 1.499985218048 -0.044328887016 -0.001379 0.765161 0.643838
0.662809729576 1.512588620186 -0.059079088271 -0.001379 0.765161 0.643838
0.564459264278 1.421422839165 -0.058321237564 -0.999995 -0.002938 0.000979
0.564844191074 1.310750484467 -0.038954578340 -0.999995 -0.002938 0.000979
0.565260708332 1.190999984741 -0.025184771046 -0.999995 -0.002938 0.000979
0.564899384975 1.294873714447 -0.072099529207 -0.999995 -0.002938 0.000979
0.564937412739 1.283943653107 -0.088460609317 -0.999995 -0.002938 0.000979
0.564494073391 1.411415457726 -0.160259515047 -0.999995 -0.002938 0.000979
0.564215958118 1.491362452507 -0.156896054745 -0.999995 -0.002938 0.000979
0.564904332161 1.293445229530 -0.141353785992 -0.999995 -0.002938 0.000979
0.565532505512 1.112846374512 -0.186057597399 -0.999995 -0.002938 0.000979
0.564551532269 1.394884586334 -0.119584940374 -0.999995 -0.002938 0.000979
0.536747276783 1.461652040482 -0.188394740224 0.000995 -0.018902 0.999821
0.521516561508 1.362219691277 -0.190240323544 0.000995 -0.018902 0.999821
0.043887645006 1.027198553085 -0.196431189775 0.000995 -0.018902 0.999821
0.539460420609 1.353630065918 -0.190401002765 0.000995 -0.018902 0.999821
0.525676131248 1.501343727112 -0.187656909227 0.000995 -0.018902 0.999821
0.411719888449 1.269993782043 -0.191945970058 0.000995 -0.018902 0.999821
0.091444425285 1.077193617821 -0.195505797863 0.000995 -0.018902 0.999821
0.269478589296 1.208123683929 -0.193085774779 0.000995 -0.018902 0.999821
0.285007029772 1.149871587753 -0.194168582559 0.000995 -0.018902 0.999821
0.395594954491 1.155641794205 -0.194068580866 0.000995 -0.018902 0.999821
0.330257415771 1.163443326950 -0.193919479847 0.000995 -0.018902 0.999821
0.548989593983 1.425880312920 -0.189059853554 0.000995 -0.018902 0.999821
0.565487921238 1.120633363724 -0.194729700685 0.000995 -0.018902 0.999821
0.436737895012 1.183661580086 -0.193550869823 0.000995 -0.018902 0.999821
0.325910955667 1.175885200500 -0.193688139319 0.000995 -0.018902 0.999821
0.263574540615 1.051544904709 -0.195993244648 0.000995 -0.018902 0.999821
0.243156492710 1.093379735947 -0.195215016603 0.000995 -0.018902 0.999821
0.227103784680 1.159309864044 -0.193989574909 0.000995 -0.018902 0.999821
0.699200153351 1.178711414337 -0.002544020303 -0.000985 0.008867 0.999960
0.575087785721 1.201589822769 -0.002735847142 -0.000985 0.008867 0.999960
0.729051351547 1.194597601891 -0.002673898824 -0.000985 0.008867 0.999960
0.587099730968 1.203490018845 -0.002751140855 -0.000985 0.008867 0.999960
0.684086918831 1.235496401787 -0.003011756344 -0.000985 0.008867 0.999960
0.701198935509 1.373679637909 -0.004148426000 -0.000985 0.008867 0.999960
0.689406752586 1.393838524818 -0.004314658698 -0.000985 0.008867 0.999960
0.736997187138 1.398183703423 -0.004349053837 -0.000985 0.008867 0.999960
0.753145277500 1.467334032059 -0.004917655140 -0.000985 0.008867 0.999960
0.776428580284 1.318735241890 -0.003694115207 -0.000985 0.008867 0.999960
-0.041816029698 1.873301982880 -0.180875971913 -0.000993 -0.014894 0.999889
-0.194676697254 1.758906841278 -0.182828381658 -0.000993 -0.014894 0.999889
-0.086820870638 1.886777877808 -0.180708900094 -0.000993 -0.014894 0.999889
-0.056706085801 2.161521673203 -0.176356345415 -0.000993 -0.014894 0.999889
-0.118206553161 1.969558358192 -0.179437890649 -0.000993 -0.014894 0.999889
-0.246951282024 1.966981768608 -0.179607018828 -0.000993 -0.014894 0.999889
-0.534896492958 1.629095792770 -0.185210481286 -0.000993 -0.014894 0.999889
-0.275516748428 1.751362562180 -0.183027818799 -0.000993 -0.014894 0.999889
-0.360442936420 1.635304450989 -0.184938564897 -0.000993 -0.014894 0.999889
-0.045724574476 2.077239751816 -0.177671372890 -0.000993 -0.014894 0.999889
-0.109317712486 1.781447410583 -0.182388514280 -0.000993 -0.014894 0.999889
-0.151229187846 1.705398321152 -0.183626845479 -0.000993 -0.014894 0.999889
-0.068049937487 2.165978670120 -0.176297545433 -0.000993 -0.014894 0.999889
-0.331595778465 1.823434710503 -0.181949943304 -0.000993 -0.014894 0.999889
-0.214302003384 1.929700970650 -0.180160924792 -0.000993 -0.014894 0.999889
-0.029760960490 2.214545488358 -0.175495222211 -0.000993 -0.014894 0.999889
-0.145860135555 1.977722406387 -0.179337054491 -0.000993 -0.014894 0.999889
-0.029240822420 2.208306789398 -0.175592854619 -0.000993 -0.014894 0.999889
-0.220650121570 2.220173835754 -0.175317361951 0.000993 -0.016879 0.999857
-0.116350710392 2.220291614532 -0.175368994474 0.000993 -0.016879 0.999857
-0.351103752851 1.999168992043 -0.179027333856 0.000993 -0.016879 0.999857
-0.515111923218 1.707432746887 -0.183928847313 0.000993 -0.016879 0.999857
-0.299263030291 2.224738597870 -0.175198927522 0.000993 -0.016879 0.999857
-0.266650170088 2.128524780273 -0.176860019565 0.000993 -0.016879 0.999857
-0.406246900558 1.820919394493 -0.182045325637 0.000993 -0.016879 0.999857
-0.419350713491 2.014653921127 -0.178727582097 0.000993 -0.016879 0.999857
-0.224796786904 2.047074556351 -0.178273558617 0.000993 -0.016879 0.999857
-0.212208002806 2.100567340851 -0.177365824580 0.000993 -0.016879 0.999857
-0.318329393864 2.064195871353 -0.177932843566 0.000993 -0.016879 0.999857
-0.577883183956 1.874060153961 -0.180183574557 0.009043 -0.021100 0.999736
-0.490387469530 1.973065137863 -0.179000675678 0.009043 -0.021100 0.999736
-0.457120478153 1.953421354294 -0.179723381996 0.009043 -0.021100 0.999736
-0.358566045761 2.211258411407 -0.175396382809 0.009043 -0.021100 0.999736
-0.547785699368 2.136040925980 -0.175640359521 0.004994 -0.016980 0.999843
-0.590486586094 2.200972080231 -0.174259826541 0.004994 -0.016980 0.999843
-0.510149478912 2.039720058441 -0.177546486259 0.004994 -0.016980 0.999843
-0.472529768944 2.082324743271 -0.177002727985 0.004994 -0.016980 0.999843
-0.640296518803 2.016611099243 -0.177472546697 -0.000995 -0.018902 0.999821
-0.666718006134 2.155800104141 -0.175001680851 -0.000995 -0.018902 0.999821
-0.695159673691 2.119040012360 -0.175806835294 -0.011097 -0.021185 0.999714
-0.777747154236 2.071298122406 -0.178000658751 -0.009043 -0.019091 0.999777
-0.792946696281 1.998475790024 -0.179531350732 -0.009043 -0.019091 0.999777
-0.730779409409 1.928149819374 -0.180123701692 -0.006964 -0.012934 0.999892
-0.804977059364 1.769780755043 -0.182334542274 -0.006951 -0.008937 0.999936
-0.717823386192 1.804545283318 -0.181467309594 -0.002985 -0.016913 0.999852
-0.696761727333 1.697781562805 -0.183604702353 0.000999 -0.020974 0.999780
-0.642668426037 1.692513346672 -0.183771416545 0.000999 -0.020974 0.999780
-0.834275782108 1.670474529266 -0.184040278196 0.000999 -0.020974 0.999780
-0.717895030975 1.562301397324 -0.124228864908 -0.004136 0.765155 0.643833
-0.797115206718 1.593103289604 -0.161368533969 -0.004136 0.765155 0.643833
-0.587262928486 1.554258227348 -0.113883092999 -0.004136 0.765155 0.643833
-0.578609049320 1.470390081406 -0.135901510715 0.999995 0.002938 0.000979
-0.578326642513 1.389199376106 -0.159295558929 0.999995 0.002938 0.000979
-0.578219175339 1.358290791512 -0.048168156296 0.999995 0.002938 0.000979
-0.578497886658 1.438422679901 -0.185974776745 0.999995 0.002938 0.000979
-0.578104317188 1.325278043747 -0.095211043954 0.999995 0.002938 0.000979
-0.578432261944 1.419566035271 -0.135093912482 0.999995 0.002938 0.000979
-0.577336668968 1.104584455490 -0.016575779766 0.999995 0.002938 0.000979
-0.577743530273 1.221541881561 -0.089063338935 0.999995 0.002938 0.000979
-0.577151417732 1.051329493523 -0.085589699447 0.999995 0.002938 0.000979
-0.671846210957 1.320229053497 -0.003747864161 -0.000985 0.008867 0.999960
-0.764585375786 1.429787874222 -0.004652116448 -0.000985 0.008867 0.999960
-0.585791110992 1.196020960808 -0.002723246813 -0.000985 0.008867 0.999960
-0.582959294319 1.229470133781 -0.002998430748 -0.000985 0.008867 0.999960
-0.829419970512 1.562231063843 -0.124671868980 -0.001378 0.767655 0.640861
-0.706515252590 1.476256370544 -0.021534908563 -0.001378 0.767655 0.640861
-0.722016811371 1.510156512260 -0.062065437436 -0.001378 0.767655 0.640861
-0.800934255123 1.193826556206 -0.002711347537 -0.000985 0.008867 0.999960
-0.821464180946 1.387118935585 -0.004302606452 -0.000985 0.008867 0.999960
-0.809958696365 1.112099885941 -0.002039046492 -0.000985 0.008867 0.999960
-0.750830471516 1.081505179405 -0.001785580651 -0.000985 0.008867 0.999960
-0.211081743240 1.509382605553 -0.187073290348 -0.000995 -0.018902 0.999821
-0.457347303629 1.128947377205 -0.194382920861 -0.000995 -0.018902 0.999821
-0.519754886627 1.301674008369 -0.191236183047 -0.000995 -0.018902 0.999821
-0.497660636902 1.149604797363 -0.194039016962 -0.000995 -0.018902 0.999821
-0.282540231943 1.359186649323 -0.189933702350 -0.000995 -0.018902 0.999821
-0.536531209946 1.347847580910 -0.190395072103 -0.000995 -0.018902 0.999821
-0.570928096771 1.181458592415 -0.193519681692 -0.000995 -0.018902 0.999821
-0.483381837606 1.265819549561 -0.191866263747 -0.000995 -0.018902 0.999821
-0.497174561024 1.282155156136 -0.191576451063 -0.000995 -0.018902 0.999821
-0.477010637522 1.327045559883 -0.190722718835 -0.000995 -0.018902 0.999821
-0.476524978876 1.295287370682 -0.191312134266 -0.000995 -0.018902 0.999821
-0.530966758728 1.452702045441 -0.188441932201 -0.000995 -0.018902 0.999821
-0.374087154865 1.315103530884 -0.190842911601 -0.000995 -0.018902 0.999821
-0.295689404011 1.394414544106 -0.189292326570 -0.000995 -0.018902 0.999821
-0.537778258324 1.278044819832 -0.191692888737 -0.000995 -0.018902 0.999821
-0.080242313445 1.584073066711 -0.185556769371 -0.000995 -0.018902 0.999821
-0.221154645085 1.539997577667 -0.186514571309 -0.000995 -0.018902 0.999821
-0.022742301226 1.132039785385 -0.194350183010 0.000995 -0.018902 0.999821
-0.405442059040 1.127792358398 -0.194407165051 0.000995 -0.018902 0.999821
-0.340881913900 1.031005501747 -0.196303129196 0.000995 -0.018902 0.999821
-0.155124172568 1.062911033630 -0.195692211390 0.000995 -0.018902 0.999821
-0.368786066771 1.099935531616 -0.194954082370 0.000995 -0.018902 0.999821
-0.423868834972 1.016365170479 -0.196583613753 0.000995 -0.018902 0.999821
-0.079646117985 1.136460185051 -0.194259926677 0.000995 -0.018902 0.999821
-0.156988397241 1.084108114243 -0.195277810097 0.000995 -0.018902 0.999821
-0.331760436296 1.119024157524 -0.194583550096 0.000995 -0.018902 0.999821
-0.211670696735 1.009612321854 -0.196730017662 0.000995 -0.018902 0.999821
-0.135551482439 1.268865227699 -0.191668421030 0.000995 -0.018902 0.999821
-0.083638772368 1.468210816383 -0.187775999308 0.000995 -0.018902 0.999821
-0.538969755173 1.000154495239 -0.196892619133 0.000995 -0.018902 0.999821
-0.094063818455 1.208521366119 -0.192850589752 0.000995 -0.018902 0.999821
-0.208044484258 1.143225312233 -0.194118961692 0.000995 -0.018902 0.999821
-0.139929056168 1.448129773140 -0.188164636493 0.000995 -0.018902 0.999821
-0.088217936456 1.349534153938 -0.190095067024 0.000995 -0.018902 0.999821
0.756769418716 -0.699272274971 0.219479411840 0.001016 -0.041673 0.999131
0.751002430916 -0.287890136242 0.236256942153 -0.015466 -0.040210 0.999072
0.754140853882 0.030392318964 0.248008191586 0.001010 -0.035367 0.999374
0.758843123913 0.415782243013 0.261465996504 0.001009 -0.033281 0.999445
0.772138893604 0.564100861549 0.266377270222 0.007102 -0.033483 0.999414
0.756073534489 1.109207510948 0.285778939724 0.001012 -0.037461 0.999298
0.748664379120 0.884893715382 0.277328461409 -0.637854 -0.049721 0.768550
0.743535459042 0.885446548462 0.273106187582 -0.628671 -0.046831 0.776260
0.720137059689 1.147327780724 0.247828602791 -0.983127 -0.036325 0.179283
0.729799628258 0.759045898914 0.226088806987 -0.979636 -0.034352 0.197822
0.720969855785 1.037035942078 0.229729235172 -0.988978 -0.023790 -0.146138
0.728853523731 0.996257543564 0.183043584228 -0.988978 -0.023790 -0.146138
0.729041457176 0.961951017380 0.187327876687 -0.988978 -0.023790 -0.146138
0.731099724770 0.749750673771 0.062291104347 -0.999815 0.017014 -0.009007
0.732355177402 0.866986751556 0.152442708611 -0.999815 0.017014 -0.009007
0.735626101494 1.032688498497 0.098171189427 -0.999815 0.017014 -0.009007
0.729830384254 0.748106956482 0.212995052338 -0.999815 0.017014 -0.009007
0.735523045063 0.837032496929 0.031600929797 -0.989432 0.037573 -0.140046
0.739310026169 0.926606297493 0.028381360695 -0.989432 0.037573 -0.140046
0.744657814503 0.757887899876 -0.053887285292 -0.989432 0.037573 -0.140046
0.741603434086 0.822488665581 -0.015226718038 -0.989432 0.037573 -0.140046
0.743086040020 0.926475882530 0.001709256321 -0.989432 0.037573 -0.140046
0.753421068192 1.034132122993 -0.044930763543 -0.992081 0.030199 -0.121913
0.756259322166 0.854092836380 -0.129893079400 -0.999488 0.025471 0.019358
0.752788782120 0.746100246906 -0.148547187448 -0.998393 0.039008 0.041116
0.748910546303 0.742085933685 -0.236905366182 -0.998393 0.039008 0.041116
0.751759886742 0.860089063644 -0.307962864637 -0.998223 0.057489 0.015679
0.737386882305 0.802362203598 -0.430900335312 -0.988083 0.066494 0.138822
0.741995334625 0.462194412947 -0.364815235138 -0.990125 -0.001104 0.140185
0.743081867695 0.690196096897 -0.356516718864 -0.990125 -0.001104 0.140185
0.731790900230 0.487045377493 -0.441300600767 -0.992323 -0.003282 0.123630
0.737001776695 0.342108339071 -0.404605418444 -0.992323 -0.003282 0.123630
0.732262194157 0.211529478431 -0.432182192802 -0.991873 0.027956 0.124124
0.735839784145 0.221852079034 -0.406074494123 -0.991873 0.027956 0.124124
0.733324766159 -0.042982906103 -0.373749643564 -0.990074 0.023654 0.138543
0.738950252533 0.100815653801 -0.358529359102 -0.990074 0.023654 0.138543
0.719371020794 -0.415351718664 -0.431251049042 -0.990209 0.010025 0.139231
0.728384017944 -0.239368036389 -0.380625933409 -0.990209 0.010025 0.139231
0.719023704529 -0.435128390789 -0.432201385498 -0.990209 0.010025 0.139231
0.719559848309 -0.592011153698 -0.418527096510 -0.987305 0.005629 0.158734
0.723492085934 -0.686824619770 -0.390332788229 -0.987305 0.005629 0.158734
0.712991774082 -0.758801043034 -0.433594226837 -0.983736 0.070182 0.165344
0.714110970497 -0.863765537739 -0.382213532925 -0.983736 0.070182 0.165344
0.708533048630 -0.956852555275 -0.438242852688 -0.999852 0.016947 -0.002991
0.721261322498 -0.878816604614 -0.289982169867 -0.994924 0.072257 0.070034
0.711615622044 -0.958109200001 -0.344699621201 -0.994924 0.072257 0.070034
0.714041590691 -0.959765315056 -0.211023315787 -0.993134 0.115481 0.018697
0.724282145500 -0.867205739021 -0.243450596929 -0.993134 0.115481 0.018697
0.720157027245 -0.907051265240 -0.213559508324 -0.993134 0.115481 0.018697
0.715517401695 -0.898795306683 -0.099182233214 -0.984498 0.116601 -0.131026
0.733425915241 -0.786648750305 -0.134473085403 -0.984498 0.116601 -0.131026
0.712334513664 -0.918308556080 -0.086003027856 -0.998817 0.048346 -0.005143
0.714070618153 -0.880168497562 -0.067018821836 -0.998817 0.048346 -0.005143
0.710392892361 -0.933048486710 0.021021261811 -0.997692 0.048017 -0.048017
0.713468194008 -0.802396953106 0.090468876064 -0.997692 0.048017 -0.048017
0.711252093315 -0.876221418381 0.117130927742 -0.999892 0.006978 0.012960
0.717043697834 -0.841249287128 0.193904623389 -0.980397 0.003456 0.197001
0.725023388863 -0.600457787514 0.211967691779 -0.579506 -0.023512 0.814628
0.748699843884 0.228502705693 0.250122815371 -0.623407 -0.018050 0.781689
0.737318933010 0.721673905849 0.258309572935 -0.622547 -0.029379 0.782031
0.731968760490 0.708214700222 0.231369867921 -0.980100 -0.008119 0.198340
0.733960032463 0.421077072620 0.228204950690 -0.979553 -0.008134 0.201023
0.730637729168 0.538228631020 0.146995231509 -0.999956 -0.002961 -0.008884
0.731015920639 0.716663956642 0.042222816497 -0.999956 -0.002961 -0.008884
0.730553507805 0.507476747036 0.167445212603 -0.999956 -0.002961 -0.008884
0.730322539806 0.505548477173 0.197048276663 -0.999956 -0.002961 -0.008884
0.729245245457 0.317314445972 0.091054990888 -0.999831 0.006992 0.016980
0.729637682438 0.283455103636 0.126988142729 -0.999831 0.006992 0.016980
0.730525910854 0.639726758003 0.042370874435 -0.999831 0.006992 0.016980
0.730625033379 0.293564707041 0.180866405368 -0.999831 0.006992 0.016980
0.730839192867 0.478555113077 0.020352803171 -0.990252 0.010003 -0.138924
0.727894783020 0.275018453598 0.027676509693 -0.990252 0.010003 -0.138924
0.734368681908 0.658904314041 0.007337346673 -0.990252 0.010003 -0.138924
0.744945287704 0.502814292908 -0.074450582266 -0.987372 0.003370 -0.158384
0.751015126705 0.282788008451 -0.116240568459 -0.987372 0.003370 -0.158384
0.752332329750 0.536126017570 -0.119697101414 -0.987372 0.003370 -0.158384
0.743596613407 0.280292987823 -0.070224478841 -0.987372 0.003370 -0.158384
0.752243459225 0.478678435087 -0.138316333294 -0.999127 0.001018 0.041758
0.752459943295 0.693668842316 -0.141235068440 -0.999127 0.001018 0.041758
0.746404588223 0.691612660885 -0.283845871687 -0.999127 0.001018 0.041758
0.746670007706 0.631741166115 -0.275357723236 -0.999127 0.001018 0.041758
0.751664102077 0.658374369144 -0.158671736717 -0.999127 0.001018 0.041758
0.750952780247 0.435460209846 -0.167118132114 -0.999127 0.001018 0.041758
0.748503386974 0.415719211102 -0.227364733815 -0.999298 -0.001012 0.037461
0.743853807449 0.623614311218 -0.346882134676 -0.999298 -0.001012 0.037461
0.750727236271 0.344546377659 -0.169499680400 -0.999298 -0.001012 0.037461
0.749631702900 0.309283316135 -0.199746236205 -0.999298 -0.001012 0.037461
0.751146614552 0.322254329920 -0.158808410168 -0.999298 -0.001012 0.037461
0.737549960613 -0.045135460794 -0.318210899830 -0.998978 0.023859 0.038382
0.746946930885 0.207959011197 -0.235338062048 -0.998978 0.023859 0.038382
0.735839426517 -0.064651012421 -0.350635230541 -0.998978 0.023859 0.038382
0.742547869682 0.098637133837 -0.280114293098 -0.998978 0.023859 0.038382
0.750388622284 0.250841736794 -0.172459468246 -0.998978 0.023859 0.038382
0.743045330048 -0.113751888275 -0.193111568689 -0.998223 0.015679 0.057489
0.747070670128 0.076231122017 -0.171566262841 -0.998223 0.015679 0.057489
0.735174655914 -0.155898541212 -0.319290786982 -0.998223 0.015679 0.057489
0.743874311447 0.017015449703 -0.212063580751 -0.998223 0.015679 0.057489
0.746648132801 0.102131038904 -0.185528755188 -0.998223 0.015679 0.057489
0.730759143829 -0.554857194424 -0.333991557360 -0.998323 0.009350 0.057136
0.737518906593 -0.376802563667 -0.242419078946 -0.998323 0.009350 0.057136
0.737601578236 -0.364936858416 -0.242743313313 -0.998323 0.009350 0.057136
0.740260183811 -0.331937253475 -0.201205566525 -0.998323 0.009350 0.057136
0.730952203274 -0.535036146641 -0.333574742079 -0.998323 0.009350 0.057136
0.738204002380 -0.242001265287 -0.250548839569 -0.998323 0.009350 0.057136
0.734331905842 -0.652175486088 -0.269742757082 -0.997687 0.003134 0.067905
0.736303865910 -0.470160335302 -0.251085430384 -0.997687 0.003134 0.067905
0.739941060543 -0.683071732521 -0.185896858573 -0.997687 0.003134 0.067905
0.743477880955 -0.330563962460 -0.153895005584 -0.997687 0.003134 0.067905
0.742072880268 -0.714130401611 -0.152946680784 -0.997687 0.003134 0.067905
0.734307408333 -0.368277639151 -0.077916897833 -0.988815 0.007839 -0.148938
0.733507514000 -0.284256964922 -0.068427637219 -0.988815 0.007839 -0.148938
0.728029310703 -0.344594866037 -0.035230122507 -0.988815 0.007839 -0.148938
0.737534344196 -0.506688177586 -0.106170400977 -0.988815 0.007839 -0.148938
0.740553319454 -0.546340346336 -0.128110796213 -0.988815 0.007839 -0.148938
0.726990103722 -0.661169886589 -0.035243682563 -0.990764 0.003306 -0.135555
0.721883058548 -0.227542206645 0.011483738199 -0.990764 0.003306 -0.135555
0.728025555611 -0.576223671436 -0.040987942368 -0.990764 0.003306 -0.135555
0.722398757935 -0.649042665958 -0.001384032890 -0.990764 0.003306 -0.135555
0.720958232880 -0.468479931355 0.021944297478 -0.999960 0.000985 0.008867
0.721520543098 -0.412817448378 0.090719982982 -0.999960 0.000985 0.008867
0.720944166183 -0.310829013586 0.019812704995 -0.999960 0.000985 0.008867
0.721399724483 -0.319799274206 0.075676545501 -0.999960 0.000985 0.008867
0.721380054951 -0.382632672787 0.073427677155 -0.999960 0.000985 0.008867
0.721677184105 -0.257930934429 0.181185320020 -0.998606 0.019785 -0.048941
0.719008266926 -0.706297934055 0.056491330266 -0.998606 0.019785 -0.048941
0.715849101543 -0.617389619350 0.158101618290 -0.998606 0.019785 -0.048941
0.719208657742 -0.623787462711 0.085499875247 -0.998606 0.019785 -0.048941
0.722968876362 -0.232960551977 0.195074707270 -0.976783 0.008189 0.214073
0.730800569057 0.210319638252 0.208993807435 -0.979437 0.010481 0.201478
0.723789870739 -0.117919698358 0.187612771988 -0.999778 0.019053 0.009025
0.724178373814 -0.062710724771 0.115809187293 -0.999778 0.019053 0.009025
0.722609579563 -0.156609714031 0.131268098950 -0.999778 0.019053 0.009025
0.721319437027 -0.196515947580 0.064597688615 -0.999778 0.019053 0.009025
0.726532936096 0.154583320022 0.046034228057 -0.999739 0.015102 0.017115
0.729822933674 0.256005436182 0.151993811131 -0.999739 0.015102 0.017115
0.726323485374 0.063384510577 0.112104445696 -0.999739 0.015102 0.017115
0.725568771362 0.069122485816 0.062876082957 -0.999739 0.015102 0.017115
0.725289285183 -0.059630230069 0.006278876215 -0.988554 0.016908 -0.149918
0.732242822647 0.058304592967 -0.025930436328 -0.988554 0.016908 -0.149918
0.729699850082 0.091928906739 -0.005131744780 -0.988554 0.016908 -0.149918
0.726971447468 0.036889612675 0.006476279814 -0.988554 0.016908 -0.149918
0.739848673344 0.002255188767 -0.081992641091 -0.987101 0.021682 -0.158621
0.735912084579 0.229767367244 -0.027214683592 -0.987101 0.021682 -0.158621
0.731408894062 0.216216072440 -0.001076757908 -0.987101 0.021682 -0.158621
0.741220831871 0.145665451884 -0.071377769113 -0.987101 0.021682 -0.158621
0.777345955372 -0.896631836891 0.211868703365 0.001015 -0.037537 0.999295
-0.717192888260 -0.712387263775 0.194829255342 0.982721 0.019678 0.184043
-0.710541307926 -0.871157526970 0.171099081635 0.982988 0.012676 0.183230
-0.707884311676 -0.929112315178 0.067059904337 0.999802 0.015042 0.013037
-0.712067723274 -0.815303266048 0.078879691660 0.997331 0.054751 -0.048310
-0.716938376427 -0.770197331905 0.029280066490 0.997331 0.054751 -0.048310
-0.724010109901 -0.250452846289 0.186918020248 0.998544 0.026195 -0.047151
-0.717886328697 -0.642282724380 0.100145779550 0.998544 0.026195 -0.047151
-0.719830393791 -0.708222270012 0.023548111320 0.998544 0.026195 -0.047151
-0.719608604908 -0.488554239273 0.148368030787 0.998544 0.026195 -0.047151
-0.719948470592 -0.516206979752 0.190042659640 0.976870 0.015319 0.213285
-0.734652161598 0.025704443455 0.216912105680 0.976832 0.017675 0.213277
-0.752186298370 0.028746977448 0.244887530804 0.622085 -0.015240 0.782802
-0.746768891811 0.515023350716 0.252475261688 0.622989 -0.023693 0.781872
-0.741949081421 0.572932720184 0.234730377793 0.980402 -0.001152 0.197002
-0.736661851406 0.840171933174 0.226017445326 0.979580 -0.027112 0.199217
-0.742222785950 0.886125087738 0.261024624109 0.983173 -0.029088 0.180345
